# .PCD v0.7 - Point Cloud Data file format
VERSION 0.7
FIELDS x y z intensity
SIZE 4 4 4 4
TYPE F F F F
COUNT 1 1 1 1
WIDTH 1088
HEIGHT 1
VIEWPOINT 0 0 0 1 0 0 0
POINTS 1088
DATA ascii
-1.2914063 0.70994139 0.030624008 0.99412131
-1.253828 0.70995116 0.029941788 0.99425185
-1.1834277 0.70995116 0.028678397 0.99449384
-1.1187109 0.70995116 0.027533645 0.99471301
-1.0882422 0.70995116 0.027001113 0.99481499
-1.0589257 0.70994139 0.026492767 0.99491233
-1.0571289 0.72818357 0.026675338 0.99487746
-1.0573144 0.7480371 0.026914405 0.99483156
-1.0576172 0.78890622 0.027419128 0.994735
-1.0578125 0.80991209 0.027685242 0.99468398
-1.0581933 0.85322261 0.028247641 0.99457628
-1.0583886 0.87555665 0.02854454 0.99451947
-1.058584 0.89837891 0.028852005 0.99446058
-13.062666 12.26666 0.3723776 0.93081659
-12.857383 12.381581 0.37093148 0.93107569
-12.653643 12.495625 0.36955452 0.93132252
-12.250527 12.721289 0.36700478 0.9317798
-12.050957 12.832978 0.36582795 0.9319908
-11.852685 12.943984 0.3647196 0.93219
-11.264492 13.273232 0.36176658 0.93271989
-11.070439 13.381855 0.36090612 0.93287426
-10.684921 13.597656 0.35937119 0.93315053
-10.493349 13.704902 0.35869056 0.93327248
-10.302451 13.811748 0.3580693 0.933384
-9.3562107 14.341445 0.35583991 0.93378508
-8.7928123 14.656826 0.35518187 0.93390298
-8.6053419 14.761738 0.35507697 0.93392217
-8.4179983 14.866631 0.35502768 0.93393105
-8.2306538 14.971494 0.3550325 0.93392998
-8.0432711 15.076377 0.35509545 0.93391877
-7.6681833 15.286347 0.35538855 0.93386614
-6.9149413 15.707997 0.3566519 0.93363887
-6.53582 15.920205 0.35762548 0.93346369
-6.3454294 16.026787 0.35820341 0.93336046
-6.1544137 16.13372 0.35883307 0.93324667
-2.5387011 8.5376167 0.18511298 0.96499151
-2.3068163 8.5376072 0.18377906 0.96523595
-3.5008397 16.137363 0.3431468 0.93606985
-3.0690136 16.088116 0.34035668 0.93657368
-3.4486523 19.399746 0.40945891 0.92419463
14.344004 15.664687 0.44137892 0.91853261
14.333789 14.8846 0.42941642 0.92065066
10.755859 10.891874 0.31756079 0.94059426
14.319424 13.789531 0.41311264 0.9235453
14.314882 13.442568 0.40807396 0.9244414
14.239414 10.621465 0.36915657 0.93139368
1.2927539 0.86673826 0.032343827 0.9937923
1.2917578 0.73143554 0.03084854 0.99407846
1.2916113 0.71006835 0.030629311 0.99412036
1.3307129 0.70995116 0.031343117 0.99398386
1.3719727 0.70995116 0.032101821 0.99383861
1.4152539 0.70994139 0.032903135 0.99368531
1.4607714 0.70994139 0.033751603 0.99352306
1.5087109 0.70995116 0.034650192 0.99335116
1.7293066 0.70994139 0.038846817 0.99254882
1.7931151 0.70994139 0.040076979 0.99231386
1.9708691 0.69560546 0.04343193 0.99167299
1.9709179 0.66791016 0.043245047 0.9917087
1.9709179 -0.66787106 0.043245085 0.99170876
1.9337401 -0.70994139 0.042807236 0.99179232
1.7931347 -0.70995116 0.040076751 0.99231374
1.6127148 -0.70995116 0.036617089 0.992975
1.5592871 -0.70996094 0.035603676 0.99316871
1.4607714 -0.70995116 0.033751372 0.99352306
1.3719629 -0.70995116 0.032101858 0.99383867
1.3307226 -0.70994139 0.031342965 0.99398386
1.2916113 -0.71006835 0.030629424 0.99412036
1.291748 -0.73145509 0.03084854 0.99407846
1.2919042 -0.75312501 0.031075744 0.99403501
1.2920507 -0.77513671 0.031311493 0.99398994
1.2922266 -0.79748046 0.031555519 0.99394315
1.2924023 -0.82018554 0.031808853 0.99389464
1.2925488 -0.84327149 0.032071572 0.99384445
1.2927539 -0.86674803 0.032343827 0.9937923
1.2933496 -0.93967772 0.033221245 0.99362433
10.567236 -8.303628 0.27927947 0.94765091
10.316358 -8.3182859 0.27538911 0.94836074
4.7365527 -3.9184082 0.12774509 0.97570562
9.7276459 -8.6852932 0.27099541 0.94916344
9.7247162 -8.904829 0.27401 0.94861269
9.6967478 -9.1058588 0.27642134 0.94817179
13.806992 -13.981586 0.40833738 0.92439437
13.802343 -14.332759 0.41349357 0.92347699
13.797587 -14.692954 0.41885093 0.92252517
13.792705 -15.062655 0.42441466 0.9215374
13.782529 -15.832665 0.43621069 0.91944689
3.2953124 -3.8829393 0.10583126 0.97983068
3.230283 -3.9047265 0.10531086 0.97992897
10.121426 -15.514389 0.38494101 0.92856759
9.7667084 -16.753984 0.40299758 0.92534524
1.819873 -3.8674121 0.088820912 0.98304486
9.4479494 -22.214878 0.5016579 0.90793461
3.0154004 -8.2133198 0.18181823 0.96560061
2.7883301 -8.228301 0.18054023 0.96583802
2.5587206 -8.2252636 0.17900604 0.9661234
2.4453614 -8.2237501 0.17829116 0.96625656
2.2080762 -8.5999413 0.18451026 0.96510035
-12.896181 -20.32107 0.50014305 0.90819889
-12.888681 -19.756063 0.49018568 0.90994185
-12.877548 -18.694931 0.47173813 0.91317904
-12.957275 -18.313768 0.46619505 0.91415471
-14.089872 -18.402119 0.48162857 0.91144222
-14.547295 -17.141436 0.46719816 0.91397822
-1.0590234 -0.94554687 0.0295026 0.99433601
-1.0588086 -0.92168945 0.029171485 0.99439943
-1.0583886 -0.87555665 0.02854435 0.99451947
-1.0581836 -0.85322261 0.028247794 0.99457633
-1.0578125 -0.80992186 0.027685471 0.99468398
-1.0574609 -0.768291 0.027162131 0.99478412
-1.0573046 -0.74804688 0.026914405 0.99483162
-1.0589257 -0.70995116 0.026492691 0.99491233
-1.0882519 -0.70995116 0.027001189 0.99481493
-1.1187109 -0.70994139 0.027533645 0.99471301
-1.1834472 -0.70996094 0.028678169 0.99449372
-1.2538086 -0.70996094 0.029941978 0.99425191
-1.3307421 -0.70995116 0.031343229 0.99398375
-1.3720019 -0.70994139 0.032101668 0.99383855
-1.415293 -0.70994139 0.032903288 0.99368519
-1.5087402 -0.70996094 0.034650113 0.99335104
-1.5593066 -0.70996094 0.035603561 0.99316865
-1.6127441 -0.70994139 0.036617126 0.99297494
-1.6693066 -0.70994139 0.037696265 0.9927687
-1.7648242 -0.69874024 0.039443739 0.99243468
-1.7648535 -0.64793944 0.039068833 0.99250644
-11.299951 -3.9881933 0.24901694 0.95318836
-1.7656933 0.67353517 0.034033507 0.99246812
-1.5087304 0.70993161 0.030028991 0.99335146
-1.460791 0.70996094 0.029250182 0.9935233
-1.4152637 0.70995116 0.028515015 0.9936856
-1.3720117 0.70994139 0.027820434 0.99383885
-1.3307421 0.70994139 0.027162895 0.9939841
-1.2914063 0.70994139 0.02653984 0.99412167
-1.253828 0.70995116 0.025948791 0.99425215
-1.2178808 0.70995116 0.025387459 0.99437612
-1.1834277 0.70995116 0.024853477 0.99449414
-1.1504296 0.70996094 0.024345703 0.99460626
-1.0589257 0.70994139 0.02295967 0.99491262
-1.0547168 0.72651368 0.023064956 0.99488938
-1.0548632 0.74631834 0.023271369 0.99484378
-1.0550097 0.7664941 0.023484955 0.99479651
-1.055166 0.78705078 0.023706626 0.99474752
-1.0554589 0.82936519 0.024174385 0.99464422
-1.0559765 0.89616209 0.024942664 0.99447447
-1.0563476 0.94315428 0.025503425 0.99435061
-13.062666 12.26666 0.32271492 0.93082017
-12.857372 12.381581 0.32146141 0.93107933
-12.653652 12.495625 0.32026801 0.93132603
-12.451406 12.608848 0.31913322 0.93156064
-12.050957 12.832978 0.31704056 0.93199432
-11.459521 13.164082 0.31431913 0.93255788
-11.264492 13.273222 0.31352049 0.9327234
-11.070439 13.381865 0.31277487 0.93287772
-10.877275 13.48998 0.3120819 0.93302125
-10.49336 13.704902 0.31085303 0.93327594
-9.7333498 14.130342 0.30900741 0.93365896
-9.5445995 14.235996 0.30867049 0.93372887
-9.1681643 14.446699 0.30814382 0.93383801
-8.7928123 14.656826 0.30781227 0.93390644
-8.0432711 15.076396 0.30773741 0.93392217
-7.4803514 15.391503 0.30819151 0.933828
-6.9149508 15.708008 0.30908614 0.93364227
-6.7256641 15.813954 0.30948502 0.93355989
-6.53583 15.920205 0.30993384 0.93346715
-5.962656 16.241064 0.31157944 0.93312573
-5.9135156 17.450703 0.33182877 0.92893761
-5.8684764 18.061357 0.34200326 0.92683876
-5.8863573 18.922207 0.3568823 0.92378175
-2.4116015 8.4997072 0.15911528 0.96527082
-2.3068457 8.5376854 0.15927117 0.9652375
-3.9292967 16.143076 0.29921332 0.93569249
-3.7144139 16.140215 0.29827139 0.93588829
-3.5008495 16.137373 0.29738235 0.93607312
-3.2884862 16.13456 0.29654509 0.93624717
-3.0689745 16.088135 0.29495314 0.93657696
-3.4486523 19.399755 0.35485449 0.92419851
-3.3239355 20.165596 0.36806861 0.92148936
14.398408 19.817705 0.44115767 0.90664887
14.384912 18.787479 0.42613739 0.90967876
14.366269 17.365879 0.40589416 0.91377878
10.603369 11.010839 0.27529517 0.9406774
1.2901465 0.91281247 0.0284626 0.99369729
1.2899902 0.88858396 0.028210258 0.9937529
1.2898242 0.86476558 0.027966956 0.99380672
1.2896582 0.84136719 0.027731819 0.99385858
1.2895215 0.81836915 0.027505416 0.99390852
1.2893847 0.79572266 0.027286872 0.99395674
1.2892284 0.77342772 0.027075844 0.99400336
1.2890918 0.75148433 0.026872749 0.99404824
1.3307129 0.70995116 0.0271632 0.99398416
1.3719727 0.70995116 0.027820205 0.99383897
1.4607714 0.70994139 0.029250182 0.99352342
1.5592773 0.70995116 0.030855445 0.99316913
1.7293066 0.70994139 0.033666305 0.99254924
1.7931151 0.70994139 0.034732129 0.99231428
1.9729491 0.66856444 0.037516326 0.99170071
14.694795 -4.1692872 0.2750878 0.94072056
14.563632 -4.3305368 0.27362937 0.94102532
1.9729394 -0.66857421 0.037516363 0.99170071
1.7931347 -0.70995116 0.034732055 0.99231416
1.6692773 -0.70995116 0.032668915 0.99276918
1.4607714 -0.70995116 0.029250106 0.99352336
1.4152734 -0.70995116 0.028515128 0.99368554
1.3719629 -0.70995116 0.027820472 0.99383897
1.2913769 -0.70996094 0.026539916 0.99412173
1.2890723 -0.75148433 0.026872596 0.9940483
1.2892284 -0.77344728 0.027075881 0.9940033
1.2893749 -0.79572266 0.027287025 0.99395674
1.2903125 -0.9375 0.028724136 0.99363953
13.87167 -10.621016 0.31463516 0.93249214
4.7365527 -3.9184082 0.1107088 0.97570688
4.6977344 -3.9867578 0.11096317 0.97565168
9.7054787 -8.4487543 0.23173714 0.94982344
9.6967478 -9.1058693 0.23955749 0.94817454
13.787685 -15.442353 0.37282974 0.92051607
3.1978514 -3.9659765 0.091751404 0.97982448
3.1149414 -3.9640625 0.09079273 0.9800328
13.741787 -18.913975 0.42103758 0.9107098
9.8784666 -16.466537 0.34582061 0.92605472
9.7668161 -16.75415 0.3492569 0.9253484
1.819873 -3.8674121 0.076975055 0.98304576
9.4479389 -22.214844 0.43474975 0.90793943
3.0154004 -8.2133198 0.15756957 0.9656024
2.6736133 -8.2285395 0.15581703 0.96597862
2.3277245 -8.2041988 0.15358387 0.96645784
2.2163184 -8.2027149 0.1530225 0.9665783
2.2080858 -8.5999365 0.15990242 0.9651022
2.1781542 -8.9487743 0.16587295 0.96382439
2.7558789 -21.815102 0.3959963 0.91578996
2.2015624 -21.825731 0.39506134 0.91598052
1.9662012 -22.294619 0.40307045 0.91435248
-12.896181 -20.321093 0.43344581 0.90820354
-12.888672 -19.756069 0.42481413 0.90994644
-12.881494 -19.213007 0.41658524 0.91161132
-12.877451 -18.69478 0.40882528 0.91318417
-12.957314 -18.313768 0.40401983 0.91415906
-12.926631 -17.791967 0.39606071 0.91577679
-14.089872 -18.402128 0.41739517 0.91144675
-14.608525 -18.117479 0.41913933 0.91109437
-15.677373 -18.950674 0.4429363 0.90629041
-14.547314 -17.141455 0.40488923 0.91398257
-15.462958 -14.520644 0.38200599 0.918639
-1.0558008 -0.87342769 0.024677161 0.99453312
-1.0556347 -0.85117185 0.024421424 0.99458963
-1.055293 -0.80800778 0.023936424 0.99469686
-1.0551465 -0.78705078 0.02370655 0.99474758
-1.0548632 -0.74631834 0.023271292 0.99484378
-1.0547363 -0.72651368 0.023064842 0.99488932
-1.0589062 -0.70994139 0.022959899 0.99491268
-1.0882519 -0.70995116 0.023400115 0.99481523
-1.1834472 -0.70996094 0.02485363 0.99449402
-1.2178808 -0.70996094 0.025387459 0.99437612
-1.2538086 -0.70996094 0.025948981 0.9942522
-1.2914063 -0.70995116 0.026540032 0.99412161
-1.3307421 -0.70995116 0.027162857 0.9939841
-1.3720019 -0.70994139 0.027820434 0.99383885
-1.460791 -0.70994139 0.029250298 0.99352336
-1.5087402 -0.70996094 0.030028991 0.9933514
-1.5593066 -0.70996094 0.030855408 0.99316901
-1.7656835 -0.67354488 0.034033585 0.99246812
-11.296474 -3.9869628 0.21574111 0.95320487
-11.293408 -3.826992 0.21474648 0.95341539
-23.578144 -7.6609859 0.44647819 0.90557772
-22.813993 -7.0970211 0.43028471 0.90884107
-1.7665429 0.64856446 0.028675612 0.99250007
-1.7664942 0.69939452 0.028951034 0.9924283
-1.6693262 0.70994139 0.027641753 0.99276936
-1.6127245 0.70993161 0.026850738 0.99297571
-1.3307421 0.70994139 0.022983436 0.99398434
-1.1187109 0.70995116 0.020190123 0.99471354
-1.0589257 0.70994139 0.019426879 0.99491286
-1.0523242 0.72486329 0.019471588 0.99490118
-1.0528125 0.80608398 0.020205459 0.99470955
-1.052959 0.82739258 0.020405922 0.99465716
-1.0532324 0.87129879 0.020829353 0.99454665
-1.0533984 0.89394528 0.021052932 0.99448824
-13.269589 12.150849 0.27416894 0.93055153
-13.062685 12.26668 0.27305907 0.93082315
-12.857372 12.381581 0.27199838 0.93108237
-12.451377 12.608848 0.27003029 0.93156374
-12.250537 12.721289 0.26911873 0.93178636
-11.655546 13.054345 0.26667425 0.93238437
-10.684951 13.597666 0.26351929 0.93315685
-10.49336 13.704902 0.2630223 0.93327892
-10.302461 13.811768 0.26256821 0.93339032
-10.112197 13.918262 0.26215681 0.93349129
-9.5445795 14.235996 0.2611737 0.93373185
-8.9803705 14.551826 0.26056916 0.93388021
-8.7927923 14.656836 0.2604492 0.93390936
-8.605361 14.761758 0.26037255 0.93392843
-8.4179783 14.86665 0.26033455 0.93393737
-8.0432711 15.076386 0.26038596 0.93392515
-7.6681833 15.286377 0.26059914 0.9338724
-7.4803514 15.391494 0.26077041 0.93383098
-7.2922363 15.496797 0.26097929 0.9337793
-7.1037889 15.602295 0.26123291 0.93371737
-6.9149508 15.708008 0.2615293 0.93364525
-6.7256641 15.813954 0.26186278 0.93356287
-6.5358396 15.920215 0.26224297 0.93347001
-6.3454294 16.026787 0.26266328 0.93336684
-6.1544237 16.13373 0.26312834 0.93325305
-2.2393358 8.7215815 0.13721249 0.96461898
-3.9293163 16.143066 0.25317359 0.93569541
-3.5008495 16.137363 0.25162438 0.93607599
-3.2885058 16.134541 0.25091401 0.93625003
-3.0689745 16.088125 0.24956924 0.93657982
14.408984 19.832256 0.37354818 0.90658772
14.350224 15.281416 0.31943792 0.91955811
10.68959 10.824765 0.2318206 0.94095492
1.2873437 0.93531245 0.02424797 0.99365449
1.2870507 0.88656247 0.023815155 0.99376738
1.286914 0.86282223 0.023610115 0.99382091
1.2867773 0.83949214 0.023412207 0.99387252
1.2862988 0.74985349 0.022688368 0.99406141
1.3307129 0.70995116 0.022983436 0.99398446
1.5087109 0.70995116 0.0254084 0.99335182
1.5592773 0.70995116 0.026107749 0.99316949
1.6127245 0.70995116 0.026850853 0.99297565
1.6693066 0.70995116 0.027641982 0.99276942
1.7293066 0.70993161 0.028485946 0.9925496
1.7931151 0.70994139 0.029387817 0.99231464
14.556952 -4.3285446 0.23142196 0.94105417
1.9749805 -0.66926754 0.031776581 0.99169254
1.8611034 -0.70994139 0.030353431 0.99206311
1.7931347 -0.70995116 0.029388046 0.99231452
1.6127148 -0.70995116 0.026850777 0.99297571
1.5592871 -0.70996094 0.026107596 0.99316943
1.5087011 -0.70995116 0.0254084 0.99335182
1.4152734 -0.70995116 0.024127616 0.99368584
1.3719629 -0.70995116 0.02353962 0.99383926
1.3307226 -0.70995116 0.022983359 0.9939844
1.2864159 -0.77173829 0.022859687 0.99401671
1.2865235 -0.7939648 0.0230373 0.99397039
1.2867968 -0.83949214 0.023412284 0.99387246
1.2869238 -0.86284178 0.023610191 0.99382079
1.2871875 -0.91072261 0.024027672 0.99371195
1.2873437 -0.93532223 0.024247855 0.99365449
4.7365527 -3.9184082 0.093672827 0.97570801
9.7276173 -8.6852932 0.19871651 0.94916844
9.7247162 -8.9048243 0.20092689 0.9486177
9.6967478 -9.1058645 0.20269653 0.94817686
13.817802 -13.645209 0.2959201 0.92525333
13.806982 -13.981567 0.29942656 0.9244017
13.787676 -15.442339 0.31547654 0.92051965
3.2302732 -3.9047265 0.077222288 0.979931
3.1104295 -3.9583201 0.076711498 0.98006237
1.819873 -3.8674121 0.065131418 0.98304653
1.7609472 -3.8676269 0.064756967 0.98314315
9.4479389 -22.214779 0.36785659 0.90794373
2.8982713 -8.2117672 0.13269809 0.96576291
2.8000097 -8.2626953 0.13294049 0.96570104
2.6834471 -8.2588034 0.13232452 0.96585715
2.4535449 -8.2513666 0.13117737 0.96614856
2.2163184 -8.2027149 0.12947606 0.96657985
2.226377 -8.6711378 0.13641857 0.96481997
2.1781738 -8.9487886 0.14034683 0.96382594
2.7558789 -21.815102 0.33506447 0.91579372
2.479414 -21.829433 0.33478004 0.9158622
-12.896201 -20.321108 0.36674964 0.90820748
-12.881484 -19.213013 0.35248306 0.91161519
-12.877354 -18.694649 0.34591484 0.91318858
-12.871572 -18.192587 0.33958885 0.91470587
-12.917295 -17.317251 0.32922262 0.91720247
-14.603613 -18.111382 0.35452467 0.91112685
-14.547295 -17.14146 0.34259132 0.91398638
-1.0535449 -0.91710937 0.021284409 0.99442774
-1.0532422 -0.87130857 0.020829314 0.99454659
-1.0530859 -0.84911132 0.020613631 0.99460292
-1.0529687 -0.8273828 0.020406036 0.9946571
-1.0528125 -0.80610347 0.020205421 0.99470949
-1.052334 -0.72485352 0.01947155 0.99490118
-1.0882324 -0.70994139 0.019799575 0.99481553
-1.1504004 -0.70995116 0.020599555 0.99460661
-1.1834472 -0.70996094 0.021029396 0.99449432
-1.2538086 -0.70996094 0.021956062 0.99425244
-1.3307421 -0.70995116 0.022983551 0.99398434
-1.415293 -0.70994139 0.024127502 0.99368578
-1.5593066 -0.70996094 0.026107483 0.99316937
-1.6693066 -0.70994139 0.027642174 0.99276942
-1.7664648 -0.72520506 0.029097976 0.9923901
-1.7664844 -0.6994043 0.028951339 0.9924283
-11.288437 -3.8253026 0.18162376 0.95343751
-21.613476 -7.0226364 0.34629837 0.91309661
-22.406542 -6.9702735 0.35757378 0.91039783
-22.959677 -6.8271093 0.36500281 0.90862393
-23.97665 -6.802783 0.37978089 0.90510553
-1.767373 0.64885741 0.023472557 0.99249685
-1.3307421 0.70994139 0.018804055 0.99398458
-1.253828 0.70994139 0.017963486 0.99425268
-1.1834277 0.70995116 0.017205391 0.99449462
-1.0499414 0.7232129 0.015894698 0.99491292
-1.0500391 0.74290037 0.01603611 0.99486774
-1.0501269 0.76294923 0.01618286 0.99482095
-1.0506738 0.86918944 0.017000159 0.99456
-1.0508984 0.91483396 0.017371101 0.99444181
-1.0510449 0.93841797 0.017566681 0.99437934
-13.269589 12.15084 0.22431511 0.93055415
-13.062685 12.26668 0.22340728 0.93082571
-12.857372 12.381581 0.22253944 0.93108493
-12.451377 12.608848 0.22092949 0.9315663
-12.250517 12.721298 0.22018348 0.93178886
-12.050977 12.832988 0.21947692 0.9319998
-11.852656 12.943994 0.21881104 0.93219912
-11.655546 13.054345 0.21818344 0.93238688
-10.684932 13.597666 0.2156021 0.93315935
-10.49336 13.704902 0.21519561 0.93328136
-10.302461 13.811768 0.21482009 0.93339282
-10.112187 13.918271 0.21448363 0.93349373
-9.9225092 14.024453 0.21418373 0.93358427
-9.7333202 14.130351 0.21391632 0.93366444
-8.7927828 14.656836 0.21309021 0.9339118
-8.605361 14.761758 0.21302558 0.93393087
-8.4179983 14.866621 0.21299651 0.93393987
-8.0432711 15.076377 0.21303862 0.93392766
-7.8558297 15.181328 0.21310775 0.93390626
-7.6682029 15.286347 0.21321273 0.93387491
-7.4803514 15.391484 0.21335113 0.93383348
-7.1037889 15.602284 0.21373199 0.93371987
-6.9149508 15.707988 0.21397018 0.93364775
-6.5358591 15.920205 0.21455581 0.93347251
-6.3454294 16.026777 0.21489975 0.93336934
-6.1544137 16.13372 0.21528029 0.93325555
-5.9626756 16.241055 0.21570022 0.93313122
-5.8936424 16.698711 0.22078133 0.93161237
-5.9135351 17.450743 0.22971511 0.92894322
-5.868506 18.061386 0.23676772 0.9268446
-5.8863864 18.922207 0.24705833 0.92378795
-2.5388379 8.5380564 0.11106621 0.96499449
-3.9235938 16.119589 0.20683463 0.93578821
-3.7088768 16.116114 0.20617546 0.9359861
-3.4927051 16.099882 0.20538993 0.93622202
-3.3239453 20.165575 0.25480247 0.92149574
-3.0729198 20.223145 0.25501844 0.92143089
14.409014 19.832285 0.30562103 0.906591
14.35042 15.671728 0.26492256 0.91850835
14.350224 15.281435 0.26135284 0.91956103
10.594462 11.001592 0.19041854 0.94073063
10.685293 10.820439 0.18959107 0.94098008
14.330507 14.151572 0.25109145 0.92259276
14.300077 11.830049 0.23137985 0.92844659
14.292236 11.230713 0.22661591 0.92986768
1.2843652 0.93314451 0.019792786 0.99366939
1.2840136 0.86087888 0.019273529 0.99383503
1.283916 0.83762693 0.019112242 0.99388635
1.2836914 0.79221678 0.01880699 0.99398386
1.2836034 0.77005857 0.018662337 0.99402994
1.2913867 0.70994139 0.018372802 0.99412221
1.3307129 0.70995116 0.018804206 0.9939847
1.4152539 0.70994139 0.019740218 0.9936862
1.4607714 0.70994139 0.020249099 0.99352396
1.5592773 0.70995116 0.021360129 0.99316972
1.6693066 0.70995116 0.022615585 0.99276966
1.7931151 0.70994139 0.024043884 0.99231493
14.587891 -4.1389647 0.18904914 0.94114363
1.9770215 -0.66995114 0.026024818 0.99168432
1.7293164 -0.70994139 0.023306046 0.99254984
1.6692773 -0.70995116 0.022615433 0.99276978
1.4607714 -0.70996094 0.020249099 0.9935239
1.4152734 -0.70995116 0.019740181 0.99368608
1.3719629 -0.70995116 0.019259224 0.9938395
1.2913769 -0.70996094 0.018372726 0.99412221
1.2834277 -0.7267285 0.0183881 0.99411732
1.2835058 -0.74823242 0.018522721 0.99407446
1.2837012 -0.79221678 0.018806916 0.99398381
1.2839062 -0.83762693 0.019112282 0.99388635
1.2840234 -0.86089844 0.01927349 0.99383491
1.2841308 -0.88454098 0.019440383 0.99378175
1.2842382 -0.90863281 0.019613571 0.99372655
1.2843554 -0.93316406 0.019792786 0.99366939
10.567236 -8.3036423 0.16755126 0.94765788
10.316358 -8.3183002 0.16521843 0.94836766
9.7054787 -8.4487305 0.16042526 0.94982761
9.7276363 -8.6852932 0.16258255 0.94917029
9.6967287 -9.1058493 0.16583793 0.94817889
13.806982 -13.981577 0.24497756 0.92440444
13.808603 -14.339248 0.24818961 0.92345381
13.798935 -15.069477 0.25474158 0.92151374
13.787665 -15.442324 0.25810882 0.92052263
13.788769 -15.839819 0.26181784 0.91942263
3.2953124 -3.8829491 0.063493043 0.97983342
3.1978514 -3.9659765 0.06351608 0.97982615
3.1104784 -3.9584081 0.062764399 0.98006272
13.774697 -18.466709 0.2872245 0.91195899
10.121426 -15.514389 0.23094344 0.92857713
9.7669821 -16.754457 0.24178168 0.92535317
3.0154004 -8.2133303 0.10908142 0.9656052
2.5587401 -8.2252541 0.10739406 0.96612805
2.4453614 -8.2237396 0.10696453 0.96626121
2.2080762 -8.5999165 0.11069511 0.96510518
2.1781738 -8.9487495 0.11482342 0.96382749
2.7558692 -21.815107 0.27413803 0.91579676
2.4794238 -21.829424 0.2739028 0.9158653
-12.8887 -19.756123 0.29408562 0.90995347
-12.881484 -19.213047 0.28838959 0.91161835
-12.871582 -18.192617 0.27783829 0.91470891
-12.926641 -17.791973 0.27418259 0.91578358
-12.917295 -17.317261 0.26929381 0.91720545
-13.873593 -18.119663 0.28451613 0.91275191
-14.235087 -18.115561 0.28723717 0.91195512
-15.677373 -18.950684 0.30663061 0.90629792
-14.547314 -17.14147 0.28029662 0.91398948
-15.420263 -14.480552 0.26372519 0.91886085
-1.0509278 -0.91484374 0.017370759 0.99444175
-1.0504493 -0.82541013 0.016655693 0.99467009
-1.050332 -0.80419922 0.016492156 0.99472219
-1.0500293 -0.74291015 0.01603611 0.99486774
-1.0499316 -0.7232129 0.015894698 0.99491292
-1.0589062 -0.70994139 0.015894242 0.9949131
-1.0882324 -0.70994139 0.016199265 0.99481577
-1.1187109 -0.70994139 0.016518859 0.99471372
-1.1504004 -0.70995116 0.016853599 0.99460685
-1.1834472 -0.70996094 0.017205391 0.9944945
-1.2178808 -0.70996094 0.017574959 0.9943766
-1.2914063 -0.70995116 0.018372765 0.99412215
-1.4152539 -0.70994139 0.019740142 0.9936862
-1.5087402 -0.70996094 0.020788269 0.99335194
-1.6127441 -0.70994139 0.021968078 0.99297589
-1.6693066 -0.70994139 0.022615623 0.99276972
-1.7673827 -0.64886719 0.02347248 0.99249679
-21.613485 -7.0226464 0.28332907 0.91309977
-22.970663 -6.8303809 0.29877219 0.90858561
-1.7682031 0.67450196 0.018350678 0.99245828
-1.5592871 0.70995116 0.016613044 0.9931699
-1.460791 0.70996094 0.015749054 0.99352401
-1.4152637 0.70994139 0.015353393 0.99368632
-1.3720117 0.70994139 0.014979172 0.9938395
-1.2178613 0.70995116 0.013669167 0.99437684
-1.1504296 0.70995116 0.013108139 0.99460691
-1.1187109 0.70994139 0.012847671 0.9947139
-1.0882226 0.70995116 0.012599258 0.99481595
-1.0589257 0.70994139 0.012361907 0.99491316
-1.0475585 0.72157222 0.012334365 0.9949246
-1.0476953 0.76119137 0.012557372 0.99483305
-1.0477831 0.78155273 0.012675018 0.99478477
-1.0479394 0.82346678 0.012923355 0.99468285
-1.0480273 0.84505856 0.013054313 0.99462909
-1.0481153 0.86707032 0.013190079 0.99457341
-1.0482031 0.8895703 0.013331031 0.99451566
-1.0484082 0.93606442 0.013628501 0.99439359
-13.269609 12.150849 0.17446464 0.93055612
-13.062695 12.26668 0.17375702 0.93082774
-12.857402 12.381592 0.17308211 0.9310869
-12.250527 12.721289 0.17124932 0.93179089
-11.655557 13.054345 0.1696936 0.93238884
-11.459501 13.164091 0.16923462 0.93256539
-11.070449 13.381865 0.16840301 0.93288517
-10.877275 13.48999 0.16803177 0.9330287
-10.684932 13.597666 0.167686 0.93316138
-10.30247 13.811768 0.16707917 0.93339473
-10.112197 13.918271 0.16681977 0.9334957
-9.7333298 14.130361 0.16637497 0.93366635
-9.54457 14.236015 0.16619346 0.93373621
-9.3562307 14.341455 0.16604042 0.93379581
-9.1681738 14.446718 0.16590965 0.93384528
-8.9804001 14.551826 0.16580902 0.93388456
-8.6053705 14.761758 0.16568397 0.93393278
-8.0432806 15.076396 0.16569252 0.9339295
-7.4803514 15.391503 0.16593735 0.93383533
-7.2922654 15.496806 0.16606918 0.93378365
-7.1037989 15.602295 0.1662316 0.93372178
-6.5358591 15.920215 0.16687416 0.93347448
-6.345459 16.026787 0.16713913 0.93337125
-6.1544137 16.13373 0.16743775 0.93325752
-5.962656 16.241064 0.16775741 0.93313318
-5.8863964 18.922255 0.19215606 0.92378998
-2.3069141 8.5379 0.08575733 0.96524054
-2.2393944 8.7218847 0.087292023 0.96462017
-3.7032127 16.091534 0.16010962 0.93608242
-3.490283 16.088701 0.15963227 0.93626672
-3.448662 19.399746 0.19106017 0.92420691
-3.3165233 20.120468 0.19773346 0.92166656
-3.0729296 20.223192 0.19834702 0.92143303
14.391367 18.795898 0.22954345 0.90965009
14.392012 18.315283 0.22586654 0.91103154
10.592324 10.999355 0.14806949 0.94074398
10.681005 10.816074 0.14739802 0.94100487
14.319404 13.789501 0.19276321 0.92355782
14.31251 12.778867 0.18605956 0.92611927
1.2813085 0.90655273 0.01521984 0.99374104
1.2810448 0.83575195 0.014831771 0.99390012
1.2809082 0.79047853 0.014595374 0.99399704
1.28083 0.76837891 0.014483146 0.99404299
1.2807519 0.74662107 0.014375305 0.99408734
1.2913867 0.70994139 0.01428978 0.99412239
1.3307129 0.70995116 0.014625206 0.99398488
1.4152539 0.70994139 0.015353241 0.99368638
1.4607714 0.70994139 0.015748978 0.99352413
1.5592773 0.70995116 0.016613197 0.9931699
1.6127245 0.70995116 0.017086143 0.99297613
1.7293066 0.70994139 0.018126296 0.99255008
1.7931151 0.70994139 0.018700484 0.99231517
1.8611034 0.70994139 0.019315071 0.99206364
1.9790233 0.69847655 0.020350188 0.99164009
14.576006 -4.1355858 0.14691719 0.94119191
14.551309 -4.3268847 0.14720958 0.94108027
1.9790722 -0.6706543 0.020262184 0.99167597
1.9790331 -0.69848633 0.020350188 0.99164003
1.7931347 -0.70996094 0.018700331 0.99231505
1.7293164 -0.70994139 0.018126525 0.99255008
1.6692773 -0.70995116 0.017589569 0.99277002
1.6127148 -0.70995116 0.017086066 0.99297619
1.4607714 -0.70996094 0.01574913 0.99352413
1.4152734 -0.70995116 0.01535305 0.99368626
1.3719629 -0.70995116 0.014979057 0.99383968
1.2806835 -0.72517574 0.014270706 0.99413002
1.2808105 -0.76837891 0.014483108 0.99404305
1.2808985 -0.79048824 0.01459526 0.9939971
1.2812109 -0.88254881 0.015085487 0.99379599
1.2813085 -0.90655273 0.015219765 0.99374104
1.2814062 -0.93100584 0.015358543 0.99368411
13.861485 -10.339545 0.16768165 0.93316323
10.567236 -8.3036423 0.13031551 0.94765949
10.343974 -8.3405666 0.12884514 0.94823468
4.5770311 -3.9843359 0.058841359 0.97601795
9.7328615 -8.6899652 0.12651928 0.9491452
9.7320995 -8.9115915 0.1279552 0.94858313
13.787656 -15.442328 0.20072487 0.92052495
3.1978514 -3.9659765 0.049399987 0.97982681
13.747997 -18.922499 0.22679833 0.91068119
10.121416 -15.51438 0.17961989 0.92857927
9.8785248 -16.466631 0.18619873 0.92606252
9.7670803 -16.754629 0.18805115 0.92535466
9.4478998 -22.21475 0.23407958 0.90794992
2.8982713 -8.211772 0.084440537 0.96576518
2.6730371 -8.2267723 0.083876647 0.96598965
2.5587401 -8.2252493 0.083526537 0.96612906
2.4453614 -8.2237349 0.083193436 0.96626222
2.3277636 -8.2041941 0.082693137 0.9664616
2.2163379 -8.2027102 0.082389794 0.96658212
2.1781542 -8.9487209 0.089310452 0.96382868
2.7558692 -21.815117 0.21321297 0.9157992
2.4794238 -21.829433 0.21303238 0.91586775
2.2015917 -21.825741 0.21271034 0.91598976
1.9661914 -22.29434 0.21701774 0.91436291
-12.904042 -20.909693 0.23825248 0.90638757
-12.8887 -19.756117 0.22872727 0.9099561
-12.877354 -18.694658 0.22011481 0.9131943
-13.873574 -18.119663 0.2212844 0.91275454
-14.235068 -18.115561 0.22340049 0.91195774
-14.603603 -18.111387 0.22559601 0.91113269
-15.677353 -18.950684 0.23848411 0.90630072
-14.547334 -17.141483 0.21800262 0.91399193
-15.41541 -14.115712 0.20267455 0.9197886
-1.0483203 -0.91255856 0.01347702 0.9944557
-1.0482324 -0.88958007 0.013331031 0.99451554
-1.047959 -0.823457 0.012923279 0.99468285
-1.047627 -0.74122071 0.012443733 0.9948796
-1.0589062 -0.70994139 0.012361984 0.99491328
-1.1504004 -0.70995116 0.013108177 0.99460703
-1.5593066 -0.70996094 0.016613312 0.99316978
-1.6693066 -0.70994139 0.017589377 0.9927699
-1.7681738 -0.72589844 0.018533744 0.9923833
-1.7681836 -0.70006835 0.018440476 0.99242157
-1.7681934 -0.67450196 0.018350791 0.99245834
-1.7682128 -0.64916992 0.018264655 0.99249351
-11.278798 -3.8220508 0.11548176 0.95347947
-21.613485 -7.0226464 0.22036117 0.91310233
-23.97665 -6.802793 0.24166732 0.90511179
-1.769043 0.67483395 0.013113594 0.99245489
-1.7690332 0.70040035 0.013177681 0.99241817
-1.6693066 0.70995116 0.012563858 0.99277008
-1.6127245 0.70993161 0.012204285 0.99297637
-1.5087304 0.70993161 0.01154869 0.99335235
-1.4152637 0.70994139 0.010966416 0.9936865
-1.253828 0.70994139 0.0099794008 0.99425298
-1.1834277 0.70996094 0.0095583722 0.99449486
-1.1187109 0.70994139 0.0091768643 0.99471402
-1.0589257 0.70994139 0.0088299559 0.99491328
-1.0454491 0.72010738 0.0087923044 0.99493492
-1.0455176 0.80050778 0.0091199493 0.99474657
-1.0455956 0.86497068 0.0093986131 0.99458659
-1.0457128 0.91032225 0.0096024703 0.99446946
-13.269609 12.150849 0.12461472 0.93055767
-13.062675 12.266689 0.1241114 0.93082929
-12.857402 12.381592 0.12362923 0.93108839
-12.653643 12.495645 0.12316974 0.93133521
-12.050986 12.832997 0.1219268 0.93200326
-11.852675 12.944004 0.12155708 0.93220252
-11.459501 13.164091 0.12088074 0.93256688
-11.264492 13.273252 0.1205756 0.93273228
-11.070458 13.381875 0.12028652 0.9328866
-10.877285 13.49 0.12001953 0.93303013
-10.30247 13.811768 0.11934097 0.93339622
-10.112197 13.918271 0.11915432 0.93349719
-9.7333298 14.130351 0.11883606 0.93366784
-9.3562012 14.341455 0.1185976 0.93379736
-8.7927923 14.656836 0.11837913 0.93391526
-8.6053514 14.761767 0.11834476 0.93393427
-8.4180079 14.866631 0.11832695 0.93394327
-7.8558102 15.181337 0.11839061 0.93390971
-7.1037989 15.602295 0.11873397 0.93372327
-6.7256346 15.813965 0.11902142 0.93356878
-5.9135447 17.45079 0.127615 0.92894673
-5.8685155 18.061436 0.13153289 0.92684817
-2.5388963 8.5383692 0.061720353 0.96499509
-2.3069239 8.5379591 0.061254308 0.96524107
-4.1928124 18.219032 0.12948315 0.92794496
-3.7746778 17.399755 0.12331333 0.93125731
-3.781074 18.551386 0.13112766 0.9270637
14.425517 20.389004 0.17298804 0.90492165
14.408994 19.832285 0.16978531 0.90659583
14.397978 19.302303 0.16678588 0.90816867
14.392031 18.315302 0.1613324 0.91103345
14.386865 17.390644 0.15636268 0.91367239
14.350244 15.281435 0.14519081 0.91956508
1.2784473 0.9288379 0.010945167 0.99369884
1.2783301 0.88054687 0.010751075 0.99381006
1.2782617 0.85702145 0.01065918 0.99386287
1.2780859 0.78874999 0.010402259 0.99401039
1.2780468 0.76671875 0.010322685 0.99405605
1.3307129 0.70995116 0.010446358 0.993985
1.3719727 0.70995116 0.010699234 0.9938398
1.5592773 0.70995116 0.011866417 0.99317008
1.6127245 0.70995116 0.01220417 0.99297631
1.7293066 0.70993161 0.012947387 0.99255025
1.7931151 0.70994139 0.013357315 0.99231529
1.861123 0.70995116 0.013796348 0.9920637
1.9337305 0.70995116 0.014267425 0.99179393
1.981084 0.69921875 0.014550934 0.99163157
1.9811132 0.67134762 0.0144878 0.99166763
14.567577 -4.1331935 0.1048798 0.94122624
14.548495 -4.3260255 0.1051337 0.94109267
1.9810938 -0.69921875 0.014550895 0.99163157
1.9337401 -0.70995116 0.014267272 0.99179387
1.7931347 -0.70995116 0.013357315 0.99231523
1.6692773 -0.70995116 0.012563858 0.9927702
1.6127148 -0.70995116 0.01220417 0.99297637
1.4607714 -0.70996094 0.011249084 0.99352425
1.3719629 -0.70995116 0.010699272 0.9938398
1.3307226 -0.70995116 0.010446434 0.993985
1.2780273 -0.76670897 0.010322533 0.99405611
1.2780957 -0.78875977 0.010402221 0.99401033
1.2781543 -0.81113279 0.01048481 0.99396294
1.2782617 -0.85701168 0.010659256 0.99386287
1.2783886 -0.90447265 0.010846214 0.99375546
1.278457 -0.92885739 0.010945053 0.99369872
1.2785254 -0.95367187 0.011047172 0.99364007
10.567236 -8.3036423 0.093081817 0.94766062
4.6977243 -3.9867578 0.042673569 0.97565502
9.7276068 -8.6852684 0.090320162 0.94917309
9.7246971 -8.9047995 0.091324881 0.94862241
9.6967287 -9.1058302 0.092126273 0.94818163
13.822197 -13.310703 0.13290775 0.92611313
13.806963 -13.981557 0.1360947 0.92440844
13.787646 -15.442319 0.14336799 0.9205268
3.2302637 -3.9047167 0.03509903 0.97993284
3.1978416 -3.9659765 0.035285223 0.97982728
13.774697 -18.4667 0.15956329 0.91196358
13.741377 -19.422001 0.16477744 0.90921962
9.8785639 -16.466665 0.13299629 0.92606395
1.7609472 -3.8676367 0.029432829 0.98314464
9.4478998 -22.214741 0.16719574 0.90795195
3.01542 -8.2133245 0.060598753 0.96560705
2.7883301 -8.2282953 0.060172308 0.96584451
2.6730371 -8.2267723 0.059910428 0.96599036
2.5587597 -8.2252493 0.059661329 0.96612984
2.4453614 -8.2237453 0.059422646 0.96626294
2.3277636 -8.2041941 0.059064217 0.96646237
2.2163379 -8.2027102 0.058848187 0.96658283
2.2080762 -8.5999022 0.061495934 0.96510708
2.1781542 -8.9487209 0.063788682 0.96382952
2.7559083 -21.815102 0.15229137 0.91580111
1.9678417 -22.313334 0.15514107 0.91429508
-12.904053 -20.909693 0.17017876 0.90638959
-12.89622 -20.321136 0.16669579 0.9082154
-12.888721 -19.756117 0.16337226 0.90995806
-12.881494 -19.213051 0.16021064 0.91162288
-12.917324 -17.31727 0.1496532 0.91720963
-13.873603 -18.119658 0.15805893 0.91275638
-14.235097 -18.115566 0.1595729 0.91195959
-14.547353 -17.141483 0.15571389 0.91399372
-15.402617 -14.103984 0.14464565 0.91985422
-1.0457324 -0.91031247 0.0096025085 0.99446946
-1.0455859 -0.86498046 0.0093987649 0.99458659
-1.0455469 -0.84304684 0.0093023302 0.9946419
-1.0454882 -0.77984375 0.0090336222 0.99479628
-1.0454589 -0.73966795 0.0088698575 0.99489033
-1.0454589 -0.72012693 0.0087923808 0.99493486
-1.1187109 -0.70994139 0.0091768643 0.99471402
-1.1834277 -0.70995116 0.0095583722 0.99449492
-1.2178808 -0.70996094 0.0097636031 0.9943769
-1.4152539 -0.70994139 0.010966339 0.9936865
-1.460791 -0.70994139 0.011249199 0.99352425
-1.5087402 -0.70996094 0.011548843 0.99335229
-1.5593066 -0.70996094 0.011866379 0.99316996
-1.6693066 -0.70994139 0.012563972 0.99277008
-1.769043 -0.64947265 0.013052215 0.99249017
-11.282568 -3.9820604 0.082866438 0.95326746
-11.274023 -3.8204198 0.082445331 0.95349973
-21.613485 -7.0226364 0.15739959 0.91310424
-22.992666 -6.8369236 0.16613694 0.90850687
-23.97665 -6.802793 0.17261802 0.90511382
-1.7698828 0.70075196 0.0079104612 0.99241459
-1.7698632 0.72660154 0.0079505537 0.99237633
-1.6693066 0.70995116 0.0075382995 0.9927702
-1.5592871 0.70995116 0.0071197888 0.99317014
-1.460791 0.70996094 0.0067492672 0.99352431
-1.4152637 0.70994139 0.006579895 0.99368656
-1.3719727 0.70994139 0.0064196014 0.99383992
-1.2178613 0.70995116 0.0058578872 0.99437708
-1.1504296 0.70995116 0.0056175995 0.99460709
-1.1187109 0.70994139 0.0055060578 0.99471414
-1.0882226 0.70995116 0.0053993985 0.99481612
-1.044746 0.7391699 0.0053183362 0.99489385
-1.0447754 0.77929688 0.0054164506 0.99479991
-1.0447949 0.79994136 0.0054682158 0.99475032
-1.0447949 0.82098633 0.0055218507 0.994699
-1.0448047 0.8424316 0.0055775451 0.99464583
-1.0448242 0.8866992 0.0056946562 0.99453348
-1.0448242 0.90953124 0.0057566068 0.99447429
-1.0448437 0.93288082 0.0058207703 0.99441284
-13.269609 12.150849 0.07476677 0.93055868
-12.653671 12.495645 0.073900104 0.9313361
-12.451406 12.608867 0.073637769 0.93157071
-12.250537 12.721298 0.073390424 0.93179339
-12.050996 12.832997 0.073155932 0.93200421
-11.070458 13.381875 0.072171785 0.93288761
-10.493388 13.704912 0.071727827 0.93328571
-10.112217 13.918281 0.071490593 0.93349808
-9.9225292 14.024453 0.071390226 0.93358862
-9.7333298 14.130351 0.071303211 0.93366885
-9.5445995 14.236025 0.071225353 0.93373859
-8.9804001 14.551836 0.071058922 0.933887
-8.6053419 14.761758 0.071005397 0.93393528
-7.8558102 15.181347 0.071032904 0.93391067
-7.4803514 15.391523 0.071114346 0.93383771
-7.2922459 15.496816 0.071171604 0.93378609
-7.1038084 15.602295 0.071238056 0.93372422
-6.7256446 15.813974 0.07141304 0.93356973
-6.5358496 15.920234 0.071513519 0.93347687
-6.345459 16.026796 0.071631774 0.93337369
-6.1544237 16.13373 0.071757391 0.93325996
-5.8936715 16.698778 0.07358478 0.9316166
-5.9135447 17.450809 0.076569177 0.92894775
-5.868506 18.061464 0.078912355 0.92684919
-2.4115918 8.4997263 0.036716614 0.965276
-2.3069434 8.5380173 0.0367519 0.96524137
-4.2359667 18.406591 0.078489646 0.92723197
-3.9818749 18.354765 0.078043513 0.92762518
-3.7184765 18.244335 0.077374227 0.9282276
-3.068994 16.088125 0.068061523 0.93658638
14.392031 18.315302 0.09679798 0.9110347
10.672031 10.807012 0.063115917 0.94105506
14.319404 13.789492 0.08261051 0.92356068
14.322441 13.114922 0.080699496 0.92526013
1.2768261 0.95242184 0.0066197584 0.99364853
1.2768066 0.9033789 0.0064996337 0.99376321
1.2768066 0.87951171 0.0064431001 0.99381751
1.276787 0.83296871 0.0063350676 0.99392062
1.2767675 0.78792965 0.0062346268 0.99401665
1.2767383 0.76593751 0.0061872862 0.99406219
1.2767481 0.7442773 0.0061412049 0.99410599
1.2767481 0.72293943 0.0060972213 0.99414825
1.3719727 0.70995116 0.0064196014 0.99383986
1.6127245 0.70995116 0.0073221968 0.99297643
1.7293066 0.70993161 0.0077684782 0.99255037
1.7931151 0.70994139 0.0080145262 0.99231541
1.9831543 0.69993162 0.0087394333 0.99162304
1.9831737 0.672041 0.0087017054 0.9916591
14.559609 -4.1309376 0.062866628 0.94125825
14.545693 -4.3251853 0.063079797 0.94110453
1.9831543 -0.67205077 0.0087017817 0.99165916
1.7931347 -0.70996094 0.0080142971 0.99231535
1.5087206 -0.70994139 0.0069290921 0.99335247
1.3307226 -0.70995116 0.0062677381 0.99398506
1.2913769 -0.70995116 0.0061240387 0.99412262
1.2767383 -0.72294921 0.0060972213 0.99414825
1.2767578 -0.74426758 0.0061414335 0.99410599
1.2767383 -0.76594722 0.0061873626 0.99406219
1.2768066 -0.85603511 0.0063880538 0.99386996
1.2768261 -0.9033789 0.0064998246 0.99376309
1.2768164 -0.92767578 0.0065586469 0.99370688
1.2768261 -0.95243162 0.0066198348 0.99364853
10.567226 -8.3036327 0.055847816 0.94766146
10.316358 -8.3182812 0.055070493 0.94837117
4.7365427 -3.9184082 0.025545768 0.97571063
4.5759082 -3.9833984 0.025211524 0.97602457
9.7276068 -8.6852684 0.054190673 0.94917387
9.7247066 -8.9047899 0.054793432 0.94862318
13.806973 -13.981552 0.081654586 0.92440957
3.2953124 -3.8829589 0.021162987 0.97983479
10.121416 -15.514365 0.076976009 0.92858195
9.8785448 -16.466703 0.079795681 0.92606497
9.7672749 -16.754955 0.080592573 0.92535597
1.7609472 -3.8676367 0.017659569 0.98314488
1.7162304 -3.8985937 0.01770111 0.98310566
9.4479198 -22.214722 0.10031734 0.90795332
2.7883301 -8.2283154 0.036103401 0.96584493
2.5587401 -8.2252588 0.035795975 0.96613032
2.4453614 -8.2237644 0.035652731 0.96626341
2.3277245 -8.2042036 0.035438269 0.96646285
2.2080567 -8.5999069 0.03689697 0.96510756
2.201582 -21.825737 0.091160126 0.91599286
1.9661816 -22.294247 0.093007393 0.91436642
-12.904033 -20.90974 0.10210522 0.90639091
-12.881514 -19.213081 0.096127391 0.91162401
-12.871601 -18.192627 0.092609175 0.91471446
-12.917334 -17.31727 0.089698672 0.91721082
-14.547353 -17.141499 0.093425751 0.91399497
-15.412432 -14.842046 0.088917919 0.91797185
-15.407471 -14.468545 0.087834202 0.91893065
-15.402637 -14.103993 0.086789891 0.91985536
-1.0448437 -0.93288082 0.0058208844 0.99441284
-1.0448242 -0.8866992 0.0056947325 0.99453348
-1.0448047 -0.82098633 0.0055218507 0.99469894
-1.0447949 -0.79993165 0.0054683685 0.99475032
-1.044746 -0.73917967 0.005318298 0.99489385
-1.044746 -0.71963865 0.0052718353 0.99493837
-1.0882324 -0.70994139 0.0053995512 0.99481612
-1.1834277 -0.70995116 0.0057349778 0.99449497
-1.2178808 -0.70996094 0.0058578872 0.99437696
-1.2538086 -0.70995116 0.0059877397 0.9942531
-1.2914063 -0.70995116 0.0061240005 0.99412251
-1.3307421 -0.70995116 0.0062677762 0.993985
-1.5593066 -0.70996094 0.0071197506 0.99317008
-1.6127441 -0.70994139 0.0073223114 0.99297637
-1.6693066 -0.70994139 0.0075382614 0.9927702
-1.7698828 -0.72660154 0.00795063 0.99237621
-1.7699023 -0.64979494 0.0078350445 0.99248666
-11.269258 -3.8188086 0.04944637 0.95351964
-21.613506 -7.0226464 0.094437674 0.91310543
-22.406551 -6.9702735 0.097512856 0.91040701
-1.7707422 0.65009767 0.0026126481 0.99248314
-1.6693066 0.70995116 0.0025128173 0.99277025
-1.6127245 0.70994139 0.0024408721 0.99297649
-1.5087304 0.70993161 0.0023098753 0.99335253
-1.4152637 0.70994139 0.0021931457 0.99368662
-1.3719727 0.70994139 0.0021399688 0.99383998
-1.2178613 0.70995116 0.0019526291 0.99437714
-1.1834277 0.70996094 0.0019117355 0.99449497
-1.0589257 0.70994139 0.0017661285 0.9949134
-1.0440429 0.73867184 0.0017716598 0.99489737
-1.0440527 0.75853515 0.001787796 0.99485123
-1.0440625 0.79938477 0.0018214416 0.99475402
-1.0440723 0.82039058 0.0018394089 0.99470276
-1.044082 0.88604492 0.0018967818 0.99453747
-1.0441016 0.93219727 0.0019390106 0.99441689
-13.269609 12.150849 0.024924163 0.93055922
-13.062685 12.266689 0.02482296 0.93083084
-12.451406 12.608857 0.024547882 0.93157125
-12.250517 12.721289 0.024463959 0.93179399
-11.852685 12.944014 0.024310645 0.93220401
-11.655546 13.054356 0.024241179 0.93239182
-11.070458 13.381875 0.024058226 0.93288809
-10.302451 13.811777 0.023869133 0.93339771
-10.112217 13.918281 0.023830185 0.93349862
-9.7333298 14.130351 0.023769379 0.93366933
-9.5445995 14.236025 0.023741264 0.93373907
-8.980381 14.551846 0.023684807 0.93388748
-8.7928028 14.656836 0.023677254 0.93391669
-8.6053419 14.761758 0.023667106 0.93393582
-8.4180079 14.86664 0.023666648 0.9339447
-8.0433102 15.076396 0.02367031 0.93393242
-7.8558102 15.181337 0.02367649 0.93391114
-7.6681833 15.286366 0.0236903 0.93387979
-7.480371 15.391503 0.023703728 0.93383825
-7.2922363 15.496816 0.023722762 0.93378657
-6.9149609 15.708008 0.023773726 0.93365258
-5.8936815 16.698769 0.024529418 0.93161714
-5.9135642 17.450809 0.025522269 0.92894822
-2.5389941 8.5386419 0.012347069 0.96499479
-2.4116113 8.4997463 0.012238044 0.96527618
-4.0072751 17.412792 0.024749564 0.93102247
-3.9990234 18.433857 0.026127394 0.92732549
-3.068994 16.088116 0.022689514 0.93658692
14.408994 19.832275 0.033967055 0.90659791
14.350244 15.281425 0.029035721 0.91956693
10.580908 10.9875 0.021131592 0.94080859
14.319385 13.789473 0.027537726 0.92356133
14.327959 13.119941 0.026910247 0.92523307
1.2759863 0.95176756 0.0022053146 0.99365282
1.2759765 0.92704099 0.0021847533 0.99371111
1.2759472 0.90276366 0.0021651839 0.99376744
1.2759472 0.83242184 0.0021103285 0.99392462
1.2759374 0.80974609 0.0020934294 0.99397343
1.2759472 0.7874316 0.0020768738 0.99402046
1.2759472 0.76544923 0.0020613479 0.99406594
1.2759374 0.74381834 0.0020457457 0.99410975
1.3719727 0.70995116 0.0021398924 0.99383992
1.460791 0.70994139 0.002249832 0.99352437
1.5087109 0.70995116 0.0023098753 0.99335259
1.6127245 0.70995116 0.002440834 0.99297649
1.7293066 0.70993161 0.0025894928 0.99255043
1.861123 0.70995116 0.00275959 0.99206388
1.9852246 0.70065427 0.0029165649 0.9916144
1.9852148 0.67273438 0.0029037856 0.99165064
1.9852246 -0.6727246 0.0029035949 0.99165058
1.8611034 -0.70995116 0.0027589798 0.992064
1.7931347 -0.70996094 0.0026712036 0.99231541
1.7293164 -0.70994139 0.0025897217 0.99255037
1.5087206 -0.70994139 0.0023098753 0.99335253
1.4607714 -0.70996094 0.002249832 0.99352443
1.4152734 -0.70995116 0.0021933364 0.99368656
1.3719629 -0.70995116 0.002140007 0.99383998
1.2913769 -0.70995116 0.0020414733 0.99412268
1.2759374 -0.72249019 0.0020310592 0.99415201
1.2759374 -0.76544923 0.0020613479 0.99406594
1.2759374 -0.78742188 0.0020769499 0.99402052
1.2759472 -0.80975586 0.0020936204 0.99397337
1.2759472 -0.90277344 0.0021651078 0.99376738
1.275957 -0.92704099 0.0021850585 0.99371117
1.2759668 -0.95178711 0.0022050857 0.99365282
10.567226 -8.3036423 0.018616447 0.94766182
4.7365623 -3.9183984 0.0085150143 0.97571075
4.6977048 -3.9867675 0.0085343551 0.97565562
9.7054491 -8.4487305 0.017824287 0.94983149
9.7275877 -8.6852875 0.018063582 0.94917423
13.822178 -13.310678 0.026582679 0.92611486
13.787626 -15.442309 0.028640937 0.92052865
3.2302637 -3.9047167 0.007020378 0.97993332
9.8785744 -16.466743 0.026600569 0.92606533
9.7673531 -16.755108 0.026862601 0.92535591
1.9170898 -3.9446287 0.0060750959 0.98260975
1.8198534 -3.8674414 0.0059200665 0.98304844
1.7609472 -3.8676367 0.005886612 0.98314506
3.0154004 -8.213335 0.012119903 0.96560782
2.5587401 -8.2252588 0.011932258 0.96613055
2.2163379 -8.2027197 0.011769486 0.96658361
2.2080762 -8.5998878 0.012298546 0.96510792
2.4794335 -21.829428 0.030431442 0.9158715
-12.904072 -20.909731 0.034035645 0.9063915
-12.88874 -19.756147 0.032676697 0.90995991
-12.877392 -18.694715 0.03144535 0.91319788
-12.926631 -17.791967 0.030461464 0.91578978
-13.686279 -17.875029 0.031184616 0.91388392
-14.406435 -17.866856 0.031792793 0.91228217
-14.547353 -17.141499 0.031143874 0.91399562
-15.415439 -14.115737 0.028952025 0.919792
-1.044082 -0.93220699 0.0019387054 0.99441689
-1.044082 -0.90888667 0.0019176864 0.99447823
-1.044082 -0.88606441 0.0018970107 0.99453741
-1.0440625 -0.79938477 0.0018215942 0.99475402
-1.0440527 -0.77876949 0.0018043136 0.99480349
-1.0589062 -0.70994139 0.0017660522 0.99491346
-1.0882324 -0.70994139 0.0017997741 0.99481612
-1.1504004 -0.70995116 0.0018723678 0.99460727
-1.1834277 -0.70995116 0.0019118881 0.99449503
-1.2538086 -0.70995116 0.0019958115 0.99425316
-1.2914063 -0.70995116 0.0020411301 0.99412256
-1.3307421 -0.70995116 0.0020893097 0.99398506
-1.3720019 -0.70995116 0.0021400452 0.9938398
-1.460791 -0.70994139 0.0022499466 0.99352437
-1.6127441 -0.70994139 0.0024406433 0.99297643
-1.6693066 -0.70994139 0.0025129318 0.99277025
-1.7707324 -0.72695309 0.0026515196 0.99237263
-1.7707422 -0.70107418 0.0026381682 0.99241102
-1.7707422 -0.65008789 0.0026130294 0.9924832
-11.275624 -3.9796093 0.016563492 0.95329654
-11.264492 -3.8171971 0.016474685 0.95353913
-23.97666 -6.802793 0.034520607 0.9051159
-1.771582 0.65039062 -0.0026139067 0.99247962
-1.771582 0.67579103 -0.0026263809 0.99244428
-1.7715918 0.70140624 -0.00263916 0.99240738
-1.6693066 0.70995116 -0.0025126648 0.99277025
-1.460791 0.70996094 -0.002249527 0.99352431
-1.4152637 0.70994139 -0.0021929168 0.99368662
-1.1834277 0.70996094 -0.0019116591 0.99449497
-1.1504296 0.70995116 -0.001872406 0.99460715
-1.0882226 0.70995116 -0.0017996979 0.99481618
-1.0433496 0.73817378 -0.0017700958 0.99490076
-1.0433398 0.79884762 -0.0018201446 0.99475759
-1.0433203 0.84124023 -0.001856308 0.99465346
-1.0433301 0.86310548 -0.0018754959 0.99459839
-1.0433105 0.88541013 -0.0018952178 0.99454147
-1.0433007 0.90821284 -0.0019159317 0.99448234
-13.062695 12.26668 -0.024823532 0.93083084
-11.070469 13.381875 -0.024059143 0.93288809
-10.877285 13.490009 -0.024002457 0.93303156
-10.302481 13.811768 -0.02386795 0.93339771
-10.112226 13.918281 -0.023829956 0.93349856
-9.9225197 14.024463 -0.023796119 0.9335891
-9.5445995 14.236015 -0.023740424 0.93373913
-9.1682034 14.446718 -0.023700828 0.9338482
-8.980381 14.551836 -0.023684807 0.93388754
-8.6053705 14.761767 -0.023666764 0.9339357
-8.4180079 14.86666 -0.023666725 0.93394464
-8.0433006 15.076396 -0.02367012 0.93393242
-6.7256641 15.813984 -0.023805466 0.93357015
-6.1544237 16.133739 -0.023918837 0.93326044
-5.8936911 16.69879 -0.02453064 0.93161708
-5.9135938 17.45084 -0.025524406 0.9289481
-5.8864255 18.922344 -0.027450256 0.92379302
-2.5390332 8.5387888 -0.012340278 0.96499419
-2.4115918 8.4997463 -0.012238235 0.96527618
-2.2395508 8.7224417 -0.012475242 0.96461958
-5.7838769 23.762333 -0.033875465 0.90680796
-3.068994 16.088125 -0.022681961 0.93658686
14.411923 20.369776 -0.034562111 0.90500897
14.409023 19.832304 -0.033971518 0.90659773
