# .PCD v0.7 - Point Cloud Data file format
VERSION 0.7
FIELDS x y z intensity
SIZE 4 4 4 4
TYPE F F F F
COUNT 1 1 1 1
WIDTH 1084
HEIGHT 1
VIEWPOINT 0 0 0 1 0 0 0
POINTS 1084
DATA ascii
-0.8513574 6.1197071 -0.40282053 0.97553712
-0.70744139 6.228457 -0.40868109 0.97518581
-0.48523435 6.4230661 -0.41995028 0.97451031
-0.41062498 6.5269723 -0.42637241 0.97412556
0 7.1126952 -0.46371752 0.9718914
0.18574218 7.3879004 -0.48181099 0.97081077
0.38662109 7.6849608 -0.50166124 0.96962678
0.57958007 7.6723242 -0.50162715 0.96962869
0.86825192 7.6442184 -0.50157613 0.96963185
1.1556348 7.6052928 -0.50152534 0.96963489
1.2510742 7.589941 -0.50150853 0.96963578
1.3463086 7.573369 -0.50149167 0.9696368
1.630625 7.5164938 -0.50144142 0.96963978
1.8188671 7.4726367 -0.50140822 0.9696418
2.0059667 7.4240918 -0.5013752 0.96964371
2.2841406 7.3424902 -0.50132608 0.96964663
2.3761327 7.3129687 -0.50130981 0.96964765
2.6497948 7.2175097 -0.50126153 0.96965057
2.9196875 7.111836 -0.50121397 0.96965337
3.2729199 6.9552832 -0.50115162 0.96965712
3.359951 6.9133983 -0.5011363 0.96965802
3.6178222 6.78124 -0.50109082 0.9696607
4.1176267 6.4883103 -0.50100273 0.96966594
4.5938768 6.1586719 -0.50091892 0.96967101
4.8223534 5.9806738 -0.50087869 0.9696734
4.8970017 5.9194627 -0.50086552 0.96967411
4.9708786 5.8573046 -0.50085258 0.96967489
5.0439649 5.7942185 -0.50083965 0.96967566
5.11625 5.7302442 -0.50082695 0.96967638
5.187705 5.6653614 -0.50081444 0.96967721
5.3281736 5.5329199 -0.5007897 0.9696787
5.3971581 5.4654002 -0.5007776 0.96967942
5.4653025 5.3970313 -0.50076562 0.96968001
5.5325584 5.3277926 -0.50075382 0.96968073
5.9173727 4.8952441 -0.50068623 0.96968478
6.0382519 4.7447948 -0.50066501 0.96968603
6.0972657 4.6684375 -0.50065464 0.96968669
1.2552148 0.9362793 -0.10209377 0.99374259
1.256084 0.81944335 -0.097776867 0.99400634
1.2562207 0.79722655 -0.097001418 0.99405378
1.2563866 0.77535152 -0.096252896 0.99409944
1.2565331 0.75378907 -0.095530696 0.99414361
1.2566601 0.73256832 -0.094833903 0.99418622
1.4152637 0.70994139 -0.10322796 0.99367326
1.5087304 0.70993161 -0.10870842 0.99333847
1.5592675 0.70993161 -0.1116999 0.9931559
1.6693066 0.70995116 -0.11826485 0.99275494
1.7293359 0.70996094 -0.12187568 0.99253452
1.7931347 0.70994139 -0.12573402 0.9922992
1.8611327 0.70995116 -0.12986591 0.99204707
1.9337499 0.70996094 -0.13430053 0.99177665
2.0238574 0.71429688 -0.13992332 0.99143386
2.0238574 0.68583006 -0.13931698 0.99147081
2.0238574 0.65758789 -0.13873768 0.99150616
7.3295016 2.2800684 -0.50043929 0.96969956
7.4578514 1.8152734 -0.50041711 0.96970093
7.4800391 1.7214062 -0.5004133 0.96970105
7.5010352 1.6272656 -0.50040966 0.96970123
7.5208297 1.5328516 -0.50040627 0.96970153
7.539453 1.4382226 -0.50040305 0.96970171
7.5731053 1.2482812 -0.50039726 0.96970212
7.5881739 1.1530175 -0.50039476 0.96970218
7.6020212 1.0575585 -0.50039238 0.96970236
7.6146679 0.9619531 -0.50039029 0.96970254
7.6261325 0.86619139 -0.50038832 0.9697026
7.6363769 0.77028316 -0.5003866 0.96970278
7.6454687 0.67426759 -0.50038511 0.96970272
7.6599216 0.48191404 -0.50038278 0.96970302
7.6653609 0.38561523 -0.50038189 0.96970302
7.672627 0.19287109 -0.50038081 0.96970308
7.6744723 -0.096464843 -0.50038081 0.96970296
7.6726465 -0.19288085 -0.50038123 0.96970296
7.6599412 -0.48193359 -0.50038379 0.9697029
7.6364255 -0.77029294 -0.50038826 0.96970254
7.626152 -0.86620116 -0.50039017 0.96970254
7.614707 -0.96197265 -0.50039232 0.96970236
7.6020603 -1.0575879 -0.50039464 0.96970218
7.5569239 -1.3433789 -0.50040293 0.96970171
7.5394921 -1.4382422 -0.50040609 0.96970153
7.4800973 -1.7214258 -0.50041687 0.96970081
7.4579296 -1.815293 -0.50042093 0.96970063
7.4345899 -1.9088769 -0.50042516 0.9697004
2.0238574 -0.68582028 -0.1393169 0.99147081
2.0238574 -0.7142871 -0.13992363 0.99143386
1.8611132 -0.70995116 -0.12986504 0.99204719
1.7931249 -0.70994139 -0.12573348 0.9922992
1.7293164 -0.70995116 -0.12187477 0.99253464
1.6692969 -0.70995116 -0.11826446 0.992755
1.5592773 -0.70996094 -0.11169952 0.99315578
1.5086914 -0.70996094 -0.1087075 0.99333858
1.4152734 -0.70996094 -0.10322742 0.99367321
1.3307323 -0.70995116 -0.098332554 0.99397236
1.2913965 -0.70996094 -0.096077003 0.99411017
1.2567968 -0.71165037 -0.094161607 0.99422729
1.2565234 -0.75382811 -0.095530853 0.99414355
1.256377 -0.77537107 -0.096252933 0.99409944
1.2562305 -0.79725581 -0.097001687 0.99405366
1.2555664 -0.88835937 -0.10027523 0.99385369
1.2552246 -0.93630856 -0.102094 0.99374247
4.9074903 -3.7575097 -0.40296113 0.97552872
4.7976756 -3.7699804 -0.39780363 0.97583818
4.7500291 -3.8300586 -0.3978121 0.97583765
4.701611 -3.8895507 -0.39782074 0.97583711
4.6026073 -4.0066404 -0.39783835 0.97583604
4.5520115 -4.0642576 -0.39784735 0.97583544
4.5006638 -4.1212306 -0.3978565 0.97583497
4.2883301 -4.3425684 -0.39789429 0.97583264
3.6860936 -3.925293 -0.35106105 0.9786467
3.9496386 -4.6539454 -0.39795455 0.97582906
3.771709 -4.7999024 -0.39798614 0.97582716
3.7111914 -4.8470507 -0.3979969 0.9758265
3.6500878 -4.8934374 -0.39800778 0.97582585
3.4633691 -5.0279493 -0.39804092 0.97582382
3.2067285 -5.1962008 -0.39808649 0.97582114
2.2636328 -3.883086 -0.29303557 0.98214436
2.204248 -3.8928125 -0.29165608 0.98222762
2.8745606 -5.3881149 -0.39814541 0.9758175
2.7383983 -5.4589548 -0.39816958 0.97581619
2.6696777 -5.4931149 -0.39818177 0.97581542
2.4609668 -5.5903611 -0.39821875 0.97581315
2.3198535 -5.6507812 -0.39824378 0.97581172
2.1772559 -5.7076755 -0.39826909 0.97581011
1.8879687 -5.8106151 -0.39832032 0.97580701
1.8148632 -5.8340526 -0.39833328 0.9758063
1.4451953 -5.9374704 -0.39839873 0.97580236
1.370537 -5.9553614 -0.39841196 0.97580159
1.2956347 -5.9723239 -0.39842525 0.97580075
0.69003904 -3.8818457 -0.25704581 0.98431993
0.65430665 -3.9694922 -0.26228538 0.98400295
0.76611328 -6.0644822 -0.39851898 0.97579509
0.68987304 -6.0738282 -0.39853248 0.97579432
0.61352539 -6.0822263 -0.39854598 0.97579354
0.53704101 -6.0896482 -0.39855951 0.97579277
0.46050781 -6.0961227 -0.39857307 0.97579193
0.23044921 -6.1097946 -0.39861378 0.97578943
0.15365234 -6.1123924 -0.39862734 0.97578871
0.076845698 -6.1140528 -0.39864093 0.97578788
-0.15368164 -6.1132421 -0.3986817 0.97578537
-0.30728516 -6.1078711 -0.39870882 0.97578371
-0.53731441 -6.0925584 -0.3987495 0.97578132
-0.76665038 -6.0685935 -0.39879003 0.97577888
-0.91897458 -6.047822 -0.39881694 0.97577727
-1.0707421 -6.0232224 -0.39884377 0.97577566
-1.1463574 -6.0094824 -0.39885712 0.97577494
-1.2218262 -5.9948239 -0.39887047 0.97577405
-1.5217187 -5.92665 -0.3989234 0.97577083
-1.5960938 -5.9072556 -0.39893654 0.97577006
-1.6702636 -5.8869138 -0.39894962 0.97576934
-1.7441698 -5.865664 -0.39896265 0.97576851
-1.8911327 -5.8203516 -0.3989886 0.97576696
-1.9641992 -5.7963281 -0.39900154 0.97576612
-2.0369337 -5.7713571 -0.39901435 0.97576547
-2.2532325 -5.6910348 -0.3990525 0.97576314
-2.3246484 -5.6624413 -0.39906508 0.97576237
-2.3956835 -5.6329784 -0.39907762 0.97576159
-2.4663672 -5.6025877 -0.39909011 0.97576088
-2.6760254 -5.5061717 -0.39912707 0.97575861
-2.8137207 -5.4375095 -0.39915133 0.97575718
-2.8819139 -5.4018946 -0.3991634 0.97575641
-3.0837305 -5.2899122 -0.39919895 0.97575432
-3.2158885 -5.2110353 -0.39922222 0.97575295
-3.4103124 -5.0865722 -0.39925647 0.9757508
-3.4740429 -5.043457 -0.39926767 0.97575021
-3.537246 -4.9995213 -0.39927882 0.97574961
-3.5998926 -4.954834 -0.39928985 0.97574884
-3.7234764 -4.8630762 -0.3993116 0.97574753
-3.7843652 -4.8160157 -0.39932236 0.97574699
-3.8446972 -4.7682128 -0.39933294 0.97574633
-3.9044335 -4.7196484 -0.39934343 0.97574562
-4.0220017 -4.6202831 -0.39936414 0.97574443
-4.1936035 -4.4657321 -0.39939433 0.97574264
-4.3047166 -4.3591599 -0.39941385 0.97574145
-4.3592577 -4.3048434 -0.39942345 0.97574079
-4.413115 -4.2498145 -0.3994329 0.97574025
-4.4662695 -4.1941209 -0.39944229 0.97573972
-1.0260448 -0.89319336 -0.088688925 0.99456185
-1.0262402 -0.87093747 -0.087752186 0.99461913
-1.0264257 -0.84914058 -0.086848222 0.99467438
-1.0266016 -0.82779294 -0.085975833 0.99472767
-1.0267578 -0.80682617 -0.085134044 0.99477923
-1.0272168 -0.74632812 -0.082780033 0.99492329
-1.0306739 -0.70997071 -0.081593357 0.99499577
-1.0589062 -0.70995116 -0.083116069 0.99490267
-1.0882422 -0.70997071 -0.08471065 0.9948051
-1.1187011 -0.70997071 -0.086381227 0.99470294
-1.1834375 -0.70996094 -0.089972459 0.99448329
-1.2913965 -0.70997071 -0.096076883 0.99411017
-1.5592773 -0.70996094 -0.11169929 0.99315578
-1.6127148 -0.70996094 -0.11487892 0.99296165
-1.6692773 -0.70995116 -0.11826416 0.99275506
-1.7913672 -0.70925778 -0.12561028 0.99230671
-1.7912598 -0.68329102 -0.12499111 0.99234456
-1.7911816 -0.65760744 -0.12439819 0.99238062
-7.3075781 -2.4763184 -0.50303268 0.96954489
-7.3381834 -2.3843164 -0.50303799 0.96954459
-7.395957 -2.1992188 -0.503048 0.96954387
-7.4230566 -2.106123 -0.50305271 0.9695437
-7.4490232 -2.0126953 -0.50305718 0.96954334
-7.540947 -1.6359277 -0.5030731 0.9695425
-7.5609665 -1.5410546 -0.50307649 0.96954226
-7.5797949 -1.4459277 -0.50307971 0.96954203
-7.6138282 -1.255 -0.50308555 0.96954167
-7.6290231 -1.1592382 -0.50308812 0.96954161
-7.6673923 -0.87087888 -0.50309461 0.96954119
-7.6777735 -0.77446288 -0.50309634 0.96954107
-7.6869235 -0.6779297 -0.50309783 0.96954095
-7.7015524 -0.484541 -0.50310022 0.96954089
-7.7070508 -0.38771483 -0.50310111 0.96954077
-7.7113085 -0.29085937 -0.50310177 0.96954083
-7.714365 -0.19392578 -0.50310218 0.96954077
-7.3995309 0.092978515 -0.50304621 0.97076702
-7.3977828 0.18596679 -0.5030458 0.97076702
-7.394824 0.27890626 -0.5030452 0.97076714
-7.3907223 0.37180662 -0.50304437 0.9707672
-7.3854589 0.46464843 -0.50304329 0.97076726
-7.3526855 0.83512694 -0.50303715 0.97076762
-7.315908 1.1116406 -0.50303036 0.97076792
-7.2855368 1.2951367 -0.50302476 0.97076839
-7.2686715 1.3865722 -0.50302166 0.97076845
-7.2314258 1.5687695 -0.50301492 0.97076893
-7.1183591 2.0196581 -0.50299448 0.97077006
-7.0369921 2.2864549 -0.50297976 0.97077084
-1.7920409 0.65791988 -0.1297705 0.99237561
-1.7921386 0.68363279 -0.13038944 0.99233937
-1.7922461 0.70959961 -0.13103546 0.99230158
-1.7293066 0.70996094 -0.12707683 0.99253327
-1.6127148 0.70996094 -0.11978263 0.99296033
-1.5592773 0.70995116 -0.11646713 0.99315453
-1.4608008 0.70994139 -0.11040825 0.99350947
-1.3307519 0.70993161 -0.10252987 0.99397123
-1.2914159 0.70994139 -0.10017799 0.99410903
-1.1834179 0.70993161 -0.093812861 0.9944824
-1.1186817 0.70995116 -0.090068661 0.9947021
-1.058916 0.70994139 -0.086664125 0.99490178
-1.0262109 0.78573239 -0.087860376 0.99483156
-1.0260546 0.8062402 -0.088706285 0.99478197
-1.0256835 0.84851563 -0.090491213 0.99467725
-1.0250976 0.91526365 -0.093418993 0.99450552
-1.0249121 0.93848628 -0.094467349 0.99444395
-4.2145801 4.4880371 -0.41852313 0.97561842
-4.0370116 4.5214844 -0.41204718 0.97599113
-3.8644531 4.5535741 -0.4059909 0.97633982
-3.696543 4.584414 -0.40033022 0.97666585
-3.5103221 4.7060156 -0.39910263 0.97673655
-3.4508104 4.7496386 -0.39909205 0.97673714
-3.1453514 4.9562597 -0.39903784 0.9767403
-2.9560547 5.0708494 -0.39900425 0.97674227
-2.8275292 5.1432519 -0.39898142 0.97674358
-2.5652537 5.278203 -0.39893493 0.97674626
-2.4316308 5.3406935 -0.39891121 0.97674763
-2.2965429 5.399785 -0.39888725 0.97674894
-2.2284081 5.4280567 -0.39887518 0.97674966
-2.0911815 5.4819922 -0.39885086 0.97675115
-2.0220506 5.5076857 -0.39883861 0.9767518
-1.8829101 5.556406 -0.39881393 0.97675323
-1.7425684 5.6016307 -0.39878905 0.97675461
-1.6011719 5.643281 -0.39876404 0.9767561
-1.5300488 5.6627831 -0.39875144 0.97675681
-1.4587402 5.6813965 -0.3987388 0.97675753
-1.3875195 5.7004786 -0.3988232 0.9767527
-0.98944336 6.0026855 -0.4135595 0.97590417
-0.92006832 6.0550876 -0.41634101 0.97574413
-0.84975582 6.1081638 -0.4192225 0.97557825
-0.70607418 6.2164645 -0.42530188 0.97522849
-0.63263673 6.2717285 -0.42850509 0.97504425
-0.55805665 6.3278222 -0.43182352 0.9748534
-0.40957031 6.5101953 -0.44342682 0.97418654
-0.33296874 6.6184568 -0.45048127 0.97378135
-0.25404295 6.7354298 -0.45818698 0.97333878
-0.087734371 6.9818163 -0.47464943 0.97239429
9.7656248e-06 7.1118064 -0.48344877 0.97188979
0.27816406 7.3747559 -0.50168079 0.97084534
0.37080076 7.3704491 -0.5016644 0.97084624
0.46334961 7.3649707 -0.50164801 0.97084713
0.55584961 7.3583298 -0.50163168 0.97084808
0.74057615 7.3415427 -0.50159901 0.97084999
0.83270508 7.3314157 -0.50158274 0.97085094
1.1083593 7.2941113 -0.50153404 0.97085375
1.1998632 7.2793846 -0.50151789 0.97085464
1.2912109 7.2634959 -0.50150174 0.97085553
1.6543164 7.1885157 -0.5014376 0.97085929
1.7444726 7.1669531 -0.50142169 0.97086006
1.8343261 7.1442285 -0.50140584 0.97086102
1.9238867 7.1203904 -0.50139004 0.97086197
2.1020997 7.069365 -0.50135857 0.9708637
2.1907032 7.0421481 -0.50134289 0.97086465
2.278955 7.0138474 -0.50132734 0.97086555
2.3668163 6.9844432 -0.50131184 0.97086644
2.5414453 6.9223242 -0.50128102 0.97086823
2.800293 6.8210058 -0.50123537 0.97087079
3.0551171 6.7100096 -0.50119042 0.97087342
3.1391015 6.670908 -0.50117558 0.97087419
3.305537 6.5895309 -0.50114626 0.97087592
3.3879979 6.5472851 -0.50113171 0.97087669
3.7122655 6.3680468 -0.50107461 0.97088003
3.870908 6.2724118 -0.5010466 0.97088152
3.9493163 6.2231054 -0.50103283 0.9708823
4.0270801 6.1728125 -0.50101912 0.97088313
4.1042185 6.1215429 -0.50100553 0.97088397
4.2565427 6.0161524 -0.50097871 0.97088546
4.4061427 5.9069629 -0.50095236 0.97088701
4.7677245 5.6179395 -0.50088876 0.9708907
4.8378611 5.5574412 -0.50087643 0.97089136
4.9757323 5.4338474 -0.50085217 0.97089279
5.1104589 5.3068357 -0.50082844 0.97089416
5.4329977 4.9749317 -0.50077176 0.97089732
5.5560546 4.8366113 -0.50075012 0.97089857
5.6756153 4.6952634 -0.50072914 0.97089976
5.7340426 4.6234765 -0.50071889 0.97090036
5.7915721 4.5509472 -0.50070882 0.97090101
5.8481736 4.4777441 -0.50069886 0.97090155
1.2543652 0.93564451 -0.10637912 0.99374568
1.2545507 0.91148436 -0.10541546 0.99380213
1.2547461 0.88773435 -0.10448532 0.99385667
1.2550879 0.84147459 -0.10272064 0.99396008
1.2554199 0.79668945 -0.10107651 0.99405652
1.2555761 0.77484375 -0.10029694 0.99410218
1.2558692 0.73209959 -0.098819084 0.99418885
1.2913867 0.70993161 -0.10017818 0.99410915
1.3307226 0.70992184 -0.10253017 0.99397135
1.4152637 0.70994139 -0.10763393 0.99367207
1.460791 0.70994139 -0.11040844 0.99350947
1.6127441 0.70995116 -0.11978287 0.99296027
1.6693066 0.70995116 -0.12331268 0.99275362
1.7293359 0.70996094 -0.1270774 0.99253315
1.7931347 0.70994139 -0.13110054 0.99229777
1.8611327 0.70995116 -0.13540882 0.99204564
1.9337499 0.70996094 -0.14003272 0.99177516
2.0237987 0.71426755 -0.14589043 0.99143255
2.0238085 0.65756834 -0.14465412 0.99150485
7.1309667 1.830918 -0.50047487 0.97091436
7.153379 1.7411523 -0.500471 0.97091448
7.194736 1.5608202 -0.50046384 0.97091502
7.2137499 1.4702636 -0.50046062 0.97091514
7.2483301 1.2885156 -0.50045472 0.9709155
7.263916 1.1973339 -0.50045204 0.97091562
7.2783494 1.1059473 -0.5004496 0.97091579
7.3037791 0.92267579 -0.50044531 0.97091603
7.3147559 0.83081055 -0.50044346 0.97091621
7.3246288 0.73882812 -0.50044179 0.97091615
7.3333006 0.64672852 -0.50044036 0.97091627
7.3593845 0.18499023 -0.50043625 0.97091651
7.3611131 0.092500001 -0.50043601 0.97091657
7.3593554 -0.18500976 -0.5004366 0.97091663
7.3333201 -0.64674801 -0.50044173 0.97091621
7.3246188 -0.73885739 -0.5004434 0.97091621
7.3038082 -0.92269528 -0.50044721 0.97091591
7.2639551 -1.1973339 -0.5004546 0.9709155
7.2316504 -1.3795117 -0.50046051 0.9709152
7.213789 -1.4702832 -0.50046372 0.97091502
7.1948142 -1.56083 -0.50046724 0.97091472
7.1746774 -1.6511426 -0.50047082 0.97091454
7.1534176 -1.7411718 -0.50047469 0.9709143
7.1310153 -1.8309473 -0.50047874 0.97091413
7.1075191 -1.9204296 -0.50048298 0.97091383
7.0302734 -2.1870117 -0.50049698 0.97091305
2.0237889 -0.65757811 -0.14465427 0.99150491
2.0237987 -0.68580079 -0.14525825 0.9914695
1.9337499 -0.70994139 -0.14003177 0.99177516
1.6127245 -0.70995116 -0.11978225 0.99296033
1.4607617 -0.70996094 -0.11040783 0.99350953
1.3719727 -0.70996094 -0.10501121 0.99382573
1.3307323 -0.70995116 -0.10252956 0.99397123
1.2560155 -0.71121091 -0.098118968 0.99422979
1.2557324 -0.75333005 -0.099544868 0.99414623
1.2552637 -0.81893551 -0.10188416 0.99400908
1.2545507 -0.91150391 -0.10541565 0.99380207
1.254375 -0.93567383 -0.10637905 0.99374557
4.8949804 -3.7479296 -0.41908893 0.97558588
4.6537013 -3.7524023 -0.40638065 0.97631741
4.5389647 -3.7549803 -0.40044907 0.97665894
4.4624219 -3.7870996 -0.39786291 0.97680789
4.366045 -3.8982031 -0.39788008 0.97680688
4.3191013 -3.9549901 -0.39810321 0.97679412
4.2668552 -4.006865 -0.39789775 0.97680598
4.165029 -4.1130271 -0.39791587 0.97680485
4.1130958 -4.1651368 -0.39792511 0.97680438
3.7585254 -3.9029393 -0.36833245 0.9785105
3.6860936 -3.925293 -0.36604458 0.97864276
3.6543067 -3.990752 -0.36783803 0.97853923
3.8990135 -4.3669529 -0.39796317 0.97680217
3.7319238 -4.5111523 -0.39799285 0.97680044
3.6750488 -4.5577927 -0.39800301 0.97679985
3.5009179 -4.6934276 -0.39803389 0.97679812
3.4417479 -4.7371778 -0.39804444 0.97679752
3.3217969 -4.8224411 -0.39806572 0.97679621
2.6919627 -5.2021971 -0.39817753 0.97678977
2.4274609 -5.3314939 -0.39822444 0.97678715
2.3603418 -5.3617578 -0.3982363 0.97678638
2.2928319 -5.3911524 -0.39824829 0.97678578
2.1567676 -5.4473925 -0.39827242 0.97678435
2.0881934 -5.4742384 -0.39828455 0.97678369
1.9501073 -5.525322 -0.39830902 0.97678226
1.8805957 -5.5495605 -0.39832136 0.97678155
1.7406347 -5.5954199 -0.39834616 0.97678012
1.4574804 -5.6765137 -0.39839628 0.97677726
1.386084 -5.6945801 -0.39840895 0.97677642
1.3144433 -5.7117186 -0.39842162 0.97677577
0.78936523 -3.8729491 -0.26868832 0.98427814
0.736875 -3.8628125 -0.26732209 0.98435748
0.65430665 -3.9694824 -0.27348068 0.98400003
0.80777341 -5.8064356 -0.39851135 0.97677052
0.51507813 -5.8404393 -0.39856315 0.97676754
0.36817381 -5.8519139 -0.39858913 0.97676611
0.29462889 -5.8562694 -0.39860213 0.97676533
0.22099608 -5.8597069 -0.39861518 0.97676456
0.073681638 -5.8637791 -0.3986412 0.97676313
-0.36830077 -5.8538184 -0.39871937 0.9767586
-0.58873045 -5.8363571 -0.39875832 0.97675633
-0.80834961 -5.8105955 -0.39879715 0.97675407
-1.0268848 -5.7765527 -0.39883575 0.97675186
-1.0994238 -5.7633886 -0.39884856 0.97675109
-1.2440039 -5.7342968 -0.39887407 0.97674966
-1.3160156 -5.7183981 -0.3988868 0.97674888
-1.459375 -5.683877 -0.3989121 0.97674745
-1.5307422 -5.6652637 -0.39892471 0.97674674
-1.6727148 -5.625371 -0.3989498 0.97674531
-1.8136718 -5.5819039 -0.39897469 0.97674388
-1.9534961 -5.5349021 -0.39899933 0.97674245
-2.2975194 -5.4021482 -0.39906004 0.97673893
-2.4326952 -5.3430176 -0.39908385 0.97673762
-2.5663378 -5.2805176 -0.39910743 0.97673625
-2.6325781 -5.2480078 -0.39911911 0.97673553
-2.7637694 -5.1804786 -0.39914221 0.97673428
-2.8287597 -5.1454883 -0.39915371 0.97673357
-2.8932714 -5.1096678 -0.39916506 0.97673297
-3.0209277 -5.0356541 -0.39918756 0.9767316
-3.0840721 -4.9974122 -0.39919868 0.976731
-3.146709 -4.9584274 -0.39920974 0.97673029
-3.2705078 -4.878047 -0.39923152 0.97672904
-3.3316209 -4.8366895 -0.39924231 0.97672844
-3.392246 -4.79457 -0.39925295 0.97672778
-3.511826 -4.7080564 -0.39927402 0.97672665
-3.5708106 -4.6636815 -0.39928442 0.976726
-3.6292284 -4.6185641 -0.3992947 0.9767254
-3.7443359 -4.526123 -0.39931494 0.97672427
-3.912539 -4.3820996 -0.39934456 0.9767226
-4.1281738 -4.1803808 -0.39938247 0.97672039
-4.1804881 -4.1282911 -0.39939162 0.9767198
-4.2321286 -4.0755076 -0.39940071 0.97671932
-4.2830858 -4.0220995 -0.39940971 0.97671884
-1.0249121 -0.93850583 -0.094467349 0.99444389
-1.0251074 -0.9152832 -0.093419075 0.99450541
-1.0253222 -0.89255857 -0.0924078 0.99456471
-1.0258789 -0.82718748 -0.089582749 0.99473047
-1.0260352 -0.80626953 -0.08870624 0.99478191
-1.026377 -0.76560545 -0.087043419 0.99487948
-1.0306739 -0.70997071 -0.085076027 0.99499488
-1.0589062 -0.70995116 -0.086663738 0.99490178
-1.1504004 -0.70997071 -0.091895021 0.99459481
-1.1834375 -0.70996094 -0.093812712 0.99448228
-1.2178711 -0.70995116 -0.09582752 0.99436414
-1.2538086 -0.70996094 -0.097946547 0.99423993
-1.2913965 -0.70997071 -0.10017761 0.99410903
-1.4152832 -0.70996094 -0.10763343 0.99367201
-1.5592577 -0.70994139 -0.11646683 0.99315464
-1.6692773 -0.70995116 -0.12331177 0.99275374
-1.7292968 -0.70995116 -0.12707664 0.99253333
-6.9772167 -2.4625585 -0.50297421 0.97077119
-7.0077047 -2.374707 -0.50297952 0.97077084
-7.0370603 -2.2864842 -0.50298464 0.97077054
-7.0653024 -2.1978905 -0.50298953 0.9707703
-7.1670604 -1.8402148 -0.50300717 0.97076929
-7.2111425 -1.6595312 -0.50301474 0.97076887
-7.2314939 -1.568789 -0.50301826 0.97076863
-7.2686911 -1.386582 -0.50302464 0.97076839
-7.3416114 -0.92747068 -0.50303704 0.97076762
-7.3790426 -0.55743164 -0.50304329 0.9707672
-7.3854685 -0.4646582 -0.50304431 0.9707672
-7.3977733 -0.18596679 -0.50304615 0.97076702
-7.108242 -9.7656248e-06 -0.50299478 0.97189832
-7.0992575 0.35713866 -0.50299281 0.97189838
-7.0941992 0.44631836 -0.5029918 0.97189844
-7.0880075 0.53543943 -0.50299066 0.9718985
-7.0722656 0.71336913 -0.50298768 0.97189867
-7.0627441 0.80219722 -0.50298589 0.97189867
-7.0402732 0.9794336 -0.50298172 0.97189897
-7.0273728 1.0678027 -0.50297934 0.97189915
-6.9982419 1.2440526 -0.50297397 0.97189945
-6.9820409 1.3318847 -0.50297105 0.97189951
-6.9646873 1.4195215 -0.50296789 0.97189975
-6.9267478 1.5940527 -0.50296098 0.97190005
-6.446074 1.8288964 -0.47414008 0.97348875
-6.3785348 2.0725 -0.47458589 0.97346419
-6.3243065 2.2321093 -0.47457615 0.97346473
-1.7931151 0.70994139 -0.13646804 0.99229634
-1.7293066 0.70995116 -0.13228054 0.99253184
-1.6692773 0.70996094 -0.12836204 0.99275231
-1.6127148 0.70996094 -0.12468781 0.99295902
-1.5087011 0.70996094 -0.11798946 0.99333602
-1.4608008 0.70994139 -0.11492935 0.99350822
-1.3719823 0.70993161 -0.10931175 0.9938246
-1.3307519 0.70993161 -0.10672832 0.99397004
-1.2914159 0.70994139 -0.10428039 0.9941079
-1.2178515 0.70993161 -0.099752158 0.99436319
-1.1834375 0.70993161 -0.097654723 0.99448133
-1.0306543 0.70993161 -0.088560067 0.99499404
-1.0259863 0.72588867 -0.088935815 0.99497288
-1.0256737 0.76506835 -0.090546452 0.99488199
-1.025332 0.80569333 -0.092274889 0.99478453
-1.0249707 0.84791017 -0.094130211 0.99467999
-1.0247754 0.86966795 -0.095108643 0.99462485
-1.0245898 0.89188474 -0.096122622 0.99456763
-1.024375 0.9145996 -0.097173609 0.99450839
-4.5058985 4.4496188 -0.44811019 0.97492582
-4.4066992 4.4624119 -0.44378582 0.97516477
-4.1200485 4.499414 -0.43170348 0.9758327
-4.0279002 4.5112891 -0.42795399 0.97604007
-3.937324 4.5229688 -0.42433453 0.97624028
-3.8482323 4.5344629 -0.42084303 0.97643352
-3.6792967 4.5630369 -0.41478035 0.97676903
-3.6047947 4.587451 -0.41284874 0.97687596
-3.5344822 4.6162109 -0.41140687 0.97695571
-3.4645801 4.6447067 -0.41003254 0.97703177
-3.3950682 4.6729102 -0.40872496 0.97710425
-3.3259473 4.7008786 -0.40748268 0.97717303
-3.2571776 4.7285938 -0.40630591 0.97723824
-3.18875 4.756074 -0.40519196 0.97729987
-3.120625 4.7833495 -0.4041419 0.97735804
-2.8508399 4.8903027 -0.40055498 0.97755671
-2.7839453 4.9165721 -0.39980963 0.97759801
-2.653789 4.9742966 -0.39895087 0.97764558
-2.590996 5.0070896 -0.39893973 0.97764623
-2.4002244 5.1007614 -0.39890593 0.97764814
-2.1406641 5.2143064 -0.39885989 0.9776507
-2.0749316 5.240654 -0.39884827 0.97765124
-2.0088575 5.2661619 -0.39883652 0.97765189
-1.9424511 5.2908301 -0.39882475 0.97765255
-1.8167187 5.361084 -0.40055233 0.97755688
-1.6353711 5.4997263 -0.40601349 0.97725439
-1.5115429 5.5941696 -0.41005147 0.97703081
-1.1899902 5.8385057 -0.42163879 0.97638941
-1.1233886 5.8888965 -0.42422587 0.97624636
-0.98756832 5.9914746 -0.4296886 0.97594404
-0.9183203 6.0436912 -0.43257332 0.9757846
-0.84814453 6.0965719 -0.43556154 0.97561944
-0.7769531 6.1501756 -0.4386574 0.97544819
-0.55697262 6.3154783 -0.44863045 0.97489709
9.7656248e-06 7.0903907 -0.50173026 0.97196794
0.08910156 7.0895896 -0.50171453 0.97196883
0.4451367 7.0752831 -0.50165159 0.97197229
0.53401369 7.0689158 -0.50163585 0.97197312
0.62277341 7.0614157 -0.50162017 0.97197402
0.88838863 7.0322657 -0.50157326 0.97197664
1.1526855 6.9931345 -0.50152653 0.9719792
1.240459 6.9778905 -0.50151104 0.97197998
1.3279883 6.9615331 -0.5014956 0.97198087
1.4153222 6.9440722 -0.5014801 0.97198176
1.5024316 6.9255466 -0.50146478 0.97198254
1.6758887 6.8851757 -0.50143415 0.97198427
1.7622266 6.863369 -0.50141889 0.97198504
1.9340136 6.816494 -0.50138855 0.97198677
2.0194628 6.7914453 -0.50137347 0.97198761
2.2737889 6.7099023 -0.50132859 0.97199011
2.8538964 6.4828906 -0.50122625 0.97199571
2.9350488 6.4463377 -0.50121194 0.97199649
3.0157518 6.4087696 -0.5011977 0.9719972
3.1756542 6.3306055 -0.5011695 0.97199881
3.3335643 6.2484374 -0.50114167 0.97200036
3.64291 6.072402 -0.50108719 0.97200334
3.9429979 5.8810644 -0.50103432 0.97200626
4.1615429 5.7278318 -0.50099581 0.97200841
4.3039451 5.621172 -0.50097078 0.97200978
4.3741212 5.566504 -0.50095838 0.97201049
4.4436131 5.5109568 -0.50094616 0.97201121
4.5804977 5.397295 -0.50092208 0.97201246
4.7144628 5.2802439 -0.50089848 0.97201371
4.8454394 5.1598434 -0.50087547 0.97201508
4.9097853 5.0984373 -0.50086415 0.97201568
4.9733496 5.0362401 -0.500853 0.97201627
5.159287 4.8448925 -0.50082028 0.97201812
5.2196579 4.7795701 -0.50080967 0.97201866
5.4527636 4.5109177 -0.50076878 0.97202092
5.5641794 4.3722849 -0.50074923 0.972022
5.6186032 4.3019433 -0.50073963 0.97202247
1.2538965 0.88714844 -0.1086916 0.99385959
1.2546093 0.79618162 -0.10514747 0.99405921
1.2547852 0.7743457 -0.10433739 0.99410474
1.2549316 0.75284177 -0.10355525 0.99414885
1.2550879 0.73164064 -0.10280071 0.99419135
1.2552344 0.71074218 -0.10207313 0.9942323
1.2913867 0.70993161 -0.10428058 0.99410802
1.3307226 0.70992184 -0.10672863 0.99397016
1.3719823 0.70993161 -0.1093119 0.9938246
1.460791 0.70994139 -0.11492977 0.99350822
1.5087304 0.70995116 -0.1179898 0.99333596
1.5592871 0.70994139 -0.12123672 0.99315321
1.6127245 0.70995116 -0.12468765 0.99295896
1.6693066 0.70995116 -0.12836219 0.99275225
1.7931347 0.70994139 -0.13646896 0.99229628
1.8611327 0.70995116 -0.14095394 0.99204409
1.9337499 0.70995116 -0.14576714 0.99177361
2.0237207 0.68577147 -0.15120147 0.99146819
2.0237403 0.65753907 -0.15057254 0.99150348
6.804863 1.9307128 -0.50053245 0.97203392
6.8511133 1.7590624 -0.50052446 0.97203439
6.8930664 1.5863184 -0.50051719 0.97203475
6.9124022 1.4995605 -0.50051385 0.97203499
6.9306736 1.4125781 -0.50051075 0.97203505
6.9478221 1.3253613 -0.50050777 0.97203529
6.9638963 1.2379395 -0.50050503 0.97203541
6.9788475 1.150332 -0.50050253 0.97203565
6.9927244 1.062539 -0.50050014 0.97203577
7.0277343 0.79821289 -0.50049424 0.972036
7.0639157 0.35536131 -0.50048828 0.9720363
7.0678024 0.26656249 -0.50048769 0.97203636
7.0705857 0.17773438 -0.50048733 0.97203642
7.0722752 -0.088886715 -0.50048727 0.97203636
7.0705957 -0.1777539 -0.50048769 0.97203636
7.0677929 -0.26659179 -0.50048828 0.97203642
7.0589061 -0.44411132 -0.50049001 0.97203624
7.052783 -0.53279299 -0.5004912 0.97203618
7.0372167 -0.70985347 -0.50049412 0.972036
7.0277538 -0.79822266 -0.50049591 0.97203594
7.0171971 -0.88648438 -0.50049788 0.97203583
6.9927731 -1.0625488 -0.50050241 0.97203553
6.9478512 -1.3253906 -0.50051063 0.97203517
6.8931055 -1.5863378 -0.50052059 0.97203457
6.8726754 -1.6728418 -0.50052428 0.97203439
6.8285937 -1.8450488 -0.50053227 0.97203392
6.8049216 -1.9307421 -0.5005365 0.97203368
6.754365 -2.1011717 -0.50054562 0.9720332
2.0237403 -0.65755856 -0.15057263 0.99150348
2.0237207 -0.71425778 -0.15185928 0.99143118
1.9337597 -0.70995116 -0.14576626 0.99177355
1.7931249 -0.70994139 -0.13646804 0.99229634
1.7293164 -0.70995116 -0.13228028 0.99253184
1.6692969 -0.70995116 -0.12836158 0.99275225
1.3719727 -0.70996094 -0.10931137 0.99382454
1.3307129 -0.70996094 -0.10672809 0.99397016
1.2913965 -0.70996094 -0.10428005 0.99410796
1.2552344 -0.71076173 -0.1020731 0.9942323
1.2550683 -0.7316699 -0.10280079 0.99419135
1.2549413 -0.7528711 -0.10355525 0.99414873
1.2545898 -0.79622066 -0.10514755 0.99405915
1.2542773 -0.84094727 -0.10685688 0.99396276
1.2540917 -0.86386716 -0.10775806 0.99391204
1.253916 -0.88716793 -0.10869148 0.99385947
1.2537011 -0.91089839 -0.10965866 0.99380505
1.2535254 -0.93502927 -0.1106599 0.99374861
4.7677536 -3.746455 -0.4290739 0.97597814
4.3077345 -3.7499413 -0.40413985 0.97735804
4.147295 -3.797627 -0.39791864 0.97770274
4.0993261 -3.8495312 -0.39792719 0.97770226
4.0507126 -3.9008203 -0.39793587 0.97770178
4.0014548 -3.9514842 -0.39794272 0.97770137
3.9515722 -4.0015626 -0.39795348 0.97770083
3.7585351 -3.9029393 -0.38342339 0.97850639
3.6394141 -4.2884569 -0.39800897 0.97769779
3.5853319 -4.3339453 -0.3980186 0.97769725
3.4197071 -4.4663377 -0.39804804 0.97769552
3.3634081 -4.5090723 -0.39805806 0.97769499
3.2491894 -4.5924025 -0.39807835 0.97769386
3.1329002 -4.6728415 -0.39809898 0.97769278
3.074033 -4.7119627 -0.39810944 0.97769219
3.0146778 -4.7503614 -0.39811996 0.97769147
2.2636425 -3.8830955 -0.31805566 0.98213762
2.4598925 -5.0614743 -0.39821836 0.97768611
2.2675683 -5.1510348 -0.39825252 0.97768426
2.202744 -5.179287 -0.39826399 0.97768354
2.1375389 -5.2067089 -0.39827555 0.97768289
2.0061328 -5.2590818 -0.39829883 0.97768164
1.873457 -5.3081346 -0.39832237 0.97768039
1.8066504 -5.3314257 -0.39833418 0.97767967
1.5366796 -5.4161229 -0.39838204 0.97767705
1.3315917 -5.4706931 -0.39841834 0.97767496
1.2627636 -5.4871387 -0.39843056 0.97767442
0.78938472 -3.8729393 -0.27969137 0.98427516
0.736875 -3.8628027 -0.27826914 0.9843545
0.84600586 -5.5677147 -0.39850432 0.97767025
0.635625 -5.5961814 -0.39854157 0.97766817
0.3536914 -5.621748 -0.39859146 0.97766542
0.28301758 -5.6259274 -0.39860398 0.97766471
0.070810549 -5.6331153 -0.3986415 0.97766268
-0.070800781 -5.6334863 -0.39866653 0.97766119
-0.14157227 -5.6323142 -0.39867905 0.9776606
-0.21235351 -5.6302633 -0.39869156 0.97765988
-0.28311524 -5.6273336 -0.39870405 0.97765917
-0.35380858 -5.6235056 -0.39871654 0.97765851
-0.42445311 -5.6187887 -0.398729 0.97765779
-0.63600582 -5.5993357 -0.39876643 0.97765571
-0.77652341 -5.5819235 -0.39879125 0.97765434
-0.91662109 -5.5610056 -0.39881602 0.97765291
-0.98648435 -5.5492086 -0.39882836 0.97765225
-1.0561621 -5.5365524 -0.39884067 0.9776516
-1.1950293 -5.5085936 -0.39886519 0.97765023
-1.2642089 -5.4933004 -0.39887741 0.97764957
-1.3331738 -5.4771581 -0.39888957 0.97764891
-1.4704688 -5.442246 -0.39891383 0.9776476
-1.5387988 -5.4235153 -0.3989259 0.97764689
-1.7422558 -5.3621287 -0.39896178 0.97764498
-1.8095605 -5.3399901 -0.39897367 0.97764421
-2.009707 -5.2684569 -0.39900902 0.9776423
-2.0758202 -5.2429395 -0.39902064 0.97764164
-2.1416113 -5.2166114 -0.39903226 0.97764093
-2.2070508 -5.189414 -0.3990438 0.97764039
-2.4652929 -5.0725584 -0.39908934 0.97763783
-2.5288963 -5.0413084 -0.39910057 0.97763723
-2.6549511 -4.9764547 -0.39912277 0.97763592
-2.7173438 -4.942832 -0.3991338 0.97763538
-2.8408399 -4.8732419 -0.39915556 0.97763419
-2.9019432 -4.8372946 -0.39916632 0.97763354
-3.0824413 -4.7248535 -0.39919811 0.97763181
-3.3162889 -4.5645018 -0.3992393 0.97762948
-3.4301171 -4.4799414 -0.39925933 0.97762841
-3.4862304 -4.4365821 -0.39926922 0.97762787
-3.6512401 -4.3023534 -0.39929825 0.97762626
-3.758369 -4.2094336 -0.39931709 0.97762525
-3.8110645 -4.1619725 -0.39932635 0.97762471
-3.8631542 -4.1138477 -0.3993355 0.97762418
-1.024375 -0.91461915 -0.097173534 0.99450833
-1.02458 -0.89191407 -0.096122511 0.99456757
-1.0249707 -0.84793943 -0.094130285 0.99467987
-1.025332 -0.80572265 -0.092274971 0.99478447
-1.0260059 -0.72591794 -0.088935733 0.99497277
-1.0589062 -0.70995116 -0.090212628 0.99490076
-1.0882422 -0.70997071 -0.091943242 0.99480313
-1.1504004 -0.70997071 -0.095657997 0.9945938
-1.2178711 -0.70995116 -0.099751696 0.99436307
-1.2538086 -0.70997071 -0.10195732 0.99423879
-1.2913965 -0.70997071 -0.10427979 0.9941079
-1.3307323 -0.70995116 -0.10672787 0.9939701
-1.4152832 -0.70996094 -0.11204101 0.99367076
-1.5592577 -0.70994139 -0.12123626 0.99315333
-1.6126952 -0.70995116 -0.12468734 0.99295908
-1.6692773 -0.70995116 -0.12836151 0.99275231
-1.7292968 -0.70995116 -0.13228028 0.9925319
-1.7931055 -0.70995116 -0.13646789 0.9922964
-1.7929003 -0.65823239 -0.13514996 0.99237049
-6.7313766 -2.2810547 -0.50293058 0.97190177
-6.7595801 -2.1963184 -0.50293547 0.97190148
-6.7866797 -2.1112401 -0.50294018 0.9719013
-6.8127441 -2.0258007 -0.50294471 0.971901
-6.8377342 -1.9400293 -0.502949 0.97190076
-6.8616209 -1.8539844 -0.50295317 0.97190052
-6.8844137 -1.7676269 -0.50295711 0.9719004
-6.9061327 -1.6809765 -0.50296086 0.97190017
-6.964736 -1.4195215 -0.50297093 0.97189957
-6.9820504 -1.3319141 -0.50297391 0.97189945
-7.0274119 -1.0678124 -0.5029816 0.97189897
-7.0627537 -0.80221677 -0.50298756 0.97189862
-7.0807323 -0.6244629 -0.5029906 0.97189844
-7.0880075 -0.53543943 -0.5029918 0.9718985
-7.099277 -0.35714844 -0.50299358 0.97189832
-7.1032028 -0.26790038 -0.50299418 0.97189832
-7.1077051 -0.089335933 -0.50299478 0.97189826
-6.8384666 -9.7656248e-06 -0.50294709 0.97294497
-6.8379297 0.0859375 -0.50294691 0.97294497
-6.8336034 0.25774413 -0.50294596 0.97294497
-6.8298044 0.34359375 -0.50294518 0.97294509
-6.8189745 0.51511717 -0.5029431 0.97294521
-6.8119726 0.60076171 -0.50294179 0.97294521
-6.8038573 0.68629879 -0.50294024 0.97294533
-6.7946677 0.77173829 -0.50293851 0.97294539
-6.7843943 0.85706055 -0.5029366 0.97294557
-6.760664 1.0272655 -0.50293225 0.97294575
-6.7471871 1.1121386 -0.50292975 0.97294593
-6.7326465 1.1968261 -0.50292706 0.97294605
-6.7003903 1.3656347 -0.50292122 0.97294623
-6.6638474 1.5335547 -0.50291455 0.9729467
-6.6230955 1.7005078 -0.50290722 0.97294712
-6.2230859 1.681455 -0.47410083 0.97447675
-6.2074218 1.7612011 -0.47455597 0.97445256
-6.1108789 2.0708008 -0.47453856 0.97445339
-6.0843067 2.1474023 -0.4745338 0.97445369
-1.7937793 0.65855467 -0.14053631 0.99236524
-1.7938769 0.68429685 -0.14120746 0.992329
-1.6692773 0.70996094 -0.13341354 0.99275088
-1.6127148 0.70996094 -0.12959465 0.99295759
-1.5087011 0.70996094 -0.12263264 0.99333471
-1.4152734 0.70996094 -0.11645057 0.99366957
-1.2538183 0.70993161 -0.10597046 0.99423766
-1.1834375 0.70993161 -0.10149765 0.99448019
-1.1186817 0.70995116 -0.097446665 0.99470001
-1.0882128 0.70992184 -0.095561944 0.9948023
-1.058916 0.70994139 -0.093763351 0.99489975
-1.0306543 0.70993161 -0.092045248 0.99499303
-1.025166 0.74479491 -0.093195379 0.99493057
-1.0244434 0.82602537 -0.096785657 0.99473578
-1.0242578 0.84731442 -0.097765729 0.99468261
-1.0240625 0.86905271 -0.098781012 0.99462754
-1.0233984 0.93709958 -0.10205521 0.99444997
-4.7162304 4.4288573 -0.47582975 0.9743849
-4.6070313 4.4365525 -0.47039965 0.97467345
-4.5058689 4.4496093 -0.46574301 0.97492099
-4.0278711 4.5112696 -0.44479316 0.97603548
-3.9372947 4.5229783 -0.44103289 0.97623563
-3.760576 4.5457716 -0.43390045 0.97661537
-3.6743164 4.5569043 -0.43052253 0.97679538
-3.5266991 4.6061034 -0.4266597 0.97700119
-3.4556055 4.6326561 -0.42506367 0.97708613
-3.385078 4.6591406 -0.42355746 0.97716641
-3.2472265 4.7141404 -0.42100435 0.97730249
-3.1788671 4.7413573 -0.41983408 0.9773649
-3.1108594 4.7683787 -0.41873252 0.97742361
-2.9086621 4.8484864 -0.41583705 0.97757798
-2.8418164 4.8748732 -0.41500515 0.97762233
-2.7088084 4.9272752 -0.41353792 0.97770053
-2.5765624 4.9791698 -0.41232771 0.97776508
-2.5106933 5.0049806 -0.41181862 0.97779214
-2.4449511 5.030664 -0.4113729 0.97781599
-2.3793163 5.0562792 -0.41098955 0.97783643
-2.3137794 5.0818067 -0.4106687 0.97785354
-2.2483399 5.1072655 -0.41040984 0.97786731
-1.9317089 5.2615528 -0.41222632 0.97777045
-1.8136133 5.3519626 -0.41560614 0.97759026
-1.693457 5.4437594 -0.41929728 0.97739351
-1.632539 5.4902244 -0.42126343 0.97728878
-1.5710351 5.5371189 -0.42331204 0.97717953
-1.5088671 5.5844336 -0.42544487 0.97706586
-1.4460937 5.6321678 -0.42766416 0.97694761
-1.3184375 5.7289743 -0.43236196 0.97669739
-1.1877929 5.8278122 -0.43742752 0.9764275
-1.1212792 5.878037 -0.4401058 0.97628498
-1.0539551 5.9288473 -0.44288385 0.9761371
-0.98573238 5.9802537 -0.44576454 0.9759838
-0.84683591 6.087275 -0.45201096 0.97565132
-0.48304686 6.394453 -0.47163191 0.97460794
-0.25398436 6.7337985 -0.49560225 0.97333479
0.085732423 6.8211617 -0.50171536 0.97301042
0.34273437 6.8124804 -0.50166994 0.97301275
0.51378906 6.8012986 -0.50163972 0.97301441
0.59918946 6.7941012 -0.50162464 0.97301519
0.68450195 6.7858396 -0.50160956 0.97301596
1.024453 6.7420406 -0.50154948 0.97301924
1.1934863 6.713779 -0.50151962 0.97302079
1.2777344 6.6980762 -0.50150472 0.97302151
1.361748 6.6812792 -0.50148988 0.97302234
1.4455566 6.6634374 -0.5014751 0.97302318
1.6124804 6.624619 -0.50144559 0.97302467
1.6955175 6.6036229 -0.50143093 0.97302556
1.7783301 6.5816212 -0.50141633 0.97302628
2.0249512 6.5093555 -0.50137275 0.97302854
2.2686424 6.4278612 -0.50132978 0.97303087
2.34917 6.3986621 -0.50131559 0.97303164
2.5091112 6.337256 -0.5012874 0.97303307
2.5884666 6.3050389 -0.50127339 0.97303385
2.7459373 6.2376561 -0.50124562 0.97303534
2.8240235 6.2024903 -0.50123185 0.97303605
2.9016602 6.1663475 -0.50121814 0.97303677
2.9788475 6.1292286 -0.50120449 0.97303748
3.0555468 6.0911427 -0.50119102 0.9730382
3.1317382 6.0520997 -0.50117761 0.97303897
3.2826953 5.9711719 -0.50115097 0.97304034
3.357373 5.929297 -0.50113779 0.97304106
3.5051465 5.8427634 -0.50111175 0.97304237
3.5781932 5.7980857 -0.50109887 0.97304314
3.6506641 5.7525291 -0.50108612 0.9730438
4.0041699 5.51125 -0.50102383 0.97304714
4.2087498 5.3560448 -0.50098783 0.97304899
4.2756248 5.3026171 -0.50097609 0.97304958
4.341826 5.2483592 -0.50096446 0.97305018
4.4073243 5.1932616 -0.5009529 0.97305083
4.4721289 5.1373434 -0.50094151 0.97305143
4.5362306 5.0806251 -0.50093025 0.97305202
4.7853613 4.8458691 -0.50088644 0.97305435
4.8457618 4.785244 -0.50087583 0.97305495
4.9054098 4.723877 -0.50086534 0.97305548
4.9642868 4.6617675 -0.50085503 0.97305602
5.079668 4.5353808 -0.5008347 0.97305703
5.1361523 4.4710841 -0.50082481 0.97305763
5.1918259 4.4060936 -0.50081503 0.97305816
1.2539648 0.77384764 -0.10837402 0.99410743
1.2541406 0.75235349 -0.10756229 0.99415135
1.2544335 0.71029294 -0.10602367 0.99423486
1.2913867 0.70993161 -0.10838451 0.99410689
1.3307226 0.70992184 -0.11092861 0.99396896
1.3719629 0.70993161 -0.11361366 0.99382341
1.4152832 0.70995116 -0.11645084 0.99366957
1.460791 0.70995116 -0.11945263 0.99350691
1.5087304 0.70995116 -0.12263298 0.99333459
1.5592871 0.70994139 -0.1260083 0.99315184
1.6127441 0.70995116 -0.12959503 0.99295753
1.7293261 0.70995116 -0.13748702 0.99253029
1.7931347 0.70995116 -0.14183967 0.99229473
2.0236621 0.6857422 -0.15714614 0.99146676
2.0236621 0.65751952 -0.1564928 0.99150211
6.4991403 2.0217774 -0.50058639 0.97307032
6.5478125 1.8577636 -0.50057793 0.97307068
6.6130075 1.6096289 -0.50056672 0.97307134
6.6326756 1.526377 -0.50056332 0.97307152
6.651289 1.4429199 -0.5005601 0.97307169
6.6688571 1.3592187 -0.50055707 0.97307181
6.70083 1.1911719 -0.50055158 0.97307217
6.7408786 0.93776363 -0.50054479 0.97307247
6.7521091 0.85298824 -0.50054288 0.97307259
6.7622657 0.76806641 -0.50054121 0.97307265
6.7793941 0.59789062 -0.50053835 0.97307283
6.7922559 0.42733398 -0.50053626 0.97307289
6.79707 0.34193358 -0.50053549 0.97307301
6.805654 -9.7656248e-06 -0.50053436 0.97307301
6.7863474 -0.51266599 -0.50053829 0.97307289
6.7794137 -0.59789062 -0.5005396 0.97307277
6.7622948 -0.7680859 -0.50054282 0.97307253
6.7521191 -0.85299802 -0.50054473 0.97307253
6.7408786 -0.93778318 -0.50054681 0.97307247
6.7286129 -1.0224218 -0.50054908 0.97307229
6.7152734 -1.1068847 -0.50055152 0.97307211
6.7008495 -1.1912011 -0.50055414 0.97307205
6.6854 -1.2753222 -0.50055695 0.97307187
6.6513181 -1.4429394 -0.5005632 0.97307152
6.6130567 -1.6096581 -0.50057012 0.97307116
6.5706248 -1.7753515 -0.50057781 0.97307074
6.5240135 -1.9399608 -0.50058621 0.97307038
6.4991989 -2.0217969 -0.50059068 0.97307009
2.0236425 -0.71423829 -0.15783019 0.99142981
1.8611132 -0.70996094 -0.14650032 0.9920426
1.7931249 -0.70994139 -0.14183883 0.99229479
1.7293164 -0.70995116 -0.13748619 0.99253035
1.6127245 -0.70995116 -0.12959449 0.99295759
1.5592773 -0.70994139 -0.1260073 0.9931519
1.4607812 -0.70994139 -0.11945201 0.99350697
1.4152734 -0.70994139 -0.11645023 0.99366957
1.3719727 -0.70996094 -0.11361313 0.99382335
1.2913965 -0.70996094 -0.1083839 0.99410677
1.2542773 -0.7311914 -0.1067791 0.99419385
1.2541211 -0.75237304 -0.10756229 0.99415141
1.253623 -0.81786132 -0.11008659 0.99401456
1.2534375 -0.8404004 -0.11098957 0.99396557
1.2532519 -0.86331052 -0.11192463 0.99391484
1.2530664 -0.88658202 -0.11289383 0.99386233
1.2528515 -0.91028321 -0.11389736 0.99380803
1.252666 -0.93439454 -0.11493687 0.99375165
4.8949804 -3.7479198 -0.45341969 0.97557646
4.6446095 -3.7450488 -0.43880874 0.97635406
4.4097266 -3.7423534 -0.42537147 0.9770698
4.2975388 -3.7410839 -0.41905299 0.9774065
4.0898438 -3.7450585 -0.40785167 0.97800374
3.8502245 -3.8021386 -0.39797118 0.97853076
3.8022265 -3.8503125 -0.39797977 0.97853029
3.6857226 -3.924912 -0.39599016 0.97863656
3.6530175 -3.9893749 -0.39783111 0.97853833
3.5533299 -4.0818944 -0.39802402 0.97852802
3.5018358 -4.126338 -0.39803314 0.97852749
3.3971972 -4.213213 -0.39805174 0.97852653
3.3440917 -4.2556739 -0.39806119 0.978526
3.2362401 -4.3385839 -0.39808035 0.97852492
3.1815331 -4.3790135 -0.39809003 0.97852445
3.1263573 -4.4187598 -0.39809984 0.97852385
2.8430469 -4.6069236 -0.39815018 0.97852129
2.7850096 -4.6424122 -0.39816046 0.97852069
2.5485156 -4.7769628 -0.39820242 0.97851849
2.4883494 -4.8087692 -0.39821312 0.97851783
2.0566797 -5.0097265 -0.39828962 0.97851384
1.9302343 -5.0601172 -0.39831206 0.97851259
1.8665429 -5.0841112 -0.39832336 0.97851205
1.6737597 -5.1513085 -0.39835751 0.97851014
1.3471973 -5.2469921 -0.39841536 0.9785071
1.2812011 -5.2636619 -0.39842704 0.97850645
1.1485742 -5.2945018 -0.39845052 0.97850525
0.69006836 -3.8818164 -0.28997186 0.98431104
0.74663085 -5.3669434 -0.39852169 0.97850138
0.67917967 -5.3760548 -0.39853361 0.97850078
0.54386717 -5.3917575 -0.39855757 0.97849947
0.34030274 -5.408906 -0.39859357 0.97849756
0.2723242 -5.41292 -0.39860561 0.97849697
-0.13623047 -5.4190526 -0.39867786 0.97849303
-0.20431641 -5.4170704 -0.3986899 0.97849238
-0.27237305 -5.4142284 -0.39870194 0.97849178
-0.4083789 -5.4059958 -0.39872596 0.97849053
-0.54414064 -5.3943553 -0.39874995 0.97848922
-0.61189449 -5.3872461 -0.39876193 0.97848862
-0.67957032 -5.3793063 -0.39877388 0.97848791
-0.81458008 -5.3608494 -0.39879775 0.97848666
-0.8819043 -5.3503513 -0.39880964 0.978486
-1.1497656 -5.299912 -0.39885697 0.9784835
-1.2826366 -5.2696486 -0.39888045 0.97848231
-1.3487988 -5.253252 -0.39889213 0.97848171
-1.6112499 -5.1794629 -0.39893845 0.97847915
-1.6762598 -5.1589646 -0.39894989 0.97847849
-1.7409863 -5.1376266 -0.39896134 0.97847795
-1.8696387 -5.0925488 -0.39898401 0.97847676
-1.9335644 -5.0687985 -0.39899531 0.97847611
-1.9971679 -5.0442381 -0.39900652 0.97847551
-2.0604393 -5.0188966 -0.39901772 0.97847492
-2.1860254 -4.9658008 -0.39903983 0.97847378
-2.2483301 -4.938076 -0.39905086 0.97847319
-2.3718262 -4.8802829 -0.39907265 0.97847205
-2.4330664 -4.850234 -0.39908341 0.97847134
-2.554287 -4.7878027 -0.39910474 0.97847033
-2.6143165 -4.7554493 -0.39911535 0.97846979
-2.7331543 -4.6885157 -0.3991363 0.97846854
-2.7919042 -4.6538963 -0.39914665 0.97846812
-3.190537 -4.3914061 -0.39921686 0.97846437
-3.3000586 -4.3100586 -0.39923614 0.97846323
-3.4074903 -4.2259669 -0.39925507 0.97846222
-3.56458 -4.0948143 -0.39928272 0.97846079
-3.6158104 -4.0497751 -0.39929172 0.97846043
-3.6665137 -4.0041208 -0.39930061 0.97845989
-3.7166307 -3.9578319 -0.39930946 0.97845936
-3.8634179 -3.8151758 -0.39933524 0.97845799
-3.911123 -3.7664061 -0.39934364 0.97845757
-1.0236132 -0.91395503 -0.10092407 0.99451125
-1.0238281 -0.89127928 -0.099833407 0.99457043
-1.0242382 -0.84735352 -0.097765803 0.99468255
-1.0246289 -0.80515623 -0.095840149 0.99478704
-1.0248145 -0.78466797 -0.094927251 0.99483657
-1.0253124 -0.7254492 -0.092374153 0.99497509
-1.0589062 -0.70995116 -0.09376274 0.99489975
-1.0882422 -0.70997071 -0.095561557 0.99480212
-1.1834375 -0.70996094 -0.10149749 0.99448013
-1.2178711 -0.70995116 -0.10367718 0.99436194
-1.2538086 -0.70997071 -0.10596992 0.99423766
-1.2913965 -0.70997071 -0.10838379 0.99410677
-1.3307323 -0.70995116 -0.11092807 0.9939689
-1.3719921 -0.70996094 -0.11361297 0.99382329
-1.4152441 -0.70995116 -0.11645019 0.99366969
-1.7940038 -0.71030271 -0.14190789 0.99229103
-1.7937597 -0.65855467 -0.1405365 0.99236536
-6.447783 -2.2756836 -0.50288045 0.97294837
-6.4759083 -2.1945019 -0.50288528 0.97294825
-6.5541797 -1.948916 -0.50289887 0.97294754
-6.6231251 -1.7005469 -0.50291085 0.97294694
-6.644033 -1.6171875 -0.50291443 0.97294676
-6.6638865 -1.533584 -0.50291783 0.97294652
-6.7003808 -1.3656445 -0.50292408 0.97294629
-6.7946873 -0.77175778 -0.50294018 0.97294533
-6.8119822 -0.60076171 -0.50294304 0.97294515
-6.818994 -0.51512694 -0.50294423 0.97294515
-6.8249512 -0.42939451 -0.50294518 0.97294503
-6.8298144 -0.34359375 -0.5029459 0.97294503
-6.8336129 -0.25774413 -0.5029465 0.97294497
-6.8362985 -0.17185546 -0.50294685 0.97294503
-6.8379197 -0.0859375 -0.50294709 0.97294497
-6.5883007 -0 -0.50290287 0.97391635
-6.5835934 0.24831054 -0.50290173 0.97391647
-6.5799413 0.33102539 -0.50290102 0.97391647
-6.575254 0.41367185 -0.50290012 0.97391653
-6.5549316 0.66120118 -0.50289625 0.97391677
-6.5253024 0.90777344 -0.50289071 0.97391695
-6.5133395 0.98969722 -0.50288856 0.97391713
-6.4863477 1.1530468 -0.50288361 0.97391737
-6.4200878 1.4774706 -0.50287151 0.9739179
-6.4009666 1.5580273 -0.50286806 0.97391808
-5.9585156 1.7717675 -0.47451195 0.97537065
-5.9120016 1.9209276 -0.47450355 0.97537106
-5.8873534 1.9950488 -0.47449911 0.97537124
-1.7947558 0.6846289 -0.14662765 0.99232364
-1.794873 0.71064454 -0.14735503 0.99228573
-1.7293066 0.70995116 -0.1426945 0.99252886
-1.6127148 0.70996094 -0.13450347 0.99295616
-1.5087011 0.70996094 -0.12727787 0.99333334
-1.4607617 0.70996094 -0.12397712 0.99350566
-1.3719629 0.70994139 -0.11791694 0.9938221
-1.1834375 0.70993161 -0.1053424 0.99447906
-1.1186817 0.70995116 -0.101138 0.99469888
-1.0882128 0.70992184 -0.099181704 0.99480122
-1.058916 0.70994139 -0.097315058 0.99489868
-1.0306739 0.70993161 -0.095531955 0.99499196
-1.0244726 0.74429685 -0.096660614 0.99493295
-1.0241113 0.78410155 -0.098455697 0.99483907
-1.0239258 0.80458003 -0.099401698 0.9947896
-1.0237206 0.82543945 -0.10038189 0.9947384
-1.0233203 0.86842769 -0.1024498 0.99463028
-1.0226367 0.93639648 -0.10584316 0.99445295
-4.7162304 4.4288282 -0.4938516 0.97437972
-4.6070213 4.4365234 -0.48821613 0.97466838
-4.4066601 4.4623923 -0.47872007 0.97515494
-4.0278711 4.5112696 -0.46164054 0.97603059
-3.8481932 4.5344334 -0.45396987 0.97642416
-3.6743066 4.5569043 -0.44683012 0.97679061
-3.5983887 4.5793262 -0.44455999 0.97690719
-3.5266991 4.6061034 -0.44282082 0.97699642
-3.3849609 4.6590233 -0.4395906 0.97716236
-3.2452147 4.7112303 -0.43668163 0.97731173
-3.1759765 4.7370896 -0.43534353 0.97738045
-3.0387597 4.7883396 -0.43289694 0.97750616
-2.9707129 4.8137693 -0.4317852 0.9775632
-2.903584 4.8400097 -0.43083331 0.97761214
-2.8368456 4.8663769 -0.42997292 0.97765636
-2.7703514 4.8926072 -0.42918026 0.97769707
-2.7040722 4.9187107 -0.42845529 0.97773433
-2.6379981 4.9446974 -0.42779708 0.97776812
-2.5063183 4.9963183 -0.42667785 0.9778257
-2.4407032 5.0219727 -0.42621666 0.97784942
-2.3097754 5.0730467 -0.42548865 0.9778868
-2.1791503 5.1238184 -0.42501748 0.977911
-2.0486913 5.1743555 -0.42480436 0.97792196
-1.9866699 5.2080665 -0.42548788 0.9778868
-1.9284375 5.2526855 -0.42711955 0.97780299
-1.8697265 5.2976074 -0.42882839 0.97771519
-1.750791 5.3884764 -0.43248329 0.97752732
-1.6905469 5.4344335 -0.43443325 0.97742718
-1.6296972 5.4807811 -0.43646598 0.97732276
