# .PCD v0.7 - Point Cloud Data file format
VERSION 0.7
FIELDS x y z intensity
SIZE 4 4 4 4
TYPE F F F F
COUNT 1 1 1 1
WIDTH 1083
HEIGHT 1
VIEWPOINT 0 0 0 1 0 0 0
POINTS 1083
DATA ascii
-1.0331836 -0.81185544 -0.052812003 0.9947536
-1.033291 -0.79114258 -0.052305028 0.99480379
-1.0333788 -0.77082032 -0.051815376 0.9948523
-1.033496 -0.7508496 -0.051342811 0.99489909
-1.0589062 -0.70993161 -0.051239431 0.99490941
-1.0882422 -0.70993161 -0.052222289 0.99481195
-1.1187109 -0.70995116 -0.053252373 0.99470991
-1.1504296 -0.70995116 -0.054332428 0.9946028
-1.1834375 -0.70994139 -0.055466268 0.99449056
-1.2538086 -0.70993161 -0.05791023 0.99424857
-1.2913867 -0.70994139 -0.05922943 0.99411792
-1.3307421 -0.70994139 -0.060619734 0.99398023
-1.460791 -0.70993161 -0.065278128 0.99351919
-1.5592871 -0.70994139 -0.068860628 0.99316472
-1.6127245 -0.70995116 -0.070820503 0.99297082
-1.6693066 -0.70996094 -0.072907485 0.99276441
-1.7293164 -0.70995116 -0.075133361 0.99254441
-1.7835156 -0.68033201 -0.076720387 0.99238747
-10.091143 -3.5615528 -0.43010113 0.95806527
-10.924414 -3.5495508 -0.46166611 0.95505768
-11.890351 -3.5356152 -0.49857494 0.95155329
-12.061152 -3.4220507 -0.50389409 0.95104933
-12.143721 -3.1179688 -0.50390851 0.95104784
-12.253066 -2.6581542 -0.50392753 0.95104605
-12.285585 -2.503994 -0.50393313 0.95104569
-12.344932 -2.1945214 -0.50394338 0.95104456
-12.396377 -1.883623 -0.50395226 0.95104378
-12.475703 -1.258418 -0.50396574 0.95104247
-12.490576 -1.1015625 -0.50396824 0.95104229
-12.514433 -0.78733397 -0.50397217 0.95104188
-12.535274 -0.31508788 -0.50397533 0.95104164
-12.538242 -0.15756835 -0.50397575 0.95104164
-11.725098 0.14734374 -0.50383031 0.95413762
-11.722246 0.29468748 -0.50382966 0.95413792
-11.711103 0.58916992 -0.50382733 0.95413804
-11.702773 0.73627931 -0.50382572 0.95413804
-11.69251 0.88328123 -0.5038237 0.9541384
-11.680478 1.0301172 -0.50382137 0.9541384
-11.666533 1.1768261 -0.50381875 0.9541387
-11.633105 1.4696094 -0.50381249 0.95413935
-11.613632 1.615664 -0.50380886 0.95413971
-11.592343 1.7614551 -0.50380492 0.95413995
-11.56917 1.9069824 -0.50380063 0.95414042
-11.425996 2.6295116 -0.50377429 0.95414281
-11.318359 3.0581639 -0.50375462 0.95414448
-11.237588 3.3415332 -0.50373989 0.95414579
-11.103134 3.7625194 -0.50371552 0.95414793
-1.7843652 0.68067384 -0.082057305 0.99238294
-1.7844434 0.70651364 -0.08246208 0.99234551
-1.7293261 0.70994139 -0.080321312 0.99254352
-1.6693066 0.70995116 -0.07794182 0.99276358
-1.6127441 0.70995116 -0.075710908 0.99296993
-1.3719921 0.70995116 -0.066374585 0.9938342
-1.2538378 0.70995116 -0.061909255 0.99424773
-1.1504102 0.70995116 -0.05808422 0.99460226
-1.1187207 0.70995116 -0.056929588 0.99470925
-1.0329688 0.71154296 -0.05389408 0.99499071
-1.0328808 0.73078126 -0.054364052 0.99494708
-1.0327929 0.75036132 -0.054850996 0.99490196
-1.0324609 0.81131834 -0.056419525 0.99475658
-1.0320214 0.89836913 -0.0587891 0.99453688
-1.0318848 0.92131835 -0.059436567 0.99447685
-1.0317578 0.94475585 -0.060108107 0.99441463
-6.6184082 6.5357614 -0.39966139 0.96344423
-6.5355368 6.618154 -0.39964652 0.96344554
-6.451611 6.6995311 -0.39963144 0.9634468
-6.3666601 6.7797852 -0.39961624 0.96344829
-6.1938281 6.937119 -0.39958522 0.96345097
-6.1059275 7.0141306 -0.39956945 0.96345234
-5.9272461 7.1647849 -0.39953741 0.96345526
-5.7448339 7.3108592 -0.39950472 0.9634583
-5.6523046 7.3821874 -0.39948812 0.96345961
-5.4645019 7.5212498 -0.3994545 0.96346277
-5.3693357 7.588994 -0.3994374 0.96346432
-5.0788379 7.7849512 -0.39938536 0.96346903
-4.980371 7.8477926 -0.39936775 0.9634707
-4.7811718 7.9698143 -0.39933208 0.96347368
-4.6804395 8.0288668 -0.39931405 0.96347541
-4.1660938 8.3049898 -0.39922196 0.96348369
-4.0536914 8.3407907 -0.39846283 0.96355188
-3.924082 8.3390818 -0.39599341 0.96377355
-3.7960546 8.3373823 -0.39361629 0.96398705
-3.5444531 8.3340425 -0.38912937 0.96439022
-3.3102832 8.6778517 -0.39906886 0.96349746
-3.2008398 8.718359 -0.39904928 0.96349907
-3.0908594 8.7574415 -0.39902961 0.96350098
-2.9804199 8.7951565 -0.39900988 0.96350271
-2.8695409 8.8314838 -0.39899006 0.96350443
-2.7581835 8.866396 -0.39897013 0.96350628
-2.5342577 8.9320211 -0.39893013 0.9635098
-2.1954687 9.019805 -0.39886957 0.96351534
-2.0818555 9.0462008 -0.39884925 0.96351719
-1.9679198 9.0712204 -0.39882892 0.96351892
-1.7391406 9.1168747 -0.39878806 0.96352261
-1.6243554 9.1375294 -0.39876753 0.96352446
-1.3940917 9.1745119 -0.3987264 0.96352816
-1.2786132 9.1908398 -0.39870581 0.96353
-1.0471191 9.219101 -0.39866447 0.96353376
-0.93115234 9.2310743 -0.39864376 0.96353555
-0.81504881 9.2415524 -0.39862305 0.96353745
-0.69880855 9.250556 -0.39860228 0.96353942
-0.58247072 9.2581444 -0.3985815 0.96354121
-0.4660742 9.2642384 -0.39856073 0.96354312
-0.11655273 9.2737989 -0.39849839 0.9635486
0.58659178 11.659824 -0.50162125 0.9543342
0.73299801 11.650888 -0.50159514 0.95433664
1.317207 11.596952 -0.50149095 0.95434582
1.4627539 11.578916 -0.50146502 0.95434803
1.6080565 11.559023 -0.50143909 0.95435035
1.7530859 11.537285 -0.50141329 0.95435274
2.0422363 11.488427 -0.50136167 0.95435727
2.1863573 11.461279 -0.50133604 0.95435947
2.3300781 11.432275 -0.50131041 0.95436192
3.1836619 11.220869 -0.5011583 0.95437545
3.4642968 11.13625 -0.50110835 0.95437974
3.6037793 11.091279 -0.50108349 0.954382
3.8809862 10.996142 -0.50103414 0.95438629
4.0186329 10.945957 -0.50100964 0.95438856
4.4276953 10.785147 -0.50093681 0.95439506
4.8303614 10.609092 -0.50086516 0.95440137
4.9630566 10.547031 -0.50084156 0.95440358
5.0949607 10.483369 -0.50081807 0.95440561
5.4856935 10.282441 -0.50074857 0.95441186
5.6142087 10.212236 -0.50072569 0.95441389
5.7418652 10.140439 -0.50070298 0.9544158
5.8685546 10.06704 -0.50068051 0.95441777
5.9943066 9.9920311 -0.50065815 0.95441991
6.2430077 9.8373823 -0.50061393 0.95442367
6.6084375 9.5938282 -0.50054896 0.95442963
6.7281933 9.5096092 -0.50052768 0.95443153
6.8468652 9.4239454 -0.50050664 0.95443332
6.9644628 9.3367577 -0.50048572 0.95443523
7.0809469 9.2481346 -0.50046504 0.95443702
7.1963181 9.1580763 -0.50044453 0.95443875
7.3105273 9.0665522 -0.50042427 0.95444059
7.5354686 8.8792477 -0.50038433 0.95444417
7.7555957 8.6863766 -0.50034523 0.95444775
8.0765619 8.3869333 -0.50028831 0.95445281
8.181015 8.2845116 -0.50026977 0.95445436
8.2841797 8.1807423 -0.50025147 0.95445603
8.386035 8.0756836 -0.50023341 0.95445764
8.4865131 7.9693747 -0.50021559 0.95445937
8.8750095 7.5318942 -0.50014675 0.95446533
9.1517181 7.1913476 -0.50009769 0.95446962
1.2620507 0.94141597 -0.067651749 0.99371606
1.2623047 0.89311522 -0.06644024 0.99382818
1.2624218 0.86958981 -0.065865971 0.9938814
1.2627343 0.80137694 -0.064259984 0.99403012
1.2628418 0.77934569 -0.06376148 0.99407625
1.2629297 0.75765622 -0.063280679 0.99412084
1.2630273 0.73630857 -0.062816657 0.99416375
1.2631152 0.71522456 -0.062369116 0.9942053
1.2913769 0.70996094 -0.063319661 0.99411726
1.4607812 0.70996094 -0.069785729 0.99351841
1.6692871 0.70994139 -0.077942044 0.9927637
1.7931347 0.70995116 -0.082864456 0.99230838
1.861123 0.70995116 -0.085587882 0.99205661
2.0189159 0.71255857 -0.091990739 0.99146485
2.0187695 0.6841113 -0.091585234 0.99150229
2.0186327 0.65588868 -0.091198154 0.99153811
11.106093 3.4549217 -0.499753 0.95450044
11.148477 3.3150487 -0.49974558 0.95450103
11.227959 3.0337498 -0.49973169 0.95450222
11.26501 2.8923731 -0.49972522 0.95450294
11.395625 2.3226268 -0.49970251 0.95450485
11.450175 2.0354784 -0.4996931 0.95450568
11.474746 1.8914062 -0.49968886 0.9545061
11.518456 1.6024121 -0.49968138 0.95450687
11.537646 1.4575585 -0.49967811 0.95450699
11.55501 1.3124609 -0.49967515 0.95450711
11.584189 1.0216407 -0.4996703 0.95450771
11.596084 0.87599605 -0.4996683 0.95450783
11.614326 0.58430666 -0.49966535 0.95450824
11.629013 -0 -0.49966338 0.95450824
11.628096 -0.14613281 -0.49966368 0.95450824
11.625341 -0.29222655 -0.49966434 0.95450824
11.614336 -0.58429688 -0.49966657 0.95450824
11.606153 -0.73018551 -0.49966821 0.95450795
11.596104 -0.87597656 -0.49967018 0.95450777
11.584248 -1.0216309 -0.49967241 0.95450753
11.570527 -1.1671191 -0.49967507 0.95450741
11.555049 -1.3124413 -0.49967796 0.95450699
11.537695 -1.4575391 -0.4996812 0.95450681
11.518564 -1.6024317 -0.49968478 0.95450646
11.474833 -1.891416 -0.49969292 0.95450574
11.423906 -2.1792188 -0.4997023 0.95450485
11.365771 -2.4656737 -0.49971297 0.95450395
11.334003 -2.60833 -0.49971876 0.95450348
11.300449 -2.750576 -0.49972492 0.95450306
11.228086 -3.0337791 -0.49973816 0.95450175
11.189219 -3.1746776 -0.49974522 0.95450115
11.148623 -3.3150878 -0.49975261 0.95450044
2.01875 -0.68410152 -0.091585159 0.9915024
1.9337305 -0.70995116 -0.088509783 0.99178654
1.7931055 -0.70995116 -0.082864337 0.99230844
1.4607714 -0.70992184 -0.069785498 0.99351853
1.3719727 -0.70993161 -0.066374354 0.99383432
1.2629395 -0.75764644 -0.063280635 0.99412084
1.2628418 -0.77933592 -0.063761517 0.99407631
1.2627441 -0.80134761 -0.064259909 0.99403018
1.2625293 -0.84646481 -0.065311581 0.99393278
1.2624023 -0.86958003 -0.065865971 0.99388146
1.2622949 -0.89310545 -0.066440202 0.99382824
1.2620605 -0.94139647 -0.067651823 0.99371606
7.3425388 -5.6219139 -0.39734435 0.96365237
7.1994433 -5.8050585 -0.3973701 0.96364987
7.1261621 -5.8952637 -0.39738327 0.96364868
6.7430663 -6.3321872 -0.39745209 0.9636426
6.5822949 -6.5000973 -0.39748096 0.96364003
6.5003223 -6.5825291 -0.39749569 0.96363878
6.4173532 -6.6639547 -0.39751056 0.96363735
6.3333397 -6.7443261 -0.39752564 0.96363604
6.1623435 -6.9018946 -0.39755633 0.96363318
6.0753808 -6.9790821 -0.39757195 0.96363169
5.8985157 -7.1300974 -0.39760363 0.96362901
3.0023046 -3.9211814 -0.21219641 0.98042166
2.9664843 -3.9769726 -0.21318103 0.98033172
5.2508497 -7.6229391 -0.39771971 0.96361864
5.1548829 -7.6886425 -0.39773694 0.96361709
5.0580759 -7.7531638 -0.39775428 0.96361548
4.6729784 -7.789443 -0.39029548 0.96428537
4.2839942 -7.7925487 -0.38208368 0.96502352
4.157793 -7.793447 -0.37953612 0.9652527
4.0332618 -7.7942672 -0.37707791 0.96547383
3.7887304 -7.7957129 -0.37242228 0.96589273
3.6686914 -7.7963281 -0.37022147 0.96609092
3.4325585 -7.7974219 -0.36605835 0.96646565
1.5974902 -3.8912303 -0.18073623 0.98329997
1.5378516 -3.8841991 -0.17949779 0.98341346
1.4920508 -3.9114063 -0.17987315 0.98337895
2.6555567 -8.1729975 -0.36924177 0.96617907
2.4293652 -8.1699896 -0.36623141 0.96645015
2.3176074 -8.1685152 -0.3648307 0.96657628
2.0965526 -8.1655664 -0.36223158 0.96681046
1.7704785 -8.1612501 -0.35882202 0.96711761
1.6631055 -8.1598091 -0.35781151 0.96720868
1.5562891 -8.1584034 -0.35686404 0.9672941
1.450039 -8.1569872 -0.35597655 0.96737403
1.1341797 -8.1527977 -0.35367507 0.96758151
1.0297461 -8.1514111 -0.35302523 0.96764004
0.61535156 -8.1459036 -0.35100326 0.96782249
0.51242185 -8.1445265 -0.35063887 0.96785533
0.40964842 -8.1431684 -0.35033068 0.96788311
0.14818358 -3.9289746 -0.16893597 0.98438168
0.097324215 -3.8711815 -0.1663855 0.98461568
0.048554685 -3.862793 -0.16598633 0.98465234
-0.12042969 -9.5826416 -0.41177005 0.96235782
-0.36125976 -9.5776215 -0.41181299 0.96235383
-0.48160157 -9.5728321 -0.41183448 0.96235186
-0.72208983 -9.5586815 -0.41187736 0.9623481
-0.84219724 -9.549345 -0.41189879 0.9623462
-1.0819921 -9.5261326 -0.41194156 0.96234244
-1.2016991 -9.5123196 -0.41196287 0.96234035
-1.4405078 -9.4800825 -0.41200548 0.9623366
-1.7970703 -9.4205227 -0.41206905 0.96233082
-1.9154004 -9.3976564 -0.41209015 0.96232903
-2.033457 -9.3733149 -0.41211116 0.96232718
-2.1511817 -9.3474998 -0.41213214 0.96232527
-2.2685938 -9.3202095 -0.4121531 0.96232337
-2.385664 -9.2914696 -0.4121739 0.9623214
-2.5023339 -9.2611818 -0.4121947 0.96231967
-2.7345507 -9.1963129 -0.41223609 0.96231592
-2.8500586 -9.1616602 -0.41225669 0.96231413
-3.0796874 -9.0880566 -0.41229755 0.96231043
-3.9355857 -8.9400778 -0.41970322 0.9616468
-4.1477833 -8.814477 -0.41856906 0.96174836
-4.3565626 -8.6847162 -0.41747338 0.96184635
-4.7665429 -8.4180031 -0.41565168 0.96200949
-4.8692579 -8.3528023 -0.41543102 0.96203011
-5.1942968 -8.1848583 -0.41652641 0.96193194
-5.2756739 -7.6589255 -0.39959803 0.96344995
-5.371738 -7.5923729 -0.39961508 0.96344835
-5.5612888 -7.455615 -0.39964879 0.96344537
-5.6548243 -7.3854685 -0.39966542 0.9634437
-5.8390622 -7.241611 -0.39969811 0.9634409
-5.9298434 -7.1679392 -0.39971423 0.96343946
-6.0197067 -7.093154 -0.39973018 0.96343797
-6.1085935 -7.0172262 -0.39974597 0.9634366
-6.2835155 -6.862041 -0.39977702 0.96343374
-6.4544625 -6.7024608 -0.39980736 0.96343106
-6.5384083 -6.6210938 -0.39982224 0.96342969
-6.7032127 -6.4551268 -0.39985144 0.96342719
-1.031875 -0.92128903 -0.059436414 0.99447697
-1.032002 -0.89835936 -0.058788832 0.994537
-1.0321289 -0.87591797 -0.058164518 0.99459481
-1.0323633 -0.83240235 -0.056980513 0.9947046
-1.0324903 -0.81128907 -0.056419373 0.99475658
-1.0325977 -0.79059571 -0.055878028 0.99480671
-1.0328027 -0.75035155 -0.054850806 0.99490196
-1.0589062 -0.70993161 -0.054777335 0.99490881
-1.0882422 -0.70993161 -0.055828247 0.99481136
-1.1504296 -0.70995116 -0.058084182 0.9946022
-1.2178613 -0.70994139 -0.06056961 0.99437195
-1.3307421 -0.70993161 -0.064805605 0.99397957
-1.4152832 -0.70993161 -0.068031579 0.99368078
-1.460791 -0.70993161 -0.069785267 0.99351841
-1.5087402 -0.70994139 -0.071643367 0.99334639
-1.7293164 -0.70995116 -0.080321275 0.99254352
-1.7843652 -0.68067384 -0.082057379 0.99238294
-1.7842969 -0.65507811 -0.081669576 0.99241889
-10.091143 -3.5615528 -0.45979753 0.9580605
-11.194687 -3.4824705 -0.50373954 0.95414591
-11.237744 -3.3415625 -0.50374711 0.95414519
-11.279014 -3.2001464 -0.50375432 0.95414454
-11.392051 -2.7728612 -0.50377405 0.95414281
-11.426152 -2.6295311 -0.50377995 0.95414221
-11.488857 -2.3416114 -0.5037908 0.95414132
-11.5175 -2.1970801 -0.50379574 0.95414078
-11.61371 -1.6156542 -0.50381231 0.95413941
-11.692588 -0.88327146 -0.5038256 0.9541381
-11.702783 -0.73625976 -0.50382727 0.95413798
-11.722304 -0.29465818 -0.50383031 0.95413768
-11.725068 -0.14734374 -0.50383061 0.95413774
-11.011621 9.7656248e-06 -0.50370318 0.95686543
-11.010761 0.1383789 -0.50370288 0.95686537
-10.997705 0.55328125 -0.50370008 0.95686543
-10.989814 0.69142574 -0.50369853 0.95686567
-10.980234 0.82946289 -0.50369668 0.95686579
-10.940996 1.2427148 -0.50368923 0.95686644
-10.924453 1.3800781 -0.50368613 0.95686668
-10.906162 1.5172364 -0.50368273 0.95686704
-10.886143 1.6541504 -0.50367904 0.9568674
-10.864443 1.7908105 -0.50367498 0.95686764
-10.628916 2.8719041 -0.50363183 0.95687133
-10.512714 3.2703221 -0.50361067 0.956873
-10.426846 3.5333593 -0.50359505 0.95687443
-10.381484 3.6640429 -0.50358683 0.95687503
-1.7852343 0.68100584 -0.087400623 0.99237835
-1.7853026 0.7068457 -0.087831765 0.99234086
-1.7293261 0.70994139 -0.085510522 0.99254262
-1.6127441 0.70995116 -0.080602109 0.9929691
-1.460791 0.70996094 -0.07429409 0.99351758
-1.3307421 0.70995116 -0.068992727 0.9939788
-1.2914159 0.70996094 -0.067410238 0.99411643
-1.2538378 0.70995116 -0.065908737 0.99424708
-1.2178808 0.70995116 -0.064482994 0.99437118
-1.1834277 0.70996094 -0.063127019 0.99448925
-1.0322851 0.71107417 -0.057337835 0.99499339
-1.0321972 0.73029298 -0.057837486 0.99494982
-1.032002 0.76978517 -0.058891408 0.99485797
-1.0318652 0.79006833 -0.059447173 0.99480969
-1.0317578 0.81075191 -0.060022697 0.99475956
-1.0316309 0.83183593 -0.060619123 0.99470764
-1.0315235 0.85333985 -0.061237067 0.99465376
-1.0313965 0.87530273 -0.061877783 0.99459797
-1.03125 0.89773434 -0.062541731 0.99454021
-6.1378512 6.2154684 -0.39957604 0.96562696
-6.0590429 6.2918844 -0.39956182 0.96562815
-5.8169532 6.5150485 -0.39951843 0.9656319
-5.6510057 6.6587009 -0.39948866 0.96563429
-5.5666599 6.7289257 -0.39947352 0.9656356
-5.4814353 6.7980857 -0.39945826 0.96563697
-5.3084569 6.933125 -0.39942726 0.96563965
-5.1321387 7.0637989 -0.39939567 0.96564227
-5.0427928 7.1274314 -0.39937964 0.96564358
-4.5843749 7.4285059 -0.39929751 0.96565044
-4.4904394 7.4851952 -0.3992807 0.96565199
-4.2046094 7.6481347 -0.39922953 0.96565628
-4.0107226 7.7507129 -0.39919484 0.96565926
-3.9128711 7.8001561 -0.39917731 0.96566069
-3.8143456 7.8483691 -0.3991597 0.96566218
-3.7152538 7.8953319 -0.39914194 0.96566367
-3.6156054 7.9410348 -0.39912415 0.96566516
-3.5153711 7.9854879 -0.3991062 0.96566671
-3.3132617 8.0705757 -0.39907005 0.96566981
-3.0063183 8.1886034 -0.39901516 0.9656744
-2.9030664 8.2253513 -0.39899668 0.96567589
-2.799336 8.2607718 -0.39897811 0.96567762
-2.6951854 8.2949219 -0.39895949 0.96567911
-2.2745898 8.418252 -0.39888436 0.96568555
-2.1685255 8.4458008 -0.39886537 0.96568704
-2.062119 8.4719725 -0.39884636 0.96568871
-1.5257324 8.5826654 -0.39875051 0.96569681
-1.3094336 8.6174507 -0.39871192 0.96570009
-1.2009863 8.6328421 -0.39869255 0.96570158
-1.0923535 8.6468258 -0.39867312 0.96570325
-0.98356444 8.6594143 -0.39865372 0.96570504
-0.65639645 8.6890717 -0.3985953 0.96570992
-0.54712892 8.6961813 -0.39857581 0.96571171
-0.43778318 8.7020016 -0.39855629 0.96571314
-0.32838866 8.706357 -0.39853674 0.96571487
-0.21896484 8.7093649 -0.39851722 0.96571654
-0.10949218 8.7110157 -0.3984977 0.96571815
0 8.7112885 -0.39847815 0.96571976
0.23059569 9.1735353 -0.41975573 0.96392274
0.36655274 9.7182713 -0.44485754 0.96180707
0.55098629 10.952412 -0.50162834 0.95703918
0.68854493 10.944131 -0.50160384 0.95704108
0.82596678 10.934052 -0.50157928 0.95704323
1.1003711 10.908759 -0.50153035 0.95704746
1.3740332 10.876621 -0.50148159 0.95705146
1.5105176 10.857949 -0.50145721 0.95705354
1.9184082 10.791758 -0.50138456 0.95705956
2.0537794 10.766279 -0.50136042 0.95706159
2.8580956 10.577949 -0.50121713 0.95707369
3.2543163 10.46123 -0.50114655 0.95707959
3.3853416 10.419063 -0.50112319 0.95708144
3.5158398 10.375215 -0.50109994 0.9570834
3.6457715 10.329726 -0.50107682 0.95708537
3.9038379 10.233906 -0.50103086 0.95708925
4.0319433 10.183574 -0.50100803 0.95709115
4.412334 10.023046 -0.50094038 0.9570967
4.5377245 9.9663477 -0.50091809 0.95709866
5.0318456 9.7240429 -0.50083011 0.95710605
5.1534276 9.6596384 -0.50080854 0.95710784
5.2741795 9.5937014 -0.50078702 0.95710963
5.5131445 9.4573431 -0.50074452 0.95711315
5.6312985 9.3869238 -0.50072354 0.95711493
5.8649316 9.2416601 -0.500682 0.95711845
6.0948339 9.0906343 -0.50064117 0.95712179
6.2083201 9.012949 -0.50062096 0.95712358
6.4323535 8.8533888 -0.5005812 0.95712686
6.6522751 8.688242 -0.5005421 0.95713025
6.760654 8.6036425 -0.50052285 0.95713186
6.8679881 8.5176954 -0.50050378 0.95713341
7.2862206 8.1606541 -0.50042957 0.95713955
7.9730368 7.4871774 -0.50030774 0.95714974
8.0662012 7.3861618 -0.50029123 0.95715117
8.1581049 7.2839355 -0.5002749 0.95715266
8.2487307 7.180625 -0.50025886 0.95715398
8.5127048 6.8639841 -0.50021207 0.95715791
8.5980663 6.7562985 -0.50019699 0.95715898
8.6820307 6.6475196 -0.50018209 0.95716023
1.2612109 0.94076169 -0.071973339 0.99371952
1.2613477 0.91643554 -0.071317747 0.99377644
1.2614551 0.89252925 -0.070685267 0.99383152
1.2615722 0.86902344 -0.070074461 0.99388468
1.2616796 0.84591794 -0.069485165 0.99393606
1.2620312 0.77884763 -0.067837179 0.99407935
1.2623242 0.71477538 -0.066356622 0.99420822
1.2913769 0.70996094 -0.067410089 0.99411654
1.3719629 0.70995116 -0.07066261 0.99383354
1.4152734 0.70994139 -0.072427064 0.99368
1.460791 0.70995116 -0.074294165 0.99351764
1.5087206 0.70994139 -0.076272234 0.99334562
1.5592871 0.70995116 -0.078371197 0.99316311
1.6127148 0.70994139 -0.080602184 0.99296921
1.6692871 0.70994139 -0.082977295 0.9927628
1.7293164 0.70995116 -0.085510708 0.99254262
1.9337499 0.70996094 -0.09422832 0.99178547
2.021045 0.71332031 -0.098037943 0.99145484
2.020752 0.656582 -0.097192153 0.99152821
10.434628 3.2460351 -0.49987304 0.95718634
10.474472 3.114619 -0.49986607 0.95718688
10.584023 2.7175195 -0.49984691 0.95718843
10.617207 2.5842774 -0.49984115 0.95718896
10.64873 2.4506249 -0.49983564 0.95718938
10.757998 1.9124316 -0.49981675 0.95719099
10.8025 1.6414551 -0.49980912 0.95719159
10.871055 1.0965821 -0.49979743 0.95719266
10.883955 0.95989257 -0.49979529 0.95719272
10.895078 0.82303709 -0.49979341 0.95719308
10.912285 0.54898435 -0.49979067 0.9571932
10.91832 0.41181639 -0.49978971 0.9571932
10.922607 0.27458006 -0.49978912 0.95719332
10.925195 0.13731445 -0.49978882 0.95719332
10.926064 9.7656248e-06 -0.49978882 0.95719326
10.912314 -0.54897457 -0.49979183 0.95719308
10.90458 -0.68604493 -0.49979335 0.95719296
10.895146 -0.82304686 -0.49979517 0.95719278
10.883985 -0.95989257 -0.49979731 0.9571926
10.871094 -1.0965723 -0.49979976 0.95719254
10.856572 -1.2331054 -0.4998025 0.95719206
10.822246 -1.5055566 -0.49980891 0.95719171
10.802568 -1.6414648 -0.49981257 0.95719135
10.7333 -2.0474999 -0.49982536 0.95719028
10.706806 -2.1822166 -0.49983025 0.95718998
10.617353 -2.5843065 -0.49984664 0.95718837
10.58415 -2.7175488 -0.49985272 0.95718795
10.549307 -2.8503613 -0.49985904 0.95718735
10.512774 -2.982744 -0.49986571 0.95718688
10.474589 -3.1146483 -0.49987265 0.9571864
1.9337305 -0.70995116 -0.094228014 0.99178559
1.8611034 -0.70995116 -0.09111622 0.99205571
1.7292968 -0.70994139 -0.085509986 0.99254268
1.6692871 -0.70995116 -0.082976952 0.9927628
1.5592577 -0.70994139 -0.078371048 0.99316323
1.5087109 -0.70994139 -0.076271705 0.99334568
1.4607812 -0.70993161 -0.074293554 0.9935177
1.4152441 -0.70994139 -0.072426908 0.99368012
1.3719823 -0.70994139 -0.070662305 0.99383348
1.3307226 -0.70994139 -0.068992347 0.99397886
1.2913769 -0.70994139 -0.067409784 0.9941166
1.261914 -0.80083984 -0.068366967 0.99403328
1.261709 -0.84589839 -0.06948524 0.993936
1.2613379 -0.91642576 -0.071317859 0.9937765
6.7638574 -5.4538379 -0.39744744 0.96580696
6.6950097 -5.5385742 -0.39745983 0.96580589
6.6250682 -5.6224413 -0.39747238 0.96580493
6.3350587 -5.9490037 -0.39752448 0.9658004
6.2599902 -6.0283689 -0.39753798 0.96579927
6.0289745 -6.260664 -0.3975794 0.96579576
5.9500194 -6.3361521 -0.39759362 0.96579462
5.8701563 -6.4106345 -0.39760795 0.96579343
5.6249804 -6.6280565 -0.39765188 0.96578974
5.5414648 -6.6984668 -0.39766687 0.96578848
5.4570603 -6.7678514 -0.39768204 0.96578711
3.0668652 -3.9029002 -0.22705925 0.98032069
3.0023046 -3.9211814 -0.22590537 0.98041928
2.9664941 -3.9769726 -0.22695358 0.98032933
5.0223145 -7.0985351 -0.39775991 0.96578056
4.8427343 -7.2230663 -0.39779213 0.96577793
4.7517772 -7.2836618 -0.3978084 0.9657765
4.660068 -7.3431053 -0.39782485 0.96577507
4.4744239 -7.4585156 -0.39785811 0.96577233
4.2859373 -7.5692282 -0.39789185 0.96576953
4.1906738 -7.6228027 -0.3979089 0.9657681
4.0947461 -7.6752343 -0.39792606 0.96576649
3.9981444 -7.7263961 -0.39794335 0.96576512
3.7775586 -7.7726855 -0.39531088 0.96598762
3.6578906 -7.7734375 -0.39298069 0.96618474
3.5395703 -7.7741404 -0.39073631 0.96637458
3.4225781 -7.7747655 -0.38857535 0.96655738
1.4920508 -3.9114063 -0.19149441 0.98337692
2.744873 -7.7771969 -0.37725806 0.96751535
2.5270605 -7.7775292 -0.37407488 0.967785
2.4194531 -7.7775974 -0.37258586 0.96791112
2.3126953 -7.777617 -0.37116623 0.96803153
2.2066894 -7.7775879 -0.36981106 0.96814626
2.1014159 -7.7774997 -0.36852196 0.96825552
1.7897069 -7.7768846 -0.36503622 0.9685511
1.5848925 -7.7762203 -0.36301979 0.96872205
1.383164 -7.7808981 -0.36149985 0.96885085
1.2853417 -7.7980371 -0.36151734 0.96884942
0.89210933 -7.8543067 -0.36158752 0.9688434
0.79334956 -7.8652539 -0.36160514 0.96884203
0.69451171 -7.8750095 -0.36162284 0.96884042
0.59552735 -7.8834863 -0.36164045 0.96883899
0.49642578 -7.8907127 -0.36165816 0.96883756
0.39726561 -7.8967185 -0.36167586 0.96883601
0.14819336 -3.9289551 -0.17984985 0.98437983
-0.33933592 -8.9963036 -0.41180846 0.96459353
-0.45236328 -8.9917822 -0.41182864 0.9645918
-0.56534177 -8.9858055 -0.41184878 0.96459019
-0.67824215 -8.9784374 -0.41186893 0.96458846
-0.90375972 -8.9594431 -0.41190913 0.96458501
-1.2409766 -8.9203272 -0.4119693 0.96457988
-1.7990625 -8.8269234 -0.41206878 0.96457154
-1.9099315 -8.8040133 -0.41208854 0.96456999
-2.2407324 -8.7270508 -0.41214743 0.96456486
-2.4595506 -8.6687794 -0.41218641 0.9645617
-2.568418 -8.6375923 -0.41220585 0.96456009
-2.6768847 -8.6050291 -0.41222513 0.96455848
-2.892539 -8.5358791 -0.41226354 0.96455508
-3.2126758 -8.4219532 -0.41232055 0.96455026
-3.4236133 -8.3393259 -0.41235813 0.96454704
-3.5282812 -8.2960052 -0.41237673 0.96454555
-3.6324022 -8.2513914 -0.41239527 0.964544
-3.8274999 -8.4064398 -0.42251539 0.96368986
-3.9278319 -8.347065 -0.42197657 0.96373516
-4.2064843 -7.6515427 -0.39940727 0.96564126
-4.4924412 -7.4885058 -0.39945808 0.96563703
-4.5863867 -7.431777 -0.39947477 0.9656356
-4.8638477 -7.2545505 -0.39952415 0.96563131
-5.3108201 -6.9362106 -0.39960352 0.96562463
-5.4838672 -6.801074 -0.39963424 0.96562207
-5.7369528 -6.5902929 -0.39967921 0.96561825
-5.8195214 -6.5179195 -0.39969388 0.96561706
-5.9011717 -6.4445114 -0.39970836 0.96561581
-6.371172 -5.9829197 -0.39979172 0.96560884
-1.031123 -0.92062497 -0.063229941 0.99448031
-1.0312598 -0.89770508 -0.062541805 0.99454021
-1.0313867 -0.87529296 -0.061877709 0.99459803
-1.0316601 -0.83182615 -0.060619049 0.99470758
-1.0317578 -0.81073242 -0.060022619 0.99475956
-1.0318848 -0.79005855 -0.05944702 0.99480963
-1.0589062 -0.70993161 -0.058316231 0.99490821
-1.1187109 -0.70995116 -0.060607262 0.99470866
-1.1504296 -0.70995116 -0.061836395 0.99460155
-1.1834375 -0.70994139 -0.063126713 0.99448925
-1.2913867 -0.70994139 -0.067409746 0.99411654
-1.3307421 -0.70993161 -0.068992309 0.9939788
-1.3719823 -0.70994139 -0.070662268 0.99383348
-1.4152734 -0.70994139 -0.072427027 0.99368
-1.460791 -0.70994139 -0.074293785 0.99351764
-1.5087402 -0.70994139 -0.076271974 0.99334556
-1.6693066 -0.70995116 -0.082976915 0.99276268
-1.7293164 -0.70995116 -0.085510097 0.99254262
-1.7853222 -0.70685548 -0.087832145 0.9923408
-1.7852343 -0.68099606 -0.087400623 0.99237835
-1.7851562 -0.65539062 -0.086987302 0.9924143
-10.47081 -3.4021678 -0.50361031 0.95687294
-10.512871 -3.2703514 -0.50361764 0.9568724
-10.592002 -3.0052147 -0.50363153 0.95687133
-10.629072 -2.8719041 -0.50363797 0.95687073
-10.664443 -2.7381639 -0.50364411 0.95687026
-10.76041 -2.3343358 -0.50366086 0.95686895
-10.789014 -2.1989746 -0.5036658 0.95686847
-10.841093 -1.9271777 -0.50367481 0.95686758
-10.88624 -1.6541504 -0.50368255 0.95686704
-10.90623 -1.5172364 -0.50368595 0.9568668
-10.924521 -1.3800781 -0.50368911 0.95686644
-10.941054 -1.2426953 -0.50369191 0.95686626
-10.968906 -0.96736324 -0.50369656 0.95686597
-10.997685 -0.55325192 -0.50370127 0.95686549
-11.003798 -0.41501951 -0.50370222 0.95686537
-11.010771 -0.13835937 -0.50370312 0.95686531
-10.366006 0.52149415 -0.50358742 0.95928669
-10.358594 0.65172851 -0.50358593 0.95928687
-10.279785 1.4300976 -0.50357109 0.95928794
-10.240458 1.687959 -0.50356376 0.95928854
-10.194638 1.9447362 -0.5035553 0.95928919
-10.142353 2.2002733 -0.5035457 0.95928991
-10.051875 2.5808983 -0.50352913 0.95929128
-10.018516 2.7069726 -0.50352311 0.95929182
-9.9089746 3.0825098 -0.50350314 0.95929343
-1.7860937 0.68131834 -0.092750393 0.9923737
-1.7861816 0.70718747 -0.093208581 0.99233615
-1.6693066 0.70995116 -0.088014066 0.99276179
-1.6127441 0.70995116 -0.085494459 0.9929682
-1.5087402 0.70995116 -0.080901757 0.99334466
-1.415293 0.70995116 -0.076823421 0.99367911
-1.3307323 0.70994139 -0.073180348 0.99397802
-1.2914063 0.70996094 -0.071501732 0.99411565
-1.1834277 0.70996094 -0.066958733 0.99448854
-1.0882519 0.70995116 -0.063042752 0.99480999
-1.0316211 0.71059567 -0.060777776 0.99499595
-1.0315039 0.72980469 -0.061307065 0.99495256
-1.031289 0.76923829 -0.062423665 0.99486089
-1.0311816 0.78953123 -0.063012123 0.99481249
-1.0307813 0.8527441 -0.064908177 0.99465686
-1.0306445 0.87467772 -0.065586701 0.99460119
-1.030498 0.89708006 -0.066289864 0.99454343
-1.0303711 0.91997069 -0.067019038 0.99448353
-5.7857227 5.8588672 -0.39951354 0.9675625
-5.5602145 6.0721383 -0.39947307 0.96756577
-5.2473731 6.3429394 -0.39941698 0.9675703
-5.1670604 6.4081445 -0.39940256 0.96757144
-5.0040331 6.5355077 -0.39937335 0.9675737
-4.753623 6.7187204 -0.3993285 0.96757728
-4.6686425 6.7776852 -0.39931327 0.96757841
-4.4093456 6.947998 -0.39926681 0.96758223
-4.3215332 7.0025682 -0.3992511 0.96758348
-4.2330174 7.0560446 -0.39923522 0.96758479
-4.1438475 7.108408 -0.39921924 0.96758604
-4.0540333 7.1596289 -0.39920318 0.96758729
-3.9635644 7.2097068 -0.399187 0.96758866
-3.8725097 7.2586522 -0.39917067 0.96758991
-3.5957129 7.3985152 -0.39912117 0.96759397
-3.5023339 7.442822 -0.39910445 0.96759522
-3.1233983 7.6080856 -0.39903662 0.9676007
-3.0274315 7.6464157 -0.39901945 0.96760201
-2.8340623 7.7194238 -0.39898491 0.96760476
-2.7367187 7.7540722 -0.3989675 0.96760619
-2.5407813 7.8197069 -0.39893249 0.96760899
-2.4422166 7.8506737 -0.39891487 0.96761036
-2.2439454 7.9088669 -0.39887938 0.96761322
-2.1442969 7.9360938 -0.39886162 0.96761459
-2.0443163 7.9620605 -0.39884371 0.96761602
-1.9440136 7.9867382 -0.39882582 0.96761751
-1.8434179 8.0101757 -0.39880782 0.96761894
-1.5399902 8.0728712 -0.39875361 0.96762329
-1.4383594 8.0912104 -0.39873546 0.96762472
-1.3365039 8.1083002 -0.39871725 0.96762609
-1.0298145 8.1517773 -0.39866251 0.96763057
-0.92724609 8.1636915 -0.39864418 0.96763206
-0.82458007 8.1743259 -0.39862585 0.96763349
-0.51582032 8.1984863 -0.39857075 0.96763778
-0.30958006 8.2080755 -0.39853394 0.96764082
-0.20640625 8.2109566 -0.39851555 0.96764225
0.11047851 8.789629 -0.42649925 0.96540976
0.51945311 10.325801 -0.50163466 0.95944136
0.64915037 10.317988 -0.50161153 0.95944315
0.77872068 10.308516 -0.5015884 0.95944506
1.1665332 10.270459 -0.50151926 0.95945042
1.2954491 10.254512 -0.50149626 0.95945227
1.424121 10.236943 -0.50147337 0.95945418
1.5525781 10.217753 -0.50145042 0.95945603
1.6807715 10.196982 -0.50142759 0.95945781
1.8086914 10.1746 -0.50140476 0.9594596
1.9363281 10.150625 -0.50138199 0.95946133
2.0636327 10.125019 -0.50135934 0.95946318
2.5692871 10.006758 -0.50126928 0.95947027
2.6947069 9.9732323 -0.50124687 0.95947206
3.1918359 9.8235054 -0.50115836 0.95947909
3.3149023 9.7821779 -0.50113648 0.95948082
3.437412 9.7393456 -0.50111467 0.95948249
3.8015332 9.6016016 -0.50104982 0.95948774
4.3959861 9.342021 -0.50094402 0.95949602
4.6289845 9.2278223 -0.50090253 0.95949936
5.0859766 8.9821291 -0.50082129 0.95950574
5.1982422 8.9171381 -0.50080132 0.95950735
5.4202638 8.7830267 -0.50076187 0.95951039
5.5299802 8.7138577 -0.50074232 0.95951205
5.6388183 8.6433296 -0.500723 0.9595136
5.7467675 8.5714846 -0.50070381 0.95951509
5.9599023 8.4237404 -0.5006659 0.95951802
6.0650582 8.3478317 -0.50064725 0.95951962
6.1692677 8.2706738 -0.50062871 0.959521
6.2724414 8.1921778 -0.50061041 0.9595226
6.5760641 7.9490819 -0.50055653 0.95952684
6.6751852 7.8655562 -0.50053889 0.95952821
6.773252 7.7807908 -0.50052148 0.95952958
6.8702636 7.6947947 -0.50050431 0.95953095
6.9661617 7.6075878 -0.50048727 0.95953238
7.2472458 7.3389158 -0.50043738 0.95953619
7.6058688 6.9646192 -0.50037378 0.95954126
7.7779784 6.7708688 -0.50034332 0.95954376
7.8622656 6.6724024 -0.50032836 0.95954478
7.9452343 6.5728707 -0.5003137 0.95954603
8.107461 6.3707714 -0.50028497 0.95954823
8.1866407 6.2682223 -0.5002709 0.95954937
1.260498 0.91580075 -0.075595737 0.99377984
1.260625 0.89190429 -0.074925646 0.99383485
1.2608887 0.84535152 -0.073654287 0.9939391
1.2610157 0.82266599 -0.073051564 0.99398851
1.2614257 0.73535156 -0.070844457 0.99416971
1.2615234 0.71432614 -0.070340231 0.99421108
1.2913867 0.70995116 -0.071501881 0.99411577
1.3307421 0.70995116 -0.073180467 0.99397796
1.3719629 0.70995116 -0.074951783 0.99383277
1.4152734 0.70994139 -0.076823421 0.99367917
1.460791 0.70995116 -0.078803673 0.99351674
1.5087206 0.70994139 -0.08090198 0.99334478
1.5592871 0.70995116 -0.083128281 0.99316221
1.6692871 0.70994139 -0.088013917 0.99276185
1.7931347 0.70995116 -0.093572535 0.99230641
1.8611034 0.70995116 -0.096647754 0.9920547
1.9337499 0.70996094 -0.099947847 0.99178439
2.022871 0.65727538 -0.10320045 0.99151826
9.9804878 2.5625682 -0.49995479 0.95957446
10.011786 2.4369335 -0.49994934 0.95957494
10.041523 2.3108983 -0.49994415 0.9595753
10.069677 2.1845117 -0.49993926 0.95957565
10.09625 2.0578027 -0.49993464 0.95957595
10.144589 1.8033886 -0.4999263 0.95957673
10.186563 1.5478613 -0.49991909 0.95957726
10.25124 1.0340527 -0.49990809 0.95957816
10.263379 0.90514648 -0.49990606 0.95957834
10.273896 0.77611327 -0.4999043 0.95957851
10.282822 0.64694333 -0.49990287 0.95957857
10.299853 0.25892577 -0.49990022 0.95957875
10.302295 -0.12947266 -0.49990022 0.95957875
10.295791 -0.38831055 -0.49990165 0.95957869
10.290107 -0.51766598 -0.49990281 0.95957869
10.273954 -0.77609372 -0.49990594 0.95957828
10.237539 -1.1628125 -0.49991286 0.95957774
10.205215 -1.4197069 -0.49991894 0.95957726
10.166455 -1.6757421 -0.49992609 0.95957673
10.144677 -1.8033984 -0.49993014 0.95957637
10.121318 -1.9307519 -0.49993446 0.95957595
10.069726 -2.1845214 -0.49994391 0.95957547
10.041621 -2.3109081 -0.49994907 0.95957494
9.9806051 -2.5625682 -0.49996021 0.95957404
9.9477148 -2.6878319 -0.49996623 0.95957363
9.8772945 -2.9370313 -0.49997905 0.95957255
2.0232129 -0.71406251 -0.1040995 0.99144459
1.9337305 -0.70995116 -0.099947467 0.99178451
1.6692871 -0.70995116 -0.088013798 0.99276185
1.612705 -0.70995116 -0.085494079 0.99296832
1.5087109 -0.70994139 -0.08090122 0.99334478
1.4607812 -0.70993161 -0.078803286 0.99351686
1.2913867 -0.70995116 -0.071501426 0.99411577
1.2611035 -0.80032223 -0.072470017 0.99403638
1.2610157 -0.82265621 -0.073051639 0.99398851
1.2608691 -0.84536129 -0.073654443 0.99393916
1.2607617 -0.86843747 -0.074278757 0.9938879
1.2603515 -0.94011718 -0.076290168 0.99372298
6.5047069 -4.9804296 -0.39749321 0.96772408
6.4418259 -5.0619431 -0.39750448 0.96772301
6.377871 -5.1426172 -0.39751601 0.96772224
6.3129392 -5.2225294 -0.39752764 0.96772122
6.2470016 -5.3015919 -0.39753953 0.96772027
5.9734764 -5.6094823 -0.39758864 0.96771634
5.9026952 -5.6842871 -0.39760134 0.96771532
5.830996 -5.7581835 -0.39761424 0.96771431
5.758379 -5.8312011 -0.39762726 0.96771324
5.6848435 -5.9033203 -0.39764044 0.9677121
5.6103711 -5.9744725 -0.39765379 0.96771115
5.3817868 -6.1823144 -0.39769486 0.96770781
5.3038669 -6.2496581 -0.3977088 0.96770674
5.2250876 -6.3160644 -0.39772293 0.96770555
5.1455078 -6.3814454 -0.39773718 0.96770442
3.0668457 -3.9029002 -0.24083528 0.98031819
4.8190722 -6.6328807 -0.39779571 0.96769983
4.7355075 -6.6931739 -0.3978107 0.96769863
4.6512012 -6.7524118 -0.39782581 0.96769738
4.5661621 -6.810586 -0.39784104 0.96769619
4.4804101 -6.8676758 -0.39785638 0.967695
4.3939257 -6.9237008 -0.39787188 0.96769375
4.2188673 -7.0325098 -0.39790323 0.96769118
4.0411229 -7.1368747 -0.39793506 0.96768868
3.9512694 -7.1873631 -0.39795113 0.96768749
3.4929101 -7.422832 -0.39803317 0.96768081
3.399492 -7.4664645 -0.39804992 0.9676795
3.3055468 -7.5088964 -0.3980667 0.96767819
3.2110546 -7.5501561 -0.3980836 0.96767688
1.5974902 -3.8912206 -0.20409144 0.9832958
1.4920508 -3.9114063 -0.20311759 0.98337477
2.73125 -7.7385545 -0.39816943 0.96766996
2.6281445 -7.7556052 -0.39731565 0.96773815
2.5200195 -7.7558298 -0.39567253 0.96786928
2.4127538 -7.7559958 -0.39410368 0.96799469
2.2006054 -7.7561426 -0.39117691 0.96822858
1.8878125 -7.7559276 -0.38729876 0.96853852
1.7848339 -7.7557421 -0.38613904 0.96863121
1.6824609 -7.7554784 -0.38504389 0.96871889
1.5806249 -7.7551951 -0.3840127 0.96880126
1.4792968 -7.7548046 -0.38304368 0.96887887
1.1781152 -7.7533884 -0.38050807 0.96908164
1.0785351 -7.7528124 -0.37978309 0.96913952
0.97930664 -7.7521677 -0.3791205 0.96919262
0.78179687 -7.750742 -0.37796921 0.96928465
0.68347657 -7.7499313 -0.37748191 0.96932369
0.58537108 -7.7490821 -0.37705198 0.96935809
0.38970703 -7.7472067 -0.37636459 0.96941304
-1.953125e-05 -3.883867 -0.18844287 0.98456657
-0.31990233 -8.4814358 -0.41180447 0.96658134
-0.42646483 -8.4771242 -0.41182345 0.96657991
-0.74578124 -8.4562063 -0.41188043 0.96657532
-0.85203123 -8.4465523 -0.41189936 0.96657383
-0.958125 -8.4355659 -0.41191828 0.96657228
-1.0641016 -8.4232225 -0.41193718 0.96657091
-1.1699121 -8.4095898 -0.41195604 0.9665693
-1.2755859 -8.394599 -0.41197491 0.96656781
-1.8005567 -8.2998047 -0.41206849 0.96656048
-1.9048046 -8.2769089 -0.41208705 0.96655893
-2.1124022 -8.2272024 -0.41212401 0.96655583
-2.3186719 -8.172226 -0.41216081 0.96655297
-2.523535 -8.1120844 -0.41219726 0.96655011
-2.6253808 -8.0800781 -0.41221541 0.96654874
-3.1248047 -7.6114745 -0.39921421 0.96758652
-3.3153808 -7.5311913 -0.39924812 0.96758372
-3.4099023 -7.4892578 -0.39926493 0.96758235
-3.5973241 -7.4018259 -0.39929828 0.96757972
-3.6902149 -7.356318 -0.39931479 0.96757847
-3.7825193 -7.3096676 -0.39933124 0.9675771
-4.1457028 -7.1115427 -0.39939582 0.96757191
-4.2348633 -7.0591698 -0.39941168 0.96757072
-4.498457 -6.8953223 -0.39945853 0.96756703
-4.5849414 -6.8385544 -0.39947391 0.96756566
-4.8399706 -6.6616306 -0.39951923 0.96756208
-4.9234667 -6.6005173 -0.39953408 0.96756095
-5.0061913 -6.5383692 -0.39954874 0.96755981
-5.0881639 -6.4751949 -0.39956331 0.96755856
-5.1693163 -6.4109859 -0.39957771 0.96755737
-5.4078512 -6.2122459 -0.39962009 0.96755403
-5.4856739 -6.1440039 -0.39963388 0.96755296
-5.5626364 -6.0748048 -0.39964756 0.96755183
-5.6387305 -6.0046091 -0.39966106 0.96755081
-5.9341016 -5.7144823 -0.39971343 0.96754652
-1.0301952 -0.94333982 -0.067775153 0.99442166
-1.0305176 -0.89706051 -0.06629017 0.99454343
-1.0306543 -0.87464839 -0.065586738 0.99460125
-1.030791 -0.85272461 -0.064908102 0.99465686
-1.0309082 -0.83124024 -0.064253502 0.99471068
-1.0311426 -0.78950197 -0.063012049 0.99481267
-1.0315039 -0.72978514 -0.061307181 0.99495262
-1.0316113 -0.71058589 -0.060777854 0.99499601
-1.1504296 -0.70995116 -0.065589748 0.99460083
-1.1834375 -0.70994139 -0.066958427 0.99448854
-1.3307421 -0.70993161 -0.073180079 0.99397802
-1.3719727 -0.70995116 -0.074951358 0.99383271
-1.460791 -0.70994139 -0.078803137 0.9935168
-1.5087402 -0.70994139 -0.080901414 0.99334466
-1.5593066 -0.70995116 -0.08312805 0.99316216
-1.6693066 -0.70995116 -0.088013381 0.99276179
-1.7293164 -0.70995116 -0.09070076 0.99254167
-9.909111 -3.0825489 -0.50350976 0.95929289
-9.9472065 -2.9578221 -0.50351638 0.95929229
-10.018661 -2.7069824 -0.50352889 0.95929128
-10.142412 -2.2002733 -0.50355041 0.95928973
-10.169374 -2.0726757 -0.50355512 0.95928925
-10.194716 -1.9447362 -0.50355947 0.9592889
-10.218418 -1.8165039 -0.50356358 0.9592886
-10.240518 -1.6879492 -0.5035674 0.9592883
-10.261015 -1.5591503 -0.50357091 0.95928794
-10.297071 -1.3008202 -0.50357705 0.95928746
-10.312646 -1.1713183 -0.50357968 0.95928729
-10.326572 -1.0416309 -0.503582 0.95928723
-10.338925 -0.91179687 -0.50358415 0.95928693
-10.349609 -0.78182614 -0.50358588 0.95928675
-10.371806 -0.39118162 -0.50358945 0.95928645
-10.375889 -0.26081055 -0.50358999 0.95928651
-10.37834 -0.13041992 -0.50359029 0.95928651
-9.8152828 -0 -0.50348973 0.96144998
-9.8145018 0.12334961 -0.50348943 0.96144998
-9.8028221 0.49315429 -0.50348699 0.96145022
-9.7771578 0.86227536 -0.50348198 0.96145064
-9.7523041 1.1076856 -0.50347728 0.96145099
-9.7212982 1.3524023 -0.50347149 0.96145135
-9.703476 1.4744433 -0.50346822 0.96145159
-9.6632318 1.7178026 -0.50346076 0.96145213
-9.5643263 2.2010741 -0.50344259 0.96145362
-9.5358496 2.3210645 -0.5034374 0.96145391
-9.5058107 2.4406738 -0.50343186 0.96145439
-9.474267 2.559912 -0.50342613 0.96145487
-9.4412403 2.6787403 -0.50342011 0.96145529
-9.4067478 2.7971191 -0.50341386 0.96145564
-9.3706932 2.9150782 -0.5034073 0.9614563
-9.3332319 3.0325584 -0.50340044 0.96145666
-1.7869531 0.68166012 -0.098106652 0.992369
-1.6693066 0.70995116 -0.093051679 0.99276078
-1.460791 0.70996094 -0.083314396 0.99351585
-1.3307323 0.70995116 -0.077369191 0.99397719
-1.2178711 0.70994139 -0.072312124 0.99436975
-1.1504102 0.70995116 -0.069344521 0.99460018
-1.0882519 0.70995116 -0.066651382 0.99480927
-1.0309277 0.71013671 -0.064214326 0.99499857
-1.0308105 0.72932613 -0.064772986 0.99495518
-1.0307031 0.74884766 -0.065351866 0.99491024
-1.0305761 0.76873046 -0.065951802 0.99486369
-1.0300878 0.85213864 -0.068575136 0.99465978
-1.0299219 0.8740527 -0.06929142 0.99460423
-1.0297754 0.89642578 -0.070033796 0.99454659
-1.0296093 0.91928709 -0.070803523 0.99448687
-5.6771483 5.3311911 -0.39949474 0.96928883
-5.60957 5.4019532 -0.39948261 0.96928966
-5.4716892 5.5408788 -0.39945784 0.96929157
-5.2584863 5.7426267 -0.39941958 0.96929437
-5.1857028 5.8080468 -0.39940655 0.9692955
-5.1121678 5.8725681 -0.39939335 0.9692964
-4.9626365 5.9987693 -0.39936653 0.96929848
-4.8867087 6.0604687 -0.39935291 0.96929944
-4.7325196 6.1809082 -0.39932528 0.96930164
-4.5753708 6.297451 -0.39929715 0.96930373
-4.4957228 6.3542285 -0.39928287 0.9693048
-4.4153514 6.4099803 -0.39926845 0.96930593
-4.2525878 6.5184374 -0.39923927 0.96930808
-4.1701756 6.5711327 -0.39922455 0.96930915
-3.8341601 6.771328 -0.39916435 0.9693138
-3.6624999 6.8650293 -0.39913362 0.96931607
-3.4007812 6.9973826 -0.3990868 0.96931952
-3.3124413 7.0392675 -0.39907095 0.96932077
-3.2235937 7.0800486 -0.39905509 0.96932203
-2.8633008 7.2318945 -0.39899063 0.96932697
-2.7721093 7.2670312 -0.39897433 0.96932811
-2.5884082 7.3337889 -0.39894149 0.96933061
-2.4030762 7.3958983 -0.39890835 0.96933311
-2.3098536 7.4251852 -0.39889166 0.96933448
-2.2162695 7.45333 -0.39887497 0.96933568
-2.1223633 7.4802732 -0.39885819 0.96933693
-2.0281055 7.5060449 -0.39884132 0.96933818
-1.7435449 7.5761619 -0.39879048 0.96934211
-1.5524707 7.6169529 -0.39875633 0.96934462
-1.2641015 7.6690722 -0.39870483 0.96934849
-1.1675879 7.6839843 -0.39868757 0.96934992
-0.97405273 7.7102537 -0.39865303 0.96935242
-0.87705076 7.7215624 -0.39863572 0.96935368
-0.68267578 7.740459 -0.398601 0.96935642
-0.58532226 7.748086 -0.39858359 0.96935779
-0.29282227 7.7636619 -0.39853141 0.9693616
-0.10246094 8.1518354 -0.41819409 0.96787453
0.10987304 8.7427053 -0.44850534 0.96558654
0.73657227 9.750576 -0.50159651 0.9615922
0.85899413 9.7401171 -0.5015747 0.96159387
0.98128903 9.7281542 -0.50155288 0.96159542
1.2253125 9.6995697 -0.50150937 0.96159869
1.3470606 9.6829977 -0.50148767 0.9616003
1.4685839 9.6648922 -0.50146604 0.96160191
1.5898438 9.6452436 -0.5014444 0.96160358
1.9519922 9.5772362 -0.50137985 0.96160841
2.0720994 9.5515528 -0.50135845 0.96161002
2.4303124 9.4654684 -0.50129461 0.96161479
2.6671875 9.4005861 -0.50125241 0.96161807
2.9023535 9.3298244 -0.50121057 0.96162111
3.0192382 9.2922363 -0.50118971 0.96162266
3.1356053 9.2531643 -0.50116903 0.96162432
3.2515039 9.212656 -0.50114834 0.96162587
3.3668847 9.170722 -0.50112778 0.9616273
3.5959864 9.0824709 -0.50108701 0.96163034
3.9352734 8.9393845 -0.50102663 0.96163499
4.0471482 8.8889065 -0.50100672 0.96163636
4.3787498 8.7289839 -0.50094777 0.96164095
4.4879489 8.6729584 -0.50092828 0.96164232
4.5963964 8.6155462 -0.50090903 0.96164376
4.7041111 8.556777 -0.5008899 0.96164525
4.8110838 8.4966698 -0.50087082 0.96164662
4.9172754 8.435215 -0.50085199 0.96164811
5.1273336 8.3083687 -0.50081462 0.96165085
5.6378903 7.968574 -0.50072384 0.96165764
5.7373438 7.8967967 -0.5007062 0.96165913
5.8359179 7.8238182 -0.50068867 0.96166044
5.9335938 7.749609 -0.50067133 0.96166164
6.030293 7.67415 -0.50065416 0.96166301
6.1260252 7.5975094 -0.50063717 0.96166432
6.407402 7.3604879 -0.50058722 0.96166801
6.589941 7.1966891 -0.50055486 0.96167034
6.768281 7.0283689 -0.50052315 0.96167272
6.9423141 6.8556347 -0.50049233 0.96167517
7.1119919 6.6786132 -0.50046223 0.96167731
7.1951466 6.5885253 -0.50044751 0.96167845
7.3580074 6.4052439 -0.5004186 0.96168065
7.5162597 6.217988 -0.50039059 0.96168262
7.593545 6.1228514 -0.50037688 0.96168387
7.6697168 6.0267968 -0.50036341 0.96168476
1.2596191 0.91518551 -0.079868846 0.9937833
1.2599218 0.86787105 -0.078478545 0.99389106
1.2603027 0.79981446 -0.076568604 0.9940393
1.2604004 0.77783203 -0.075975992 0.99408543
1.2606152 0.73489255 -0.074852102 0.99417263
1.2913867 0.70995116 -0.075594828 0.99411494
1.3307421 0.70995116 -0.077369459 0.99397719
1.3719629 0.70995116 -0.079241939 0.99383187
1.4152734 0.70994139 -0.081220701 0.99367833
1.460791 0.70995116 -0.083314322 0.99351585
1.5087206 0.70994139 -0.085532643 0.99334383
1.5592871 0.70995116 -0.087886728 0.99316126
1.7293164 0.70996094 -0.095892943 0.9925406
1.9337499 0.70996094 -0.10566913 0.99178326
2.0241992 0.71442384 -0.1101125 0.99143928
2.0241895 0.65770507 -0.10917919 0.99151158
9.3441992 2.7785351 -0.50006807 0.96170694
9.41084 2.5427735 -0.50005645 0.96170789
9.4715815 2.3054297 -0.50004584 0.96170861
9.5263577 2.0666406 -0.50003636 0.96170932
9.5972261 1.7060742 -0.50002408 0.96171027
9.6369429 1.4643555 -0.50001723 0.96171075
9.6851263 1.1000586 -0.500009 0.96171141
9.6981249 0.97826171 -0.50000685 0.96171165
9.709609 0.85633785 -0.50000489 0.96171182
9.7196283 0.73423827 -0.50000328 0.9617117
9.7280464 0.612041 -0.50000191 0.96171188
9.7349215 0.48974609 -0.50000077 0.96171206
9.7464352 0.12248047 -0.49999914 0.96171218
9.7472267 1.953125e-05 -0.49999914 0.96171206
9.7464352 -0.12249023 -0.49999937 0.96171218
9.7441406 -0.2449414 -0.49999994 0.96171212
9.7403021 -0.36738279 -0.50000077 0.96171206
9.7349415 -0.48972654 -0.50000185 0.961712
9.7280664 -0.61203122 -0.50000322 0.96171176
9.7196093 -0.73422849 -0.50000483 0.96171176
9.6851654 -1.1000586 -0.50001138 0.96171129
9.6706448 -1.2216797 -0.50001413 0.96171099
9.637002 -1.4643457 -0.50002038 0.96171057
9.6179199 -1.585332 -0.5000239 0.96171027
9.5264158 -2.0666504 -0.50004071 0.96170908
9.4420309 -2.4242871 -0.50005621 0.96170801
9.3783588 -2.6608789 -0.50006777 0.96170706
9.3087301 -2.8957911 -0.50008047 0.96170622
2.024209 -0.65770507 -0.10917923 0.99151152
2.0242188 -0.68594724 -0.10963512 0.99147618
2.0241895 -0.71443355 -0.11011276 0.99143928
1.9337305 -0.70995116 -0.10566822 0.99178338
1.7292968 -0.70994139 -0.09589199 0.99254072
1.612705 -0.70995116 -0.09038803 0.99296737
1.5592577 -0.70994139 -0.087886125 0.99316138
1.5087109 -0.70994139 -0.085532188 0.99334389
1.4607812 -0.70993161 -0.083314091 0.99351597
1.3719434 -0.70994139 -0.079241633 0.99383199
1.3307323 -0.70995116 -0.07736896 0.99397719
1.260537 -0.75620115 -0.075404048 0.99412972
1.2600487 -0.84480464 -0.077819362 0.99394226
1.2599024 -0.86786133 -0.078478545 0.99389118
1.2596387 -0.91517574 -0.079869196 0.99378324
6.0940037 -4.7886133 -0.39756626 0.96943474
6.0335059 -4.8649511 -0.39757714 0.96943396
5.9720702 -4.9405174 -0.39758819 0.96943307
5.9096775 -5.0153122 -0.3975994 0.96943223
4.4688282 -3.99 -0.30731237 0.97629058
5.7169433 -5.2349415 -0.397634 0.96942967
5.5160742 -5.4471874 -0.39767009 0.96942693
5.4473729 -5.5162497 -0.3976824 0.96942592
5.0910544 -5.8483396 -0.39774635 0.96942121
5.0173535 -5.9120603 -0.39775956 0.96942008
4.8675194 -6.0366893 -0.39778644 0.96941805
3.0023241 -3.9212108 -0.25333413 0.98041397
2.9664941 -3.9769824 -0.25450924 0.98032403
4.5586815 -6.2744823 -0.39784178 0.969414
4.4796581 -6.331533 -0.39785597 0.96941274
4.3998828 -6.3875294 -0.39787024 0.96941179
4.2382712 -6.4965625 -0.39789921 0.96940958
4.156455 -6.5495214 -0.39791384 0.96940857
3.9908397 -6.6524315 -0.39794353 0.96940625
3.9070897 -6.7022948 -0.39795852 0.96940511
3.8226953 -6.751123 -0.39797363 0.96940398
3.7377245 -6.7988768 -0.39798886 0.96940279
3.6521289 -6.8455954 -0.39800417 0.9694016
3.4792285 -6.9357324 -0.39803511 0.96939927
3.3040526 -7.021533 -0.39806646 0.96939695
1.5974902 -3.8912206 -0.21577346 0.98329353
1.5378516 -3.8841894 -0.21429515 0.98340702
1.4920508 -3.9114063 -0.21474405 0.98337245
2.6752148 -7.2867088 -0.39817894 0.96938843
2.5835352 -7.3200583 -0.39819533 0.96938717
2.4914746 -7.3522458 -0.39821181 0.96938586
2.3989649 -7.3832812 -0.39822832 0.96938467
2.3060937 -7.4131637 -0.39824492 0.96938336
1.9310449 -7.5209374 -0.398312 0.96937829
1.741582 -7.5677342 -0.39834583 0.96937567
1.4552929 -7.6289549 -0.39839697 0.96937191
1.3593554 -7.6469727 -0.39841411 0.9693706
1.1668555 -7.6793847 -0.39844847 0.96936798
