# .PCD v0.7 - Point Cloud Data file format
VERSION 0.7
FIELDS x y z intensity
SIZE 4 4 4 4
TYPE F F F F
COUNT 1 1 1 1
WIDTH 1082
HEIGHT 1
VIEWPOINT 0 0 0 1 0 0 0
POINTS 1082
DATA ascii
5.7278614 16.228985 -0.50076222 0.93344837
6.1330371 16.077684 -0.50069481 0.93345731
6.534277 15.916406 -0.50062811 0.93346566
6.9312792 15.745097 -0.50056213 0.93347418
7.5183592 15.469716 -0.50046456 0.9334864
7.7116113 15.372939 -0.50043243 0.93349093
7.9037008 15.273887 -0.50040054 0.93349487
8.2182417 14.948936 -0.49636391 0.93401295
8.2131252 14.504853 -0.48501089 0.93547291
8.1952534 12.913681 -0.44502848 0.94063097
8.1961908 11.584482 -0.41290823 0.94479519
8.1999998 11.286328 -0.40592143 0.94570339
8.2997952 10.84001 -0.39724937 0.94683224
8.7007132 10.517373 -0.39716965 0.94684261
8.831562 10.406485 -0.39714244 0.94684625
8.9610443 10.293984 -0.39711556 0.9468497
9.4644823 9.8282032 -0.39701179 0.94686311
9.5866308 9.7078609 -0.39698708 0.94686645
9.826396 9.4627438 -0.39693859 0.94687259
9.9438868 9.3379297 -0.39691487 0.94687593
10.059882 9.2117481 -0.39689234 0.94687873
10.287061 8.9550295 -0.3968493 0.94688445
10.615664 8.5596485 -0.39678758 0.94689226
1.2666113 0.87248045 -0.044752233 0.99386418
1.2667675 0.82643551 -0.044009473 0.99396569
1.2668359 0.8039453 -0.043657377 0.99401385
1.266914 0.78183591 -0.043317605 0.99406022
1.2669824 0.76007813 -0.042990111 0.99410498
1.2670214 0.73861325 -0.042673875 0.99414831
1.2913867 0.70994139 -0.042879637 0.99412018
1.3719629 0.70996094 -0.044948425 0.99383736
1.4152637 0.70994139 -0.046070747 0.99368393
1.5087011 0.70994139 -0.048516922 0.99334979
1.5592871 0.70994139 -0.04985195 0.99316734
1.6127245 0.70995116 -0.051271245 0.99297351
1.6692871 0.70995116 -0.052782018 0.99276727
1.7293164 0.70995116 -0.05439331 0.99254721
1.7931151 0.70994139 -0.056115378 0.99231225
2.0082519 0.70878905 -0.061966818 0.99151397
2.0081346 0.680498 -0.061695252 0.9915511
14.608438 4.1448045 -0.44183874 0.9410435
15.285107 4.1299706 -0.46069941 0.93860579
16.757568 3.6353807 -0.49893683 0.9336828
16.95166 2.5758104 -0.49890563 0.93368703
17.010693 2.1489453 -0.49889624 0.93368834
17.059111 1.7207714 -0.49888861 0.93368912
17.079248 1.50625 -0.49888548 0.93368965
17.111563 1.0765625 -0.49888057 0.93369019
17.123671 0.86145508 -0.49887878 0.93369043
17.133104 0.64621091 -0.49887744 0.93369061
17.139784 0.43085936 -0.49887657 0.93369091
17.143827 0.21543945 -0.49887609 0.93369097
17.143837 -0.21544921 -0.49887657 0.93369097
17.139874 -0.43086913 -0.49887744 0.93369061
17.11165 -1.0765625 -0.49888286 0.93368983
17.096827 -1.2915137 -0.49888551 0.93368965
17.010878 -2.1489747 -0.49890077 0.93368763
16.982685 -2.3625977 -0.49890572 0.93368703
16.951874 -2.5758398 -0.49891108 0.9336862
16.843359 -3.2130468 -0.49892986 0.93368387
16.801905 -3.4245117 -0.49893698 0.93368292
16.757763 -3.6354198 -0.49894458 0.93368208
16.711035 -3.8457713 -0.4989526 0.93368101
13.705224 -3.8885252 -0.4145208 0.94458568
13.086894 -3.8914452 -0.39726698 0.9468298
13.011074 -4.0475292 -0.39647982 0.94693249
1.9337305 -0.70994139 -0.059938584 0.99179065
1.8611132 -0.70995116 -0.057959288 0.9920606
1.7292968 -0.70995116 -0.054392852 0.99254733
1.6692675 -0.70995116 -0.052781753 0.99276733
1.612705 -0.70995116 -0.051270675 0.99297357
1.5592577 -0.70995116 -0.049851876 0.99316746
1.4607812 -0.70994139 -0.047258034 0.99352169
1.3719531 -0.70995116 -0.04494831 0.99383742
1.267041 -0.73862302 -0.042673796 0.99414825
1.2669042 -0.78186524 -0.043317679 0.99406022
1.2667773 -0.82642579 -0.044009399 0.99396569
1.2666992 -0.84925777 -0.04437435 0.9939158
1.2666211 -0.87248045 -0.04475208 0.99386418
1.2665234 -0.8961035 -0.045143891 0.99381071
1.2664648 -0.92014647 -0.045549657 0.99375516
1.2663672 -0.94461912 -0.045969695 0.99369776
11.076621 -8.7039547 -0.40989712 0.94518667
10.742158 -9.1164742 -0.4099533 0.94517946
10.627304 -9.2512302 -0.40997261 0.94517672
10.392441 -9.5162544 -0.41001201 0.94517171
7.9426465 -8.2478657 -0.33317542 0.95521271
7.3571582 -8.2401028 -0.32142237 0.95675778
3.4777441 -3.9950585 -0.1541196 0.97902721
3.3864648 -3.9903612 -0.15228409 0.97927433
3.3007226 -3.989912 -0.15067169 0.97949147
3.2194629 -3.9927733 -0.14923996 0.97968429
6.3636522 -8.3112841 -0.30457929 0.95897657
6.2590623 -8.3910646 -0.30459681 0.9589743
6.1534762 -8.4695501 -0.30461448 0.95897198
5.49999 -8.9122066 -0.30472392 0.95895749
2.1209276 -3.9754589 -0.13110664 0.98213059
2.056035 -3.9732518 -0.13017166 0.98225689
1.9952246 -3.9773924 -0.12947525 0.98235095
4.5800781 -9.4239407 -0.30487782 0.95893729
4.3423924 -9.537344 -0.30491754 0.95893186
1.6286426 -3.9671385 -0.12478042 0.98298544
3.6130664 -9.8412542 -0.30503947 0.95891589
3.4893358 -9.8865328 -0.30506015 0.95891327
3.3650584 -9.9302826 -0.30508092 0.95891047
1.2685937 -3.9042871 -0.11944962 0.98370641
1.1199707 -3.9473534 -0.11939006 0.98371446
2.7358594 -10.125488 -0.30518603 0.95889652
2.4808886 -10.192431 -0.30522862 0.95889103
2.0953906 -10.280879 -0.30529296 0.95888251
1.9661914 -10.307109 -0.30531457 0.95887971
0.65140623 -3.9520018 -0.11654316 0.98409969
0.60130858 -3.9573729 -0.1164698 0.98410964
1.1602734 -9.1845312 -0.26936767 0.96363199
0.93289059 -8.213315 -0.24052007 0.9674626
0.82833982 -8.2119284 -0.24015512 0.96751112
0.72568357 -8.2285643 -0.24035604 0.96748441
0.62146485 -8.2271872 -0.24006809 0.96752262
0.51751953 -8.2258005 -0.23981857 0.96755576
0.14902343 -3.9509082 -0.11504146 0.98430294
0.1046875 -8.3317776 -0.24244748 0.96720594
-0.13437499 -10.693496 -0.31117329 0.95810735
-0.19846679 -3.9451854 -0.11494 0.98431689
-0.24382812 -3.8751464 -0.11297786 0.9845823
-0.29181641 -3.8629394 -0.11272094 0.98461717
-1.4210352 -14.087617 -0.41198635 0.94491494
-1.5980663 -14.069629 -0.41201591 0.94491118
-1.9514258 -14.027084 -0.41207471 0.94490331
-2.3036523 -13.975571 -0.41213337 0.9448958
-2.6544726 -13.915195 -0.41219181 0.94488841
-3.0037498 -13.846084 -0.41224998 0.94488072
-3.1777344 -13.808203 -0.41227892 0.94487697
-3.3512304 -13.768129 -0.4123078 0.94487327
-3.5242186 -13.725923 -0.41233662 0.9448694
-4.4436131 -13.675913 -0.41840029 0.94408107
-4.7719431 -13.520483 -0.41718537 0.94423914
-5.0955467 -13.357832 -0.41598913 0.94439471
-5.588623 -13.140439 -0.41549507 0.9444598
-5.7536912 -13.069975 -0.41552252 0.94445646
-6.5651169 -12.68704 -0.41565737 0.94443893
-6.8827538 -12.519649 -0.41570774 0.94443202
-7.3511229 -12.253662 -0.41578797 0.94442177
-7.5049901 -12.161059 -0.41581351 0.94441849
-7.8091598 -11.970049 -0.41586402 0.94441205
-7.9594531 -11.871694 -0.41588897 0.94440871
-8.1084862 -11.771484 -0.41591373 0.94440538
-8.2562103 -11.669287 -0.41593826 0.94440252
-8.5478907 -11.459492 -0.41598663 0.94439602
-8.8341799 -11.242358 -0.41603172 0.94438982
-9.1149416 -11.018051 -0.41608068 0.94438368
-9.6590815 -10.548428 -0.41617092 0.94437212
-10.305058 -9.9236813 -0.41627795 0.94435805
-10.429414 -9.7938519 -0.41629854 0.94435561
-1.0355859 -0.94827145 -0.04085594 0.99439675
-1.0356641 -0.9246875 -0.040397871 0.99445945
-1.0357715 -0.9016211 -0.039956093 0.99451983
-1.0360156 -0.83534175 -0.038722608 0.99468857
-1.0360839 -0.81413084 -0.038340073 0.9947409
-1.0362207 -0.77292967 -0.037614554 0.9948402
-1.0362988 -0.75291014 -0.037270546 0.99488723
-1.0363672 -0.73323238 -0.036938589 0.99493265
-1.0589355 -0.70994139 -0.037094839 0.99491125
-1.0882422 -0.70995116 -0.037806433 0.99481392
-1.1187109 -0.70994139 -0.038552169 0.99471194
-1.15042 -0.70994139 -0.039334066 0.99460495
-1.1834277 -0.70995116 -0.040154915 0.99449271
-1.2178515 -0.70995116 -0.041017454 0.99437475
-1.2914063 -0.70995116 -0.042879295 0.99412012
-1.3307323 -0.70995116 -0.043885842 0.99398255
-1.3719727 -0.70994139 -0.044948272 0.99383736
-1.4152734 -0.70994139 -0.046070516 0.99368393
-1.460791 -0.70994139 -0.047258336 0.99352163
-1.5087304 -0.70996094 -0.048516311 0.99334967
-1.5592968 -0.70996094 -0.049851608 0.99316728
-1.6693066 -0.70994139 -0.052781411 0.99276721
-1.7801367 -0.70480466 -0.055708196 0.99236768
-1.7800878 -0.67904294 -0.055435102 0.99240494
-12.989873 -4.5846386 -0.40081513 0.94636774
-13.253525 -3.760371 -0.40085819 0.94636214
-13.30001 -3.5935936 -0.40086573 0.94636106
-13.714326 -3.5212402 -0.41198805 0.9449147
-14.405869 -3.5064452 -0.43140501 0.94239479
-16.082451 -3.4889061 -0.4788366 0.93626755
-17.034161 -3.2494335 -0.50457776 0.93295842
-17.110859 -2.82041 -0.50459003 0.93295681
-17.145079 -2.6051855 -0.50459558 0.93295634
-17.17663 -2.3895605 -0.50460052 0.93295574
-17.205429 -2.1735547 -0.50460511 0.93295521
-17.231592 -1.9571972 -0.50460929 0.93295443
-17.275537 -1.5235547 -0.50461614 0.93295366
-17.293388 -1.3063574 -0.50461888 0.93295342
-17.320908 -0.87137693 -0.504623 0.93295282
-17.341522 -0.21792968 -0.50462574 0.93295258
-15.826083 -0 -0.50437284 0.9386276
-15.824736 0.19887695 -0.50437242 0.93862796
-15.724375 1.7860156 -0.504354 0.93862987
-15.544179 2.9652147 -0.50432271 0.93863362
-15.505459 3.1602733 -0.50431603 0.93863451
-15.326152 3.9350879 -0.50428534 0.93863815
-15.275225 4.1273046 -0.50427663 0.93863922
-15.221846 4.3188281 -0.50426751 0.93864042
-13.849854 4.5000978 -0.46410796 0.94338578
-13.256435 4.4922071 -0.44607762 0.94552404
-1.7809081 0.65381837 -0.060460966 0.99243635
-1.7809863 0.70513672 -0.061046522 0.99236345
-1.6692969 0.70994139 -0.057811696 0.99276662
-1.6127343 0.70994139 -0.056157149 0.99297291
-1.5087402 0.70995116 -0.053140145 0.99334908
-1.4607812 0.70995116 -0.051762085 0.99352109
-1.4152734 0.70995116 -0.050461121 0.9936834
-1.3307323 0.70996094 -0.048068427 0.99398202
-1.2178711 0.70995116 -0.044926301 0.99437422
-1.1187011 0.70995116 -0.042226143 0.99471152
-1.0588964 0.70994139 -0.040630151 0.99491096
-1.0356739 0.73272461 -0.040431861 0.99493563
-1.0352832 0.83475584 -0.042383231 0.99469185
-1.035205 0.85636717 -0.042817 0.99463767
-1.0351074 0.87843746 -0.043266371 0.99458152
-1.0349902 0.90097654 -0.043732222 0.99452341
-1.0349121 0.92401367 -0.044215582 0.99446303
-1.0348243 0.94755858 -0.044716414 0.99440044
-8.9463081 8.4011135 -0.3911235 0.95207155
-8.5013866 8.3952045 -0.38077968 0.95330918
-8.0791502 8.3895998 -0.3711943 0.9544571
-7.294209 8.37918 -0.35405076 0.95651418
-7.1090136 8.3767185 -0.35014525 0.95698351
-6.9278417 8.3743162 -0.34637716 0.95743632
-6.7504978 8.371953 -0.34274414 0.95787328
-6.4065914 8.3673925 -0.33585671 0.95870203
-6.2397556 8.3651657 -0.33259392 0.95909488
-6.0760837 8.362998 -0.32944664 0.95947409
-5.7577243 8.358779 -0.32347515 0.96019369
-5.6028028 8.3567085 -0.32064593 0.96053499
-5.3007908 8.3526955 -0.31527996 0.96118253
-5.1535058 8.3507423 -0.31273699 0.9614895
-5.0085449 8.3488178 -0.31028312 0.96178585
-4.8658495 8.3469238 -0.30791542 0.96207172
-4.7252636 8.3450489 -0.3056314 0.96234769
-4.4501462 8.3414059 -0.30130649 0.96287066
-4.3154588 8.3396091 -0.29925874 0.9631182
-4.0513964 8.336113 -0.29538539 0.96358681
-3.8605957 8.7697554 -0.30537441 0.96237886
-3.8479881 9.7189159 -0.33313403 0.95902985
-3.8432519 10.075048 -0.34365806 0.95776325
-3.5689354 12.002354 -0.39906573 0.95112252
-3.4176269 12.045449 -0.39904049 0.95112568
-3.2657909 12.08667 -0.3990151 0.95112878
-3.1134472 12.125986 -0.39898968 0.95113176
-2.4995897 12.263974 -0.39888722 0.95114392
-2.1903222 12.321299 -0.3988356 0.95115018
-2.0351954 12.34706 -0.3988097 0.95115322
-1.8797851 12.37082 -0.39878374 0.95115644
-1.7240624 12.392735 -0.39875779 0.9511593
-1.5680957 12.412587 -0.39873177 0.95116246
-1.4119042 12.430469 -0.39870566 0.95116568
-1.2555078 12.446445 -0.39867958 0.95116872
-0.94219726 12.472441 -0.39862731 0.95117491
-0.78535157 12.48248 -0.39860117 0.95117801
-0.47133788 12.496601 -0.39854881 0.95118439
0.39555663 15.735624 -0.50165176 0.93894881
0.79075193 15.718661 -0.5015859 0.9389565
0.98816407 15.706416 -0.50155294 0.93896049
1.7755957 15.632852 -0.50142175 0.93897593
2.3630958 15.551846 -0.50132394 0.93898726
2.5581543 15.519893 -0.50129139 0.93899119
2.9470019 15.448671 -0.50122666 0.93899894
3.3338377 15.367783 -0.50116223 0.93900651
3.7185352 15.277148 -0.50109822 0.9390142
3.9099607 15.228311 -0.50106639 0.93901771
4.1007419 15.176963 -0.50103462 0.93902165
4.2908888 15.12332 -0.50100297 0.93902522
4.8568749 14.948008 -0.50090879 0.93903649
5.0440722 14.884902 -0.50087768 0.93904001
5.60041 14.681416 -0.50078511 0.93905127
5.784121 14.609072 -0.50075459 0.93905455
5.9668846 14.534365 -0.5007242 0.93905807
6.3295016 14.378105 -0.50066388 0.93906516
6.8657031 14.126806 -0.50057477 0.93907565
7.3919625 13.855566 -0.50048733 0.93908602
7.7369041 13.663847 -0.50043005 0.93909293
8.1979685 13.284003 -0.49749109 0.93943971
8.1937103 12.911181 -0.48734531 0.94063717
8.1895895 12.553232 -0.47768089 0.94177943
8.1856441 12.209121 -0.46846336 0.94287008
8.1846485 11.88206 -0.45982569 0.94389349
8.1915131 10.981757 -0.43662891 0.94664675
8.1952438 10.703466 -0.42962539 0.94747972
8.242383 9.7122164 -0.40596938 0.95029861
8.2729101 9.5035057 -0.40156028 0.95082504
8.3027735 9.2992086 -0.39730552 0.95133317
8.9755859 8.6434469 -0.39712614 0.95135468
9.083066 8.5295706 -0.39710569 0.95135695
9.2936029 8.2977638 -0.39706579 0.95136178
9.396719 8.1799803 -0.39704636 0.95136386
9.6969728 7.8188868 -0.39698997 0.9513706
9.793828 7.6959081 -0.39696592 0.9513737
1.2655078 0.94395506 -0.050316162 0.99370158
1.2655859 0.91952145 -0.049856529 0.99375892
1.2658398 0.8486914 -0.04857105 0.99391937
1.266084 0.78133786 -0.04741535 0.99406362
1.4152637 0.70995116 -0.050461616 0.9936834
1.5592871 0.70994139 -0.05460285 0.9931668
1.6692871 0.70995116 -0.057811849 0.99276668
1.7293164 0.70995116 -0.059576873 0.99254662
1.7931151 0.70994139 -0.061463203 0.9923116
1.8611034 0.70994139 -0.063482895 0.99206001
2.0102344 0.68121094 -0.067645378 0.99154156
2.0101659 0.65313476 -0.067360647 0.99157691
15.171572 3.8954003 -0.49920097 0.93923783
15.306933 3.3206639 -0.49917904 0.93924046
15.420634 2.7412889 -0.49916068 0.93924266
15.453769 2.5472753 -0.49915537 0.93924302
15.512548 2.1580663 -0.49914598 0.93924439
15.561641 1.7675195 -0.49913821 0.93924528
15.582509 1.5718261 -0.49913493 0.9392457
15.630449 0.98337889 -0.49912757 0.93924659
15.650166 0.59028322 -0.49912471 0.93924683
15.65999 0.19679686 -0.49912348 0.93924707
15.660048 -0.19679686 -0.4991239 0.93924683
15.650156 -0.59027344 -0.49912596 0.93924683
15.617031 -1.1797363 -0.4991321 0.93924594
15.453847 -2.5472949 -0.4991608 0.93924272
15.385312 -2.934912 -0.49917263 0.93924135
15.347441 -3.1280565 -0.49917915 0.93924052
15.171855 -3.8954785 -0.49920925 0.93923676
13.70164 -3.8875096 -0.45390692 0.94459522
13.043476 -3.8785155 -0.43368325 0.94699711
12.442549 -3.8706737 -0.41528878 0.94918716
2.010371 -0.70954102 -0.067944102 0.99150431
1.9337305 -0.70994139 -0.065650329 0.99178994
1.7931055 -0.70994139 -0.061462972 0.99231166
1.5592577 -0.70995116 -0.054602392 0.99316686
1.5087109 -0.70995116 -0.053140145 0.99334919
1.3719531 -0.70995116 -0.049231987 0.99383688
1.2661523 -0.75959957 -0.047056921 0.99410832
1.266084 -0.78134763 -0.047415465 0.99406356
1.2660156 -0.80343747 -0.04778713 0.99401718
1.26583 -0.84872067 -0.04857105 0.99391937
1.2655957 -0.91952145 -0.049856491 0.99375892
9.6980658 -7.8197851 -0.39703614 0.95136523
9.5997267 -8.5711126 -0.41014317 0.94980049
4.1812501 -3.9264746 -0.18280204 0.97730637
4.1257615 -3.9730859 -0.18254413 0.97733802
8.1475677 -8.2506008 -0.3695471 0.95465475
7.9426465 -8.2478657 -0.36492613 0.95520902
7.5476851 -8.2426214 -0.35618821 0.95625788
7.3571582 -8.2401028 -0.35205466 0.95675421
6.9888964 -8.2352095 -0.34423026 0.95769465
6.465693 -8.2282562 -0.33350897 0.95898491
6.134336 -8.2238617 -0.3269771 0.95977181
5.9734178 -8.2217331 -0.32388222 0.96014488
5.8155079 -8.2196341 -0.32089576 0.96050507
2.6888671 -3.9035645 -0.15106429 0.9812091
5.2112498 -8.211606 -0.30995509 0.96182555
4.9239259 -8.2077932 -0.3050437 0.96241909
4.713213 -8.3238134 -0.30485445 0.96244174
4.6085157 -8.3828611 -0.30487198 0.96243966
2.0568066 -3.9747558 -0.14262982 0.98224878
1.9917284 -3.9704883 -0.14156792 0.98237985
1.9309765 -3.9731445 -0.1407862 0.98247629
1.8695215 -3.9729393 -0.13993591 0.98258126
1.8081738 -3.971328 -0.13906753 0.98268837
1.7468066 -3.9680274 -0.1381721 0.98279887
3.523623 -8.8996239 -0.30505341 0.96241778
3.2992382 -8.9864798 -0.3050909 0.96241325
3.0727735 -9.0676661 -0.30512875 0.96240872
1.2685742 -3.9043067 -0.13083275 0.98370498
1.2078906 -3.8828709 -0.12959671 0.98385781
1.1584375 -3.8958201 -0.1295325 0.98386568
2.2652929 -9.306694 -0.30526364 0.96239227
1.0854785 -8.5924807 -0.27601895 0.96593314
0.93289059 -8.2133055 -0.26344103 0.96745992
0.82835937 -8.2119188 -0.26304135 0.96750844
0.72570312 -8.2285547 -0.26326138 0.96748173
0.62148434 -8.2271681 -0.26294699 0.96752
0.51751953 -8.2257814 -0.26267388 0.96755314
0.19871093 -3.9502733 -0.12605415 0.98429549
0 -9.5902681 -0.30564156 0.96234667
-0.12277343 -9.7685108 -0.31134719 0.96165746
-0.19847655 -3.9450977 -0.12589012 0.98431593
-0.29181641 -3.8629394 -0.12346294 0.98461592
-0.34185547 -3.8760545 -0.12400939 0.98454833
-1.4589453 -12.844731 -0.41199139 0.94957995
-1.7815039 -12.80562 -0.41204512 0.94957376
-1.9424022 -12.783091 -0.41207191 0.94957048
-2.2633202 -12.731865 -0.41212538 0.94956416
-2.423291 -12.703276 -0.41215196 0.94956088
-2.7421288 -12.639976 -0.41220504 0.94955462
-3.0592968 -12.568706 -0.41225782 0.94954824
-3.2171972 -12.530087 -0.41228417 0.94954503
-3.3745897 -12.489399 -0.41231039 0.94954216
-3.5315039 -12.446845 -0.41233647 0.94953883
-3.998867 -12.307173 -0.41241422 0.94952977
-4.2211328 -12.456435 -0.41915783 0.9487257
-4.6690917 -12.239834 -0.41749889 0.94892341
-5.4018064 -11.864164 -0.41546255 0.94916695
-5.5508204 -11.796055 -0.41548735 0.94916397
-5.6989551 -11.726089 -0.41551197 0.94916093
-5.8461914 -11.654243 -0.41553646 0.94915801
-5.9924998 -11.580483 -0.41556075 0.94915533
-6.1379395 -11.504966 -0.41558492 0.94915229
-6.2823825 -11.427578 -0.41560894 0.94914949
-6.709785 -11.18456 -0.41567993 0.94914109
-6.8501854 -11.09999 -0.41570324 0.94913828
-7.1277733 -10.925615 -0.41574931 0.9491325
-7.4008689 -10.744175 -0.41579467 0.94912732
-7.9330273 -10.360937 -0.41588295 0.94911683
-8.0629978 -10.260962 -0.41590452 0.94911432
-8.1917381 -10.159394 -0.41592589 0.94911164
-8.3191404 -10.056104 -0.41594702 0.94910938
-8.6935549 -9.7368898 -0.41600665 0.94910187
-8.8156929 -9.6273537 -0.41602692 0.9490993
-9.0556831 -9.4036865 -0.41606909 0.94909465
-9.173584 -9.2895899 -0.41608864 0.94909221
-9.5185156 -8.9384909 -0.41614577 0.9490853
-1.0348047 -0.94755858 -0.044716492 0.9944005
-1.0349121 -0.92401367 -0.044215392 0.99446303
-1.0350097 -0.90098631 -0.043732453 0.99452335
-1.0351952 -0.85636717 -0.042816773 0.99463767
-1.0355176 -0.77240235 -0.041171074 0.9948433
-1.0355859 -0.75240231 -0.040794678 0.99489027
-1.0356641 -0.7327441 -0.040431824 0.99493563
-1.0357324 -0.71342772 -0.040081367 0.99497944
-1.0589257 -0.70995116 -0.040630072 0.99491084
-1.0882324 -0.70996094 -0.041409414 0.9948135
-1.1187011 -0.70995116 -0.042226102 0.99471152
-1.2178515 -0.70995116 -0.04492607 0.99437433
-1.2914063 -0.70995116 -0.046965752 0.99411958
-1.3307323 -0.70995116 -0.048068199 0.99398202
-1.4152734 -0.70994139 -0.050461233 0.9936834
-1.460791 -0.70994139 -0.051761664 0.99352109
-1.5592968 -0.70996094 -0.054602735 0.99316669
-1.7810059 -0.70513672 -0.061046485 0.99236333
-1.7809668 -0.67937499 -0.060747527 0.99240059
-1.7809081 -0.65382808 -0.060460929 0.99243635
-11.854033 -4.1837597 -0.40062529 0.95093626
-12.057569 -3.7508984 -0.40243632 0.95071995
-15.195732 -3.497041 -0.49694362 0.93950379
-15.464501 -3.3548534 -0.50431615 0.93863463
-15.505664 -3.1603124 -0.50432283 0.93863374
-15.544335 -2.9652441 -0.50432909 0.93863302
-15.580498 -2.7696972 -0.50433487 0.93863255
-15.614297 -2.5737305 -0.50434029 0.93863171
-15.645586 -2.3773339 -0.5043453 0.938631
-15.700693 -1.983457 -0.50435406 0.93862987
-15.764589 -1.3903027 -0.50436407 0.93862873
-15.794658 -0.99372071 -0.50436872 0.93862832
-15.814765 -0.59647459 -0.50437164 0.93862784
-15.824775 -0.19886719 -0.50437284 0.93862784
-14.552939 9.7656248e-06 -0.50416058 0.94341719
-14.548281 0.36572266 -0.50415945 0.94341743
-14.534394 0.73120117 -0.50415677 0.94341779
-14.523965 0.91377926 -0.5041548 0.94341815
-14.511328 1.096211 -0.50415254 0.9434182
-14.479062 1.4605078 -0.50414675 0.94341874
-14.459462 1.6423438 -0.5041433 0.9434191
-14.437578 1.8238866 -0.50413942 0.94341952
-14.413379 2.0051563 -0.50413519 0.94342005
-14.386933 2.1860938 -0.5041306 0.94342047
-14.358183 2.3666894 -0.5041256 0.94342101
-14.293867 2.7266893 -0.50411451 0.9434222
-14.220459 3.0849609 -0.50410187 0.94342363
-13.997626 3.971494 -0.50406379 0.9434278
-13.892861 4.321836 -0.50404596 0.94342995
-13.837265 4.495996 -0.50403649 0.94343072
-13.256435 4.4922071 -0.48489791 0.94551915
-12.707314 4.4849119 -0.46683708 0.94749415
-1.7817968 0.6796875 -0.066065863 0.99239635
-1.7818555 0.70548826 -0.066391103 0.99235898
-1.6692969 0.70994139 -0.062842824 0.99276596
-1.6127343 0.70994139 -0.061043851 0.99297225
-1.5592968 0.70995116 -0.059354551 0.99316609
-1.5087402 0.70995116 -0.057764702 0.99334848
-1.415293 0.70994139 -0.054852676 0.99368274
-1.3719921 0.70995116 -0.053516082 0.99383616
-1.3307323 0.70996094 -0.052251473 0.99398148
-1.2538086 0.70995116 -0.049916036 0.9942497
-1.1834472 0.70995116 -0.047809105 0.99449164
-1.1187011 0.70995116 -0.045900993 0.99471098
-1.0588964 0.70994139 -0.044165839 0.99491048
-1.0350391 0.71295899 -0.043540381 0.9949823
-1.0348926 0.75189453 -0.04431507 0.99489319
-1.0348047 0.77187496 -0.044723511 0.99484634
-1.0347265 0.7922461 -0.045146447 0.99479771
-1.0345606 0.83416015 -0.046039086 0.99469507
-1.034375 0.87780273 -0.046997719 0.99458492
-1.0340234 0.94685543 -0.048571851 0.99440414
-8.4142771 7.9015136 -0.39987794 0.9548524
-8.3139448 8.006279 -0.39986107 0.95485437
-7.677402 8.3842573 -0.39383507 0.95551914
-7.4835935 8.3816795 -0.38926712 0.95602369
-7.1090035 8.376709 -0.38061526 0.95697969
-6.9278417 8.3743162 -0.37651962 0.95743251
-6.5768261 8.369648 -0.36876082 0.95829117
-5.6028028 8.3567085 -0.34855017 0.96053141
-5.4505177 8.3546972 -0.34558195 0.96086091
-5.1535058 8.3507423 -0.33995181 0.96148604
-5.0085449 8.3488178 -0.33728439 0.9617824
-4.5867286 8.3432226 -0.3298358 0.96261048
-4.4501657 8.3413963 -0.32752657 0.96286726
-4.3154588 8.3396091 -0.32530066 0.96311492
-4.1825681 8.3378515 -0.32315621 0.96335351
-3.9218652 8.3343849 -0.31909937 0.96380508
-3.8479784 9.7188959 -0.36212486 0.95902628
-3.8382127 10.454463 -0.38581511 0.95640498
-3.6972558 10.910488 -0.39908829 0.95493948
-3.5596581 10.955479 -0.39906532 0.95494193
-3.421494 10.998662 -0.39904225 0.95494467
-3.0040135 11.117881 -0.39897251 0.9549523
-2.7233496 11.188555 -0.39892563 0.95495743
-2.1572461 11.308555 -0.39883113 0.95496792
-2.0148535 11.334121 -0.39880738 0.95497042
-1.7291698 11.379785 -0.39875969 0.95497584
-1.4424609 11.418291 -0.39871183 0.95498103
-1.2988183 11.434843 -0.3986879 0.95498359
-1.1549317 11.449541 -0.39866385 0.95498639
-0.86674803 11.473584 -0.39861578 0.95499164
-0.72246093 11.482851 -0.39859176 0.95499438
-0.43361327 11.495996 -0.39854357 0.95499969
-0.28908202 11.499863 -0.39851946 0.95500225
0.36389649 14.476064 -0.50165838 0.94369024
0.54573244 14.469482 -0.50162804 0.94369352
0.90909177 14.449433 -0.50156748 0.94370019
1.4527832 14.402314 -0.50147688 0.94371003
1.6335449 14.38207 -0.50144678 0.94371325
1.8140136 14.359521 -0.50141674 0.94371665
2.3535547 14.278399 -0.50132686 0.94372636
2.5326171 14.246875 -0.501297 0.94372958
2.8895116 14.177021 -0.50123763 0.94373614
3.2444725 14.09829 -0.5011785 0.94374251
3.7728612 13.963525 -0.50109059 0.94375211
3.9478025 13.914189 -0.50106144 0.94375539
4.1221094 13.862685 -0.50103247 0.94375849
4.295742 13.809023 -0.50100356 0.94376153
4.4686913 13.753193 -0.50097477 0.94376457
4.812324 13.634971 -0.50091767 0.94377089
5.1528611 13.508203 -0.50086099 0.94377708
5.490088 13.37292 -0.5008049 0.94378328
5.82374 13.229238 -0.50074947 0.94378948
6.3172169 12.998252 -0.50066739 0.94379824
6.6411328 12.834023 -0.50061357 0.94380409
6.8015428 12.748886 -0.50058693 0.94380695
6.9608006 12.661679 -0.50056046 0.94381011
7.1190429 12.572607 -0.50053418 0.94381267
7.2760644 12.481464 -0.50050813 0.94381571
7.4319434 12.388398 -0.50048226 0.94381857
7.7401266 12.196523 -0.50043106 0.94382399
8.0433979 11.996953 -0.50038069 0.94382942
8.1844139 11.567822 -0.49090824 0.9448629
8.1858788 10.974199 -0.47429848 0.94667768
8.1865625 10.692109 -0.46651819 0.94752926
8.2274122 9.6945896 -0.44049728 0.95038211
8.2866402 9.2811327 -0.43103901 0.95142102
8.3152246 9.0808496 -0.42655769 0.95191389
8.3549318 8.89709 -0.42282498 0.95232445
8.6514454 8.124258 -0.41115052 0.95360976
8.7087593 7.9745407 -0.40908134 0.95383793
8.8216696 7.6793747 -0.40518606 0.95426702
8.877265 7.5338082 -0.40336043 0.95446843
8.9303417 7.3878222 -0.40152031 0.9546712
9.0902834 7.1430759 -0.40051317 0.95478249
9.1797943 7.0286427 -0.40053374 0.95478022
1.2648437 0.89489257 -0.053676948 0.99381787
1.2650391 0.84814453 -0.052763022 0.99392271
1.2650976 0.82535154 -0.052329976 0.99397254
1.2651855 0.80291015 -0.051911965 0.99402052
1.2652637 0.78084958 -0.051508561 0.99406683
1.2653515 0.75909179 -0.051119383 0.99411154
1.2654296 0.73767579 -0.050743714 0.99415463
1.2655176 0.71656251 -0.050381582 0.99419624
1.2913867 0.70994139 -0.051053006 0.99411917
1.3307226 0.70994139 -0.052251663 0.99398154
1.3719629 0.70996094 -0.053516235 0.99383628
1.4152637 0.70995116 -0.054852866 0.99368286
1.5087011 0.70994139 -0.057764661 0.99334866
1.6692871 0.70995116 -0.062842824 0.99276596
1.9337499 0.70994139 -0.071364172 0.99178916
13.818173 4.1088867 -0.49942636 0.9439339
14.124385 2.8787792 -0.49937662 0.94393903
14.159297 2.701035 -0.49937102 0.94393963
14.222402 2.3443067 -0.49936089 0.94394076
14.276524 1.9861132 -0.49935222 0.94394189
14.300303 1.8065526 -0.49934843 0.94394213
14.340986 1.4465917 -0.49934205 0.94394284
14.403281 0.54324216 -0.49933264 0.9439438
14.408936 0.3622168 -0.49933189 0.94394392
14.412333 0.18112305 -0.4993315 0.94394398
14.413466 -9.7656248e-06 -0.4993315 0.94394398
14.408984 -0.36220703 -0.49933264 0.94394374
14.403291 -0.54323238 -0.4993338 0.94394374
14.358067 -1.2662598 -0.49934211 0.94394273
14.341054 -1.4466015 -0.49934512 0.94394261
14.27669 -1.9861425 -0.49935645 0.9439413
14.250732 -2.1653905 -0.49936095 0.94394082
14.192119 -2.5228906 -0.49937111 0.94393963
14.159433 -2.7010546 -0.49937674 0.94393909
14.087412 -3.0561035 -0.49938914 0.94393784
14.006581 -3.4092577 -0.499403 0.94393623
13.962783 -3.5850487 -0.49941048 0.94393563
13.916875 -3.7602735 -0.49941832 0.94393468
12.440527 -3.870039 -0.45135367 0.94919068
2.0123632 -0.68193358 -0.073609695 0.99153191
1.8611132 -0.70995116 -0.069007106 0.99205923
1.7931055 -0.70994139 -0.066811562 0.99231094
1.6692675 -0.70995116 -0.062842712 0.99276608
1.5086914 -0.70995116 -0.057764623 0.99334866
1.4607617 -0.70995116 -0.056266516 0.99352062
1.4152539 -0.70994139 -0.054852292 0.99368286
1.3307323 -0.70994139 -0.05225132 0.99398148
1.2655078 -0.71657223 -0.050381582 0.99419624
1.2654004 -0.73769528 -0.050743863 0.99415469
1.2653613 -0.75910157 -0.051119346 0.99411148
1.2652832 -0.78083009 -0.051508635 0.99406683
1.2651074 -0.82535154 -0.052329902 0.99397248
1.2650195 -0.84815431 -0.05276325 0.99392277
1.2648535 -0.89489257 -0.053677022 0.99381781
1.2646387 -0.94333005 -0.054657631 0.99370527
9.1019039 -6.9689941 -0.39713463 0.95515519
9.0139351 -7.0831051 -0.39714941 0.95515352
8.9245901 -7.1961131 -0.39716446 0.95515174
8.7416115 -7.4186621 -0.39719519 0.9551484
8.4567966 -7.7437987 -0.39724299 0.95514315
4.1812596 -3.9264648 -0.19870983 0.97730434
4.1257615 -3.9731054 -0.19843021 0.97733593
7.9399023 -7.8407617 -0.38658038 0.95632052
7.7449608 -7.8429294 -0.38185745 0.95684242
7.3687301 -7.8469238 -0.37291634 0.95783144
6.8354197 -7.8521776 -0.36065814 0.95918894
6.7355075 -7.9366403 -0.36061999 0.95919305
6.810791 -8.2328463 -0.37016055 0.95813638
6.6364355 -8.2305222 -0.36627716 0.95856637
6.465693 -8.2282562 -0.36253145 0.95898122
6.2983689 -8.2260303 -0.35891753 0.9593817
6.134326 -8.2238522 -0.35543239 0.95976824
5.9734178 -8.2217331 -0.35206687 0.9601413
5.8154883 -8.2196341 -0.34882045 0.96050155
2.6888671 -3.9035645 -0.16421017 0.98120737
5.2112498 -8.2115965 -0.33692783 0.96182209
4.9239259 -8.2077932 -0.33158785 0.9624157
4.7836132 -8.2059278 -0.32905817 0.96269703
4.6454101 -8.204092 -0.32661909 0.96296853
4.3749804 -8.2004976 -0.32199484 0.96348292
1.9945019 -3.9760253 -0.15410247 0.98235393
1.8075098 -3.9698632 -0.15111442 0.98269314
1.7483398 -3.9715331 -0.15032886 0.98278224
3.4825976 -8.188652 -0.30827224 0.9650116
3.2420115 -8.1884222 -0.30509958 0.96536541
3.1390233 -8.22896 -0.3051168 0.96536356
3.0355663 -8.2682371 -0.30513409 0.96536154
2.8271387 -8.3428907 -0.3051689 0.9653576
1.268584 -3.9042969 -0.14221847 0.98370349
1.2078906 -3.8828709 -0.14087383 0.98385632
2.0841405 -8.5624361 -0.30529302 0.96534389
1.7602344 -8.6364498 -0.30534708 0.96533781
1.6516796 -8.6583929 -0.3053652 0.96533585
1.542832 -8.6789846 -0.30538338 0.96533376
0.60133785 -3.9575 -0.13867466 0.98410636
0.49933591 -3.9525194 -0.13801624 0.98418117
0.44915038 -3.9544041 -0.13787529 0.98419732
0.34874022 -3.9543164 -0.13752194 0.98423737
0.24844725 -3.9489648 -0.13707611 0.98428816
0.19859375 -3.9474022 -0.13692448 0.98430538
0.20621093 -8.2036572 -0.28429264 0.96768886
-0.11298828 -8.9906836 -0.31149244 0.96465272
-0.44804686 -11.879028 -0.41182181 0.95353568
-1.4905273 -11.79873 -0.4119955 0.95351648
-1.9345312 -11.736269 -0.41206947 0.95350838
-2.5223436 -11.627016 -0.41216734 0.95349753
-2.6684277 -11.595078 -0.41219166 0.95349491
-3.1041014 -11.488271 -0.41226417 0.95348698
-3.2483983 -11.449033 -0.41228819 0.9534843
-3.5354979 -11.365127 -0.41233596 0.95347893
-3.8204296 -11.273974 -0.41238338 0.95347375
-3.9620311 -11.225698 -0.41240692 0.95347124
-4.5798435 -11.155703 -0.41777074 0.9528805
-4.8472462 -11.010957 -0.41678005 0.95298934
-5.3771386 -10.719174 -0.41545722 0.95313585
-5.9101954 -10.437685 -0.41554579 0.95312613
-6.1712594 -10.286948 -0.41558918 0.9531213
-6.3003907 -10.209102 -0.41561061 0.95311892
-6.4284668 -10.129609 -0.41563189 0.95311677
-6.5555859 -10.04855 -0.41565299 0.95311445
-6.9306836 -9.7958002 -0.41571525 0.9531076
-7.0535936 -9.708437 -0.41573566 0.95310521
-7.1753902 -9.6194973 -0.41575587 0.95310301
-7.2960544 -9.5290232 -0.4157759 0.9531008
-7.415586 -9.4370604 -0.41579574 0.95309854
-7.5339551 -9.3435936 -0.41581535 0.95309627
-7.6510935 -9.248579 -0.41583478 0.95309436
-7.7670898 -9.1521482 -0.41585404 0.9530921
-7.8817968 -9.054184 -0.41587302 0.95309031
-8.1076069 -8.8540869 -0.41591048 0.95308596
-8.2186327 -8.7519283 -0.41592887 0.95308375
-8.4366598 -8.5433445 -0.41596499 0.95307994
-8.6494141 -8.3293209 -0.41600025 0.95307618
-8.7561131 -8.2225294 -0.41613021 0.95306194
-1.0340625 -0.9468652 -0.048571587 0.99440402
-1.0341504 -0.92333007 -0.048027992 0.9944666
-1.0345606 -0.83416992 -0.04603897 0.99469507
-1.0346386 -0.81299806 -0.045584869 0.99474734
-1.0347265 -0.7922461 -0.045146637 0.99479771
-1.0348926 -0.75188476 -0.044314917 0.99489325
-1.0349706 -0.7322461 -0.043920781 0.99493855
-1.0350391 -0.71296871 -0.043540381 0.9949823
-1.0589257 -0.70995116 -0.044165764 0.99491036
-1.1187011 -0.70995116 -0.04590065 0.99471098
-1.2538183 -0.70995116 -0.049915884 0.9942497
-1.2914063 -0.70995116 -0.051052894 0.99411905
-1.3307323 -0.70995116 -0.052251242 0.99398148
-1.3719727 -0.70994139 -0.053516082 0.99383628
-1.460791 -0.70994139 -0.056266364 0.9935205
-1.7818066 -0.6796875 -0.066065364 0.9923963
-1.7817383 -0.65414059 -0.06575378 0.99243212
-10.900693 -3.8472753 -0.400466 0.95478743
-10.948399 -3.710078 -0.4004738 0.95478654
-10.994326 -3.5722558 -0.40048134 0.95478588
-11.416406 -3.5514452 -0.41419685 0.95327401
-13.044384 -3.5245409 -0.46810496 0.94735533
-14.138223 -3.4412889 -0.50409514 0.94342446
-14.180566 -3.2634082 -0.50410199 0.94342363
-14.220595 -3.0849903 -0.50410849 0.94342309
-14.258476 -2.9061131 -0.50411463 0.9434222
-14.35833 -2.3666992 -0.50413072 0.94342047
-14.437675 -1.8238964 -0.50414336 0.94341916
-14.459551 -1.6423438 -0.50414681 0.94341874
-14.47915 -1.4605175 -0.50414985 0.94341838
-14.496426 -1.278457 -0.50415254 0.94341815
-14.511348 -1.0961914 -0.50415486 0.94341815
-14.524111 -0.91376948 -0.50415677 0.94341761
-14.534452 -0.73118162 -0.50415832 0.94341761
-14.542539 -0.54847658 -0.50415945 0.94341743
-14.551777 -0.18286133 -0.50416058 0.94341725
-13.469189 -0 -0.50397992 0.94751316
-13.464931 0.33848631 -0.50397885 0.94751316
-13.452089 0.67675781 -0.50397635 0.94751346
-13.442451 0.84572262 -0.50397462 0.94751376
-13.382705 1.5200293 -0.50396389 0.94751483
-13.362422 1.6880664 -0.50396031 0.94751531
-13.340117 1.8558398 -0.50395644 0.94751543
-13.260303 2.3572459 -0.50394261 0.94751692
-13.229482 2.5236523 -0.5039373 0.94751751
-13.161582 2.8552539 -0.50392562 0.94751871
-12.95542 3.6757812 -0.5038904 0.94752228
-12.907998 3.8382225 -0.50388229 0.94752312
-12.858555 4.0000587 -0.50387388 0.94752389
-1.7826562 0.68000972 -0.071390077 0.99239194
-1.7827246 0.70582032 -0.071741752 0.99235457
-1.6692969 0.70994139 -0.067874715 0.99276525
-1.6127343 0.70994139 -0.065931931 0.99297154
-1.5087402 0.70995116 -0.062390175 0.99334782
-1.4607812 0.70995116 -0.060772169 0.9935199
-1.415293 0.70994139 -0.059244841 0.99368215
-1.2913965 0.70994139 -0.055140838 0.99411851
-1.2178711 0.70995116 -0.052746505 0.99437314
-1.15042 0.70995116 -0.050581664 0.99460346
-1.1187011 0.70995116 -0.049576301 0.99471051
-1.0882422 0.70995116 -0.048617553 0.99481249
-1.0588964 0.70994139 -0.047702447 0.99491
-1.0341992 0.75137693 -0.047831193 0.99489617
-1.0341015 0.77133787 -0.048271637 0.99484932
-1.0339453 0.81243163 -0.049200706 0.99475038
-1.0338281 0.83357418 -0.049690779 0.99469829
-1.0337207 0.85515624 -0.050198361 0.99464428
-1.033623 0.87717772 -0.050724715 0.99458826
-1.0333886 0.92264646 -0.051835708 0.99447012
-7.7884665 7.3138571 -0.39977419 0.95813477
-7.6016016 7.5066695 -0.39974284 0.95813805
-7.4099412 7.6946774 -0.39971069 0.95814151
-7.1138182 7.9675193 -0.399661 0.95814645
-6.9107614 8.143096 -0.399627 0.95814985
-6.7033396 8.313447 -0.39959219 0.95815355
-6.406621 8.3673725 -0.39431873 0.95869428
-6.2397461 8.3651657 -0.39048773 0.95908719
-6.0760741 8.3629885 -0.38678992 0.95946652
-5.6028028 8.356719 -0.37645885 0.96052754
-5.4505372 8.3546877 -0.37325412 0.96085703
-5.1535058 8.3507519 -0.36717305 0.96148223
-4.8658495 8.3469238 -0.36151245 0.96206462
-4.7252636 8.3450584 -0.35883087 0.96234059
-4.5867286 8.3432226 -0.35624465 0.96260685
-4.4501657 8.3413963 -0.35375294 0.96286362
-4.3154588 8.3396091 -0.35134864 0.96311128
-4.1825681 8.3378515 -0.34903258 0.96334994
-4.0513964 8.3361034 -0.34680134 0.96357995
-3.801621 9.965888 -0.39910671 0.95820332
-3.6759081 10.012363 -0.39908567 0.9582054
-3.4227538 10.100508 -0.39904341 0.95820975
-3.2954102 10.142158 -0.39902213 0.95821196
-3.1675293 10.182226 -0.39900076 0.95821416
-2.9103222 10.257539 -0.39895782 0.95821846
-2.7810643 10.292715 -0.39893621 0.95822072
-2.6513574 10.326318 -0.39891455 0.95822287
-2.3907518 10.388486 -0.39887103 0.95822757
-2.1287208 10.44418 -0.39882728 0.95823187
-1.9971777 10.469541 -0.39880535 0.95823413
-1.8653613 10.493213 -0.39878333 0.95823646
-1.6008984 10.535625 -0.39873925 0.95824093
-1.0692773 10.60039 -0.3986505 0.95825005
-0.93593746 10.612411 -0.39862826 0.95825225
-0.80245113 10.622725 -0.39860603 0.95825458
-0.53519529 10.63835 -0.39856142 0.95825917
-0.13384765 10.64917 -0.39849448 0.95826602
0.16848633 13.406923 -0.50169206 0.94774532
0.33692381 13.403037 -0.50166398 0.94774801
0.67356443 13.388789 -0.50160789 0.94775391
0.84170896 13.378545 -0.50157988 0.94775665
1.0096778 13.366152 -0.50155187 0.94775957
1.1775 13.351699 -0.50152391 0.94776225
1.3451366 13.335068 -0.50149602 0.94776523
1.5124999 13.316386 -0.50146812 0.94776797
1.846455 13.272705 -0.50141245 0.94777364
2.6754687 13.126972 -0.50127441 0.94778758
2.8400683 13.091601 -0.50124699 0.94779032
3.0042088 13.05417 -0.50121969 0.94779307
3.1678026 13.014658 -0.50119245 0.94779593
3.3309276 12.973115 -0.50116533 0.94779873
3.4934959 12.929541 -0.50113827 0.94780141
3.977705 12.786631 -0.50105768 0.94780958
4.4560742 12.625634 -0.50097811 0.94781762
4.6141601 12.568017 -0.50095177 0.94782013
4.7714844 12.508359 -0.50092566 0.94782287
4.9280176 12.446767 -0.50089961 0.94782555
5.0837793 12.383242 -0.50087368 0.94782805
5.3928027 12.250273 -0.50082231 0.94783348
5.5460544 12.180957 -0.50079685 0.94783586
5.8497849 12.036484 -0.50074637 0.94784123
6.0002732 11.961445 -0.50072134 0.94784367
6.1498141 11.884541 -0.50069654 0.94784606
6.2983298 11.805683 -0.5006718 0.9478488
7.1676755 11.294443 -0.50052744 0.94786346
7.3086815 11.202959 -0.50050408 0.94786584
7.5872359 11.014746 -0.50045782 0.94787043
7.9958887 10.719511 -0.50038999 0.94787735
8.1296291 10.617743 -0.50036782 0.94787943
8.1869431 10.153438 -0.48803234 0.94913119
8.1950293 9.9061031 -0.48105547 0.94983977
8.2230959 9.6895113 -0.47551918 0.95040262
8.2773924 9.2707911 -0.46503386 0.95146912
8.3036623 9.0681934 -0.46007049 0.95197451
8.3432417 8.8846674 -0.45604175 0.95238483
8.460742 8.5677538 -0.4505493 0.95294458
8.5184374 8.4120893 -0.44795707 0.95320886
8.6319532 8.105957 -0.44306976 0.95370728
9.0679388 7.1255369 -0.43151873 0.95488662
9.1578808 7.0118847 -0.43157181 0.95488125
1.2637695 0.94267577 -0.058993757 0.99370897
1.2640039 0.8943066 -0.057936173 0.99382132
1.2642773 0.82481444 -0.056483269 0.99397582
1.264375 0.80239254 -0.056032445 0.9940238
1.2646093 0.73721677 -0.054772262 0.99415779
1.2913867 0.70994139 -0.055141144 0.99411857
1.3719629 0.70995116 -0.057801511 0.99383569
1.4607714 0.70994139 -0.060772207 0.99351996
1.6127245 0.70995116 -0.065932117 0.9929716
1.6692871 0.70995116 -0.067875095 0.99276525
1.9337499 0.70994139 -0.077078208 0.99178833
2.0146093 0.71102536 -0.079939343 0.99148488
12.798183 3.8055956 -0.49959674 0.94795769
12.889404 3.482666 -0.4995819 0.94795918
13.010986 2.9942479 -0.49956214 0.94796121
13.047431 2.830498 -0.49955621 0.94796181
13.11412 2.5016601 -0.49954545 0.94796306
13.144404 2.3366504 -0.4995406 0.94796348
13.222813 1.8395312 -0.49952808 0.94796473
13.244785 1.6732129 -0.49952456 0.94796509
13.264727 1.5066308 -0.49952143 0.94796526
13.28248 1.3398242 -0.49951866 0.94796574
13.311885 1.0055957 -0.49951407 0.94796604
13.323379 0.83824217 -0.49951234 0.94796634
13.332822 0.6707617 -0.49951094 0.94796652
13.348594 0.16775391 -0.49950889 0.94796664
13.349638 -0 -0.49950889 0.94796669
13.332842 -0.67074215 -0.4995124 0.94796646
13.29829 -1.1728027 -0.49951869 0.94796568
13.282627 -1.3398144 -0.49952146 0.9479652
13.244873 -1.6732129 -0.49952811 0.94796479
13.222929 -1.8395507 -0.49953195 0.94796425
13.114277 -2.5016699 -0.49955076 0.94796246
13.081944 -2.666328 -0.49955633 0.94796187
13.047587 -2.8305273 -0.49956226 0.94796121
13.011152 -2.9942968 -0.49956852 0.94796056
12.972656 -3.1575975 -0.49957508 0.94795996
12.932168 -3.32041 -0.49958202 0.94795913
12.844999 -3.644453 -0.49959689 0.94795769
2.014492 -0.68265623 -0.079587668 0.99152213
1.9337305 -0.70995116 -0.077078015 0.99178839
1.7931055 -0.70994139 -0.072161518 0.99231017
1.6692675 -0.70995116 -0.067874677 0.99276537
1.612705 -0.70995116 -0.065931775 0.99297166
1.4607617 -0.70995116 -0.060771748 0.99351996
1.4152539 -0.70994139 -0.059244614 0.99368227
1.3307129 -0.70995116 -0.056435317 0.99398094
1.2913672 -0.70995116 -0.055140991 0.99411863
1.2646191 -0.73721677 -0.054772262 0.99415779
1.264541 -0.75861329 -0.055177458 0.9941147
1.2644531 -0.7803418 -0.055597264 0.99407005
1.2642089 -0.84758788 -0.056950454 0.99392605
1.2640039 -0.89429688 -0.057936095 0.99382132
8.429492 -6.4541798 -0.39724615 0.95839405
8.2652149 -6.664443 -0.39727378 0.95839125
8.1811037 -6.7680173 -0.39728794 0.95838982
8.0957031 -6.8705273 -0.39730227 0.95838833
4.1812501 -3.9264843 -0.21462128 0.97730207
4.1257615 -3.9731152 -0.21431877 0.97733366
7.5568943 -7.4625292 -0.39739272 0.95837903
7.3675389 -7.6506934 -0.39742449 0.95837587
7.2711325 -7.7429881 -0.39744067 0.95837414
7.160996 -7.8203611 -0.39676133 0.95844376
6.9842186 -7.8224216 -0.39238065 0.95889288
6.8112106 -7.8243747 -0.38815615 0.95932651
6.6417966 -7.8262305 -0.3840763 0.95974523
6.3131833 -7.829658 -0.37633723 0.96054018
6.1537108 -7.8312206 -0.37266639 0.96091741
5.6927733 -7.8354392 -0.36239257 0.9619742
5.5694919 -7.8719335 -0.36081436 0.96213663
2.6380663 -3.9347754 -0.1772572 0.98121625
2.6157422 -4.0094919 -0.17912777 0.98101985
5.2112498 -8.2115965 -0.36390579 0.96181834
4.9239259 -8.2077932 -0.3581382 0.962412
4.7836132 -8.2059278 -0.35540703 0.96269339
4.6454101 -8.2041016 -0.3527703 0.96296483
4.2425585 -8.19874 -0.34541473 0.96372294
4.1118946 -8.1970015 -0.34313706 0.96395779
3.8556054 -8.193594 -0.33882999 0.96440202
3.7298241 -8.1919241 -0.33679694 0.96461189
3.2408202 -8.1854391 -0.32940924 0.96537441
2.7716796 -8.1791992 -0.32313952 0.96602225
1.268584 -3.9042969 -0.15360641 0.98370188
1.1584375 -3.8958201 -0.15207951 0.98386264
1.1199511 -3.9473729 -0.15352993 0.98370993
2.2079589 -8.1717186 -0.31672874 0.96668488
2.0977635 -8.1702633 -0.31562647 0.96679896
1.8795605 -8.1673632 -0.31358832 0.9670096
1.5571777 -8.1630859 -0.31094939 0.96728277
1.4508886 -8.1616697 -0.31017587 0.96736276
1.3450683 -8.1602535 -0.30945605 0.96743733
1.2397461 -8.1588621 -0.30878815 0.96750647
0.55060548 -3.9579296 -0.14952175 0.98413187
0.34819335 -3.947998 -0.14829697 0.9842608
0.29828125 -3.9484179 -0.14816043 0.98427516
0.19889648 -3.9538379 -0.14812931 0.98427844
0.30781248 -8.1612301 -0.30558872 0.96783757
0.20523436 -8.1649218 -0.30560583 0.96783578
-0.10466797 -8.327466 -0.31161717 0.96721369
-0.27657226 -11.001919 -0.41179228 0.95690382
-0.19846679 -3.9450488 -0.147798 0.98431313
-1.1049023 -10.953526 -0.41193029 0.95688957
-1.3799609 -10.923486 -0.41197616 0.95688504
-1.517207 -10.905912 -0.41199902 0.9568826
-1.9275 -10.842764 -0.41206732 0.95687562
-2.0637207 -10.818291 -0.41209003 0.9568733
-2.1996093 -10.792085 -0.41211265 0.95687103
-2.7396679 -10.670283 -0.41220257 0.95686173
-3.0072656 -10.599189 -0.41224706 0.95685726
-3.2730272 -10.521397 -0.41229132 0.95685273
-3.4051952 -10.480039 -0.41231334 0.95685029
-3.7983496 -10.345844 -0.41237867 0.95684379
-3.928252 -10.297842 -0.41240031 0.95684159
-4.1262403 -10.421679 -0.41939849 0.95612502
-4.2521191 -10.357431 -0.41893113 0.95617294
-4.8674607 -10.015215 -0.41665053 0.95640606
-5.106699 -9.8686476 -0.4157674 0.95649695
-5.2260156 -9.7956448 -0.41543105 0.95653188
-5.4710546 -9.6621437 -0.41547179 0.95652783
-5.7126756 -9.5225239 -0.41551194 0.95652372
-5.8321872 -9.4504395 -0.41553175 0.95652169
-6.3008204 -9.1472073 -0.41560957 0.95651364
-6.4155664 -9.0677443 -0.41562861 0.95651162
-6.5293164 -8.9868212 -0.41564751 0.95650965
-6.8642774 -8.7354832 -0.41570303 0.95650411
-7.1895504 -8.4716501 -0.41575459 0.95649868
-7.2957811 -8.380991 -0.41577461 0.95649683
-7.4008007 -8.2889891 -0.41579205 0.95649511
-7.5137305 -8.2055416 -0.41630638 0.95644212
-7.7510934 -8.0489349 -0.41811824 0.9562571
-7.509707 -7.6046581 -0.3999047 0.95812154
-7.605 -7.5100193 -0.39992049 0.95811975
-1.0333788 -0.92266601 -0.051835746 0.99447006
-1.033711 -0.85516602 -0.050198324 0.99464428
-1.0338281 -0.83359373 -0.049690627 0.99469823
-1.0341895 -0.7513867 -0.047831152 0.99489617
-1.0342871 -0.73176754 -0.047405854 0.99494135
-1.0882324 -0.70996094 -0.04861721 0.99481249
-1.1187011 -0.70995116 -0.049575958 0.99471051
-1.15042 -0.70995116 -0.050581548 0.99460346
-1.1834179 -0.70996094 -0.051637307 0.99449116
-1.2914063 -0.70995116 -0.05514057 0.99411845
-1.3719727 -0.70994139 -0.057801284 0.99383569
-1.460791 -0.70994139 -0.060771596 0.99351984
-1.5087304 -0.70995116 -0.062389869 0.99334788
-1.5592968 -0.70996094 -0.064106748 0.99316543
-1.7827344 -0.70582032 -0.071741939 0.99235451
-1.7826855 -0.6800195 -0.071389809 0.99239182
-10.136503 -3.5775781 -0.40220982 0.95788521
-10.939345 -3.5543945 -0.43038478 0.95500243
-11.404394 -3.5477049 -0.44689178 0.95331746
-11.906591 -3.5404589 -0.46479145 0.9514938
-12.45081 -3.5326171 -0.4842647 0.94951373
-13.044277 -3.3492088 -0.50391269 0.94752002
-13.085498 -3.1850586 -0.50391936 0.94751936
-13.161738 -2.855283 -0.5039317 0.94751811
-13.196709 -2.6896973 -0.50393736 0.94751757
-13.229638 -2.5236914 -0.50394273 0.94751692
-13.260439 -2.3572655 -0.50394768 0.94751638
-13.289091 -2.190459 -0.50395226 0.94751608
-13.382802 -1.5200391 -0.50396717 0.94751441
-13.442529 -0.84573239 -0.5039764 0.94751346
-13.452119 -0.67672849 -0.50397778 0.9475134
-12.534482 0.15751953 -0.50382394 0.95105594
-12.526533 0.4724707 -0.50382227 0.95105606
-12.51957 0.62985349 -0.50382096 0.95105624
-12.510644 0.7870996 -0.50381929 0.9510563
-12.486796 1.1012499 -0.503815 0.95105678
-12.455068 1.4146777 -0.50380933 0.9510572
-12.436231 1.5710645 -0.50380605 0.95105749
-12.41538 1.7271875 -0.50380242 0.95105797
-12.392597 1.8830664 -0.50379843 0.95105833
-12.367842 2.0386133 -0.50379413 0.9510588
-12.31251 2.3487303 -0.5037846 0.95105958
-12.249316 2.6573632 -0.50377375 0.95106065
-12.214833 2.8110352 -0.50376785 0.95106113
-12.057529 3.4210448 -0.50374097 0.95106363
-11.967373 3.7228417 -0.50372559 0.95106512
-11.919414 3.8728514 -0.50371742 0.95106608
-11.869618 4.0222559 -0.50370896 0.95106685
-11.817959 4.1710253 -0.5037002 0.95106757
-1.7835156 0.68034178 -0.076720767 0.99238747
-1.7293261 0.70994139 -0.075133324 0.99254435
-1.5592968 0.70995116 -0.068860777 0.99316466
-1.5087402 0.70995116 -0.067016333 0.99334711
-1.415293 0.70994139 -0.063637771 0.99368143
-1.2913965 0.70994139 -0.059229735 0.99411792
-1.2178711 0.70995116 -0.056657713 0.99437255
-1.1834472 0.70995116 -0.055466346 0.9944905
-1.1187011 0.70994139 -0.053252526 0.99470991
-1.0588964 0.70994139 -0.051239509 0.99490941
-1.0335938 0.73125976 -0.050886992 0.99494427
-1.033496 0.7508691 -0.051343191 0.99489909
-1.0333984 0.77083004 -0.051815718 0.99485224
-1.0333008 0.7911523 -0.052305106 0.99480379
-1.0331153 0.83300781 -0.053337667 0.99470133
-1.0329883 0.85455078 -0.053882599 0.9946475
-1.0325292 0.94544917 -0.056267507 0.99441117
-7.2491794 6.8074317 -0.39968482 0.96097213
-6.9866991 7.0750294 -0.3996408 0.96097636
-6.8969727 7.1620116 -0.39962572 0.96097779
-6.8061814 7.2478318 -0.39961052 0.96097922
-6.621367 7.4160156 -0.39957952 0.9609822
-6.4324021 7.579443 -0.39954785 0.9609853
-6.2393847 7.7380958 -0.39951548 0.96098834
-6.1414161 7.8155565 -0.39949909 0.96098989
-6.0424609 7.8917675 -0.39948249 0.96099156
-5.9425778 7.9667673 -0.39946577 0.96099305
-5.7400193 8.1128998 -0.39943182 0.96099627
-5.637373 8.1840429 -0.39941466 0.96099794
-5.3008008 8.3526955 -0.3976059 0.96117109
-5.0085545 8.3488083 -0.39130536 0.96177459
-4.5867381 8.3432026 -0.38266125 0.96260291
-4.3154492 8.3395996 -0.37740204 0.96310741
-3.9218652 8.3343945 -0.37020773 0.96379769
-3.8643456 8.4873724 -0.37481675 0.96335536
-3.5388086 9.276885 -0.39906365 0.96103179
-3.3042383 9.3620014 -0.39902443 0.96103537
-3.1861815 9.4023237 -0.3990047 0.96103728
-2.4681542 9.6127338 -0.39888477 0.96104872
-2.3470604 9.642519 -0.39886454 0.96105057
-2.2255664 9.6707325 -0.39884424 0.9610526
-1.9816504 9.7226171 -0.39880356 0.96105647
-1.6135254 9.7888575 -0.39874214 0.96106249
-1.4903027 9.8078413 -0.39872155 0.96106452
-1.3668945 9.8253021 -0.39870092 0.96106642
-1.1194335 9.8555565 -0.39865965 0.9610703
-0.99543941 9.8683205 -0.39863899 0.96107233
-0.87132812 9.8795214 -0.39861828 0.96107435
-0.74705076 9.8892183 -0.39859757 0.9610762
-0.49825194 9.9037695 -0.39855605 0.96108043
-0.37373045 9.9087696 -0.39853531 0.96108228
-0.12460937 9.9139843 -0.39849377 0.96108627
0.1568457 12.481513 -0.50169504 0.95125765
0.31366211 12.47794 -0.50166887 0.95126003
0.47041014 12.472324 -0.5016427 0.95126265
0.62707031 12.464775 -0.5016166 0.95126516
