# .PCD v0.7 - Point Cloud Data file format
VERSION 0.7
FIELDS x y z intensity
SIZE 4 4 4 4
TYPE F F F F
COUNT 1 1 1 1
WIDTH 1072
HEIGHT 1
VIEWPOINT 0 0 0 1 0 0 0
POINTS 1072
DATA ascii
1.344209 13.326055 -0.055656739 0.94783467
1.8969531 13.635459 -0.057209473 0.94642121
2.0881836 13.74251 -0.05776329 0.945916
2.6853027 14.076757 -0.05955223 0.94428915
2.8927343 14.192881 -0.060191534 0.94370735
3.1047559 14.311543 -0.060856171 0.94310439
3.7702441 14.684072 -0.062998697 0.94116014
4.0027442 14.814238 -0.063770369 0.94046348
4.7361717 15.224794 -0.066259421 0.93821293
4.9936719 15.368916 -0.067153208 0.93740493
5.5303516 15.669345 -0.069050521 0.93569362
5.8103418 15.826064 -0.07005775 0.93478715
8.235898 19.36496 -0.087446325 0.9192704
8.2257814 18.685673 -0.08483921 0.92158049
8.2072945 17.441376 -0.0801038 0.92579323
8.1404591 16.227783 -0.075443991 0.92995316
9.9166994 8.8540916 -0.055250473 0.94821191
10.018613 8.5024023 -0.05466507 0.94879639
1.2742285 0.95046872 -0.0066059111 0.99366146
1.274248 0.92578125 -0.0065449141 0.99371958
1.2742578 0.90154296 -0.0064863586 0.99377567
1.2742578 0.85432613 -0.0063752364 0.99388218
1.2742969 0.83132809 -0.0063224789 0.99393249
1.2742969 0.80868161 -0.0062716673 0.99398118
1.2742969 0.76447266 -0.0061751553 0.99407351
1.2743164 0.74286133 -0.0061296462 0.9941172
1.3719921 0.70995116 -0.0064191818 0.9938398
1.4152637 0.70995116 -0.0065796277 0.99368656
1.4607812 0.70995116 -0.0067490004 0.99352431
1.6692969 0.70995116 -0.00753788 0.9927702
1.7931445 0.70994139 -0.0080140298 0.99231535
1.8611425 0.70996094 -0.008277473 0.99206376
1.9337695 0.70995116 -0.0085597606 0.99179387
1.989375 0.70212889 -0.0087665934 0.99159688
1.989375 0.67413086 -0.0087284846 0.99163318
15.399267 -3.9538672 -0.066065669 0.93838441
14.296543 -3.8628416 -0.06154041 0.94248307
1.9893652 -0.67413086 -0.0087284464 0.99163318
1.989375 -0.70212889 -0.008766517 0.99159688
1.7293164 -0.70995116 -0.0077679441 0.99255031
1.6693066 -0.70995116 -0.0075381086 0.9927702
1.5087206 -0.70994139 -0.0069288635 0.99335247
1.460791 -0.70995116 -0.0067492295 0.99352431
1.3719629 -0.70994139 -0.0064191818 0.99383992
1.2914063 -0.70994139 -0.0061238096 0.99412256
1.2743067 -0.7215625 -0.0060853194 0.9941594
1.2743067 -0.74286133 -0.006129608 0.9941172
1.2742578 -0.8543359 -0.0063752364 0.99388212
1.274248 -0.92578125 -0.0065452955 0.99371958
1.2742187 -0.95046872 -0.0066058347 0.99366146
1.0787988 -3.8022461 -0.016424445 0.98431486
1.025166 -3.7941699 -0.016332358 0.98440188
0.92741209 -4.029922 -0.017184334 0.98359489
-0.89940429 -17.878124 -0.074389033 0.93089986
-1.1246387 -17.875566 -0.074430235 0.93086201
-1.350166 -17.873007 -0.074485354 0.93081349
-1.802334 -17.86788 -0.074627109 0.93068463
-2.0291698 -17.865313 -0.074718013 0.9306041
-2.3953223 -18.960884 -0.079420887 0.92640203
-2.6373534 -18.95767 -0.079538837 0.92629582
-2.8801465 -18.954449 -0.079669759 0.9261781
-3.1237597 -18.951216 -0.079813801 0.92604876
-3.36833 -18.947964 -0.079971083 0.92590767
-3.6139159 -18.944702 -0.080146484 0.92575473
-2.9285545 -14.368623 -0.06093704 0.94303054
-4.6079979 -18.931488 -0.080966912 0.92502218
-4.8599415 -18.928135 -0.081206739 0.92480808
-5.113379 -18.924774 -0.081465647 0.92458129
-5.6253123 -18.917969 -0.082017288 0.92408878
-6.1445704 -18.911074 -0.082629777 0.9235431
-6.407207 -18.907587 -0.082959175 0.92324978
-6.6720018 -18.904062 -0.083306581 0.92294246
-6.9390526 -18.900507 -0.083668247 0.92262089
-7.2084665 -18.896933 -0.084048457 0.92228478
-7.4803805 -18.893314 -0.084443398 0.92193389
-7.7549119 -18.889673 -0.084855571 0.9215678
-8.312314 -18.882259 -0.08573322 0.920789
-8.8817282 -18.874702 -0.08668495 0.9199456
-9.1713181 -18.870853 -0.087189637 0.91949874
-11.219404 -21.681494 -0.10144741 0.90696609
-11.198261 -19.776758 -0.094441988 0.9131006
-11.191865 -19.198696 -0.092343636 0.91494483
-11.174209 -17.607714 -0.086667284 0.91996723
-11.163603 -16.650791 -0.083299905 0.92294288
-11.149111 -15.345434 -0.078826562 0.92693424
-11.144599 -14.940771 -0.077458493 0.92815328
-11.113505 -12.136758 -0.068381578 0.93629384
-11.103603 -11.244014 -0.065667607 0.93874592
-11.097412 -10.686728 -0.064022101 0.94023412
-11.094423 -10.418354 -0.06324432 0.94093812
-1.0425292 -0.93083006 -0.0058078384 0.99442512
-1.042539 -0.90754879 -0.0057437895 0.99448633
-1.0425879 -0.84066403 -0.0055654524 0.9946571
-1.0426074 -0.81926757 -0.0055101775 0.99471009
-1.0425977 -0.79828125 -0.0054568863 0.99476129
-1.0426074 -0.77770507 -0.0054052351 0.99481064
-1.042627 -0.71819335 -0.0052611157 0.99494857
-1.0589062 -0.70995116 -0.005297699 0.9949134
-1.0882128 -0.70994139 -0.0053992462 0.99481618
-1.1186913 -0.70995116 -0.0055058668 0.99471414
-1.2178417 -0.70995116 -0.0058579254 0.99437714
-1.2538183 -0.70995116 -0.0059875106 0.9942531
-1.2913867 -0.70995116 -0.0061238478 0.99412262
-1.3307421 -0.70995116 -0.0062677381 0.993985
-1.3719629 -0.70995116 -0.0064193341 0.99383992
-1.460791 -0.70995116 -0.0067490004 0.99352431
-1.612705 -0.70995116 -0.0073224637 0.99297649
-1.6692871 -0.70995116 -0.0075382614 0.99277025
-1.7732617 0.65102535 -0.013083229 0.99247235
-1.7293164 0.70994139 -0.012947197 0.99255019
-1.612705 0.70995116 -0.012204094 0.99297637
-1.5592871 0.70995116 -0.011866302 0.99317008
-1.5087109 0.70994139 -0.011548538 0.99335241
-1.4607812 0.70996094 -0.011248855 0.99352425
-1.3719727 0.70994139 -0.010699119 0.9938398
-1.3307323 0.70994139 -0.010446396 0.99398494
-1.2913867 0.70995116 -0.010206756 0.99412251
-1.2537891 0.70994139 -0.0099794008 0.9942531
-1.1503808 0.70995116 -0.009362678 0.99460721
-1.1186913 0.70995116 -0.0091765588 0.99471408
-1.0882226 0.70994139 -0.0089991 0.99481606
-1.0589062 0.70995116 -0.0088296887 0.99491334
-1.0418946 0.75699216 -0.0089197541 0.99486166
-1.0418946 0.77716798 -0.0090025328 0.9948141
-1.0418652 0.7977246 -0.0090883635 0.99476486
-1.0418652 0.8186816 -0.0091770552 0.99471372
-1.0418261 0.84006834 -0.0092691798 0.99466085
-12.109004 11.371122 -0.11505226 0.93571323
-11.541504 11.397344 -0.11233341 0.93717647
-10.422822 11.382481 -0.10688923 0.94013113
-9.6222067 11.338076 -0.10299091 0.94225025
-9.164463 11.365771 -0.10112263 0.94327021
-8.671484 11.325459 -0.098799095 0.94454002
-8.4710646 11.356563 -0.098129764 0.9449029
-8.2488766 11.353613 -0.09719719 0.94540989
-8.0307913 11.350713 -0.096304774 0.94589955
-7.7931933 11.313779 -0.095146023 0.94652897
-7.5834861 11.310996 -0.094315372 0.94698405
-7.3996191 11.342324 -0.093786545 0.94726938
-7.1963377 11.339628 -0.093019791 0.94769484
-6.7791796 11.300322 -0.091273271 0.94865274
-6.6058297 11.331787 -0.090846822 0.94888484
-6.4149899 11.329247 -0.09017399 0.94925416
-6.2269235 11.326757 -0.089515649 0.94961041
-5.841084 11.28787 -0.088027418 0.95043105
-5.4641209 11.242978 -0.086578637 0.95122659
-5.1890721 11.396934 -0.08673244 0.95114213
-4.9128709 11.551562 -0.086941868 0.9510271
-4.2149024 11.942256 -0.087712325 0.95060354
-3.9317479 12.100752 -0.088123284 0.95037836
-3.3565722 12.422725 -0.089124106 0.94982827
-3.2105858 12.504443 -0.089414291 0.94966936
-3.0636425 12.586689 -0.089720532 0.94950169
-2.9156542 12.66954 -0.090043254 0.94932503
-2.1810448 12.26916 -0.086308211 0.95137477
-1.7607909 11.587969 -0.081179008 0.95419705
-1.6228223 11.665195 -0.081571311 0.95398122
-1.2005273 11.901582 -0.082849346 0.95327765
-0.91128904 12.063496 -0.083790436 0.95275962
-0.76414061 12.145859 -0.084288441 0.95248526
-0.46441406 12.313633 -0.085346296 0.95190436
-0.31166992 12.399131 -0.085904196 0.95159727
-0.15689453 12.485771 -0.08648327 0.95127869
2.9296874e-05 12.573613 -0.087084085 0.95094824
0.15914062 12.662685 -0.087708741 0.95060569
0.32060546 12.753066 -0.088356398 0.95025051
0.48448241 12.844805 -0.089026451 0.94988251
0.65088868 12.937959 -0.089720912 0.94950116
1.1664844 13.226572 -0.091962963 0.94827294
1.7093164 13.530419 -0.094455831 0.94690818
2.6853027 14.076757 -0.099253535 0.94428831
3.543252 14.557012 -0.10376655 0.94183087
3.7702441 14.684062 -0.10500252 0.94115931
4.7361717 15.224794 -0.11043178 0.93821198
5.2582812 15.51704 -0.11347374 0.93656468
5.5303416 15.669345 -0.11508712 0.93569267
6.3957224 16.153759 -0.12033035 0.932863
8.2552729 19.410526 -0.1460965 0.91908711
8.1404486 16.227783 -0.12574287 0.92995214
2.7409277 4.8406153 -0.038537864 0.9779942
9.9167576 8.8541603 -0.092119828 0.94821078
9.9258299 8.6405468 -0.091146506 0.94872093
10.018633 8.5024319 -0.090998344 0.9487955
1.2733495 0.94981444 -0.011002235 0.9936657
1.2734863 0.76398438 -0.01028553 0.99407721
1.273496 0.74238282 -0.010209464 0.9941209
1.2735156 0.72111326 -0.010136184 0.99416292
1.3307323 0.70995116 -0.010446052 0.99398494
1.4607812 0.70995116 -0.011248893 0.99352425
1.5087304 0.70995116 -0.011548347 0.99335235
1.6127343 0.70995116 -0.012203903 0.99297625
1.6692969 0.70995116 -0.01256382 0.99277008
1.8611425 0.70996094 -0.013795891 0.99206364
1.9337695 0.70995116 -0.014267158 0.99179375
1.9914551 0.70287108 -0.014626465 0.991588
1.9914355 0.64705074 -0.01450222 0.9916591
23.227324 -4.1290431 -0.16339503 0.90994769
18.723291 -4.0617967 -0.13269439 0.92622596
1.9914355 -0.67484373 -0.014562988 0.99162436
1.9914745 -0.70287108 -0.014626693 0.99158788
1.9337401 -0.70994139 -0.014267196 0.99179387
1.8611425 -0.70995116 -0.013796157 0.99206364
1.7931347 -0.70996094 -0.013357124 0.99231523
1.7293164 -0.70995116 -0.012947311 0.99255019
1.6693066 -0.70995116 -0.012563667 0.99277008
1.5592773 -0.70995116 -0.011866302 0.99317008
1.3719629 -0.70994139 -0.010699119 0.99383986
1.2734473 -0.83077145 -0.010530815 0.99393642
1.2734277 -0.85376954 -0.01061821 0.99388605
1.2734179 -0.87714839 -0.010709457 0.99383384
1.2733691 -0.92514646 -0.010901031 0.99372375
1.2733495 -0.94980466 -0.011002502 0.9936657
1.2321777 -3.7922752 -0.02761673 0.9841764
1.0784863 -3.8011425 -0.027365874 0.98431915
0.97159177 -3.7840819 -0.027060509 0.98449379
0.92962891 -3.8192773 -0.027224578 0.98439944
-0.42955077 -17.087612 -0.11838683 0.93391144
-0.88637692 -17.619028 -0.1221822 0.93186533
-1.1083496 -17.616514 -0.12225265 0.93182796
-1.3305957 -17.613989 -0.1223426 0.93178016
-1.5532129 -17.611464 -0.12245201 0.93172181
-1.7762402 -17.608925 -0.12257888 0.93165302
-1.9997753 -17.606405 -0.1227254 0.93157351
-2.3953223 -18.960884 -0.13236751 0.9264009
-2.6373534 -18.95767 -0.13256477 0.92629474
-2.8801465 -18.954449 -0.13278607 0.92617697
-3.1237793 -18.951216 -0.13302913 0.92604762
-3.6138964 -18.944702 -0.13357686 0.92575365
-4.3575392 -18.934814 -0.1345697 0.92522264
-4.859951 -18.928135 -0.13534851 0.92480695
-5.1134081 -18.924765 -0.13577205 0.92458016
-5.368506 -18.921377 -0.13622276 0.92434043
-5.6253223 -18.917969 -0.13669513 0.92408764
-5.8839941 -18.914532 -0.13719349 0.92382157
-6.4072165 -18.907578 -0.13826862 0.92324865
-6.6720214 -18.904057 -0.13884445 0.92294133
-7.2084861 -18.896938 -0.14007999 0.92228359
-7.7549219 -18.889673 -0.1414257 0.92156661
-8.0321875 -18.885981 -0.14214477 0.92118514
-11.212041 -21.015957 -0.1649707 0.90911716
-11.205009 -20.381792 -0.16108757 0.91115957
-11.198291 -19.776781 -0.15740432 0.91309923
-11.191884 -19.198715 -0.15391567 0.91494346
-11.179853 -18.115849 -0.14744285 0.91837132
-11.158593 -16.199467 -0.13623226 0.92433131
-11.15376 -15.764692 -0.13374893 0.92566061
-11.149111 -15.345439 -0.13137516 0.92693317
-11.144619 -14.940771 -0.1291011 0.92815214
-11.136113 -14.171792 -0.12483349 0.9304412
-11.128105 -13.451567 -0.12090816 0.93254918
-11.120595 -12.774746 -0.11730255 0.93449444
-11.117011 -12.451152 -0.11560577 0.9354111
-11.106826 -11.533618 -0.11089271 0.9379583
-11.100478 -10.961855 -0.10804871 0.93950284
-11.097422 -10.686738 -0.10670768 0.94023323
-1.0417285 -0.95391601 -0.0097829439 0.99436581
-1.0417578 -0.93012691 -0.0096726222 0.99442917
-1.0417774 -0.90688473 -0.0095663834 0.99449027
-1.0418066 -0.88414061 -0.0094636912 0.99454916
-1.0418164 -0.861875 -0.0093646999 0.99460602
-1.0418555 -0.81869137 -0.0091772079 0.99471372
-1.0419043 -0.75699216 -0.0089197159 0.99486166
-1.0419335 -0.7371875 -0.0088400645 0.9949075
-1.0419433 -0.71772462 -0.0087628169 0.99495178
-1.0589062 -0.70995116 -0.0088296505 0.99491334
-1.0882128 -0.70994139 -0.0089991754 0.99481606
-1.1834081 -0.70995116 -0.0095581049 0.99449497
-1.2178417 -0.70995116 -0.0097632594 0.99437708
-1.2538183 -0.70995116 -0.0099791335 0.99425298
-1.2913867 -0.70995116 -0.010206565 0.99412251
-1.460791 -0.70995116 -0.011248969 0.99352419
-1.5592675 -0.70995116 -0.011866073 0.99317014
-1.6692871 -0.70995116 -0.012563667 0.99277014
-1.7732812 -0.70208985 -0.013209381 0.99239999
-1.7732519 -0.65103513 -0.013083076 0.99247235
-22.879091 5.5688572 -0.22832398 0.91010731
-1.7293164 0.70994139 -0.018126488 0.99255008
-1.612705 0.70995116 -0.017086066 0.99297625
-1.5592871 0.70995116 -0.01661293 0.9931699
-1.5087109 0.70994139 -0.01616806 0.99335229
-1.4607812 0.70996094 -0.015748749 0.99352407
-1.2913867 0.70996094 -0.014289474 0.99412233
-1.1834081 0.70995116 -0.013381691 0.9944948
-1.1503808 0.70995116 -0.013108101 0.99460709
-1.1186913 0.70995116 -0.012847213 0.99471396
-1.0882226 0.70994139 -0.0125988 0.99481595
-1.0412402 0.71723634 -0.012259864 0.99495506
-1.0412011 0.75648433 -0.012479477 0.994865
-1.0411719 0.77664059 -0.012595024 0.99481755
-1.0411621 0.79718751 -0.012715034 0.99476826
-1.041123 0.81811523 -0.012839279 0.99471736
-1.0410937 0.83947265 -0.012967872 0.99466449
-1.0410644 0.86125976 -0.013101463 0.99460977
-1.041045 0.88350582 -0.013239899 0.99455297
-1.0410254 0.90623045 -0.013383216 0.99449408
-1.0409863 0.92945307 -0.013531838 0.9944331
-12.109004 11.371122 -0.16107856 0.9357118
-11.839434 11.401308 -0.15937908 0.93636537
-10.935293 11.355527 -0.15285827 0.93888515
-10.422832 11.38249 -0.14966168 0.94012976
-8.9018555 11.328526 -0.13970153 0.94399625
-8.671504 11.325459 -0.13831687 0.94453871
-8.4710741 11.356563 -0.13737331 0.94490165
-8.0308008 11.350713 -0.13481838 0.94589829
-7.1963673 11.339628 -0.13022868 0.94769365
-6.9963865 11.336982 -0.12918808 0.94810444
-6.6058788 11.331787 -0.12718673 0.94888359
-6.415 11.329258 -0.126241 0.94925296
-6.041543 11.324297 -0.12444946 0.94995296
-5.8410935 11.287881 -0.12324382 0.95042986
-5.4641504 11.242969 -0.12121139 0.95122546
-5.1890721 11.396934 -0.12142646 0.95114106
-5.0511327 11.47416 -0.12156318 0.95108736
-4.9128709 11.551553 -0.12171955 0.95102602
-4.6351271 11.707021 -0.12209148 0.95088017
-4.4955859 11.785127 -0.12230751 0.95079553
-4.3555274 11.863535 -0.12254215 0.95070297
-4.2149119 11.942256 -0.12279858 0.95060247
-4.0736718 12.021318 -0.12307563 0.95049387
-3.6457908 12.260839 -0.12403137 0.95011902
-3.5016015 12.341533 -0.12439323 0.9499774
-3.3565722 12.422734 -0.12477699 0.94982713
-3.2105956 12.504443 -0.12518306 0.94966823
-3.0636718 12.586689 -0.12561004 0.94950056
-2.9156835 12.669531 -0.12606323 0.94932389
-2.6163964 12.83706 -0.12703517 0.94894314
-1.3427734 11.821962 -0.11536872 0.95352072
-0.91129881 12.063496 -0.11730758 0.95275855
-0.61521482 12.229218 -0.11873127 0.95219916
-0.46441406 12.313633 -0.11948395 0.95190328
-0.31167969 12.39914 -0.12026688 0.95159614
9.7656248e-06 12.573613 -0.12192073 0.95094711
0.15911132 12.662685 -0.12279491 0.95060456
0.32059568 12.753066 -0.12369987 0.95024943
0.65087891 12.937968 -0.12561236 0.94949996
0.81995118 13.032588 -0.12662201 0.94910496
0.99174803 13.128769 -0.12766674 0.94869572
1.1664746 13.226572 -0.12874936 0.94827175
1.3442285 13.326074 -0.12987442 0.94783264
2.2831836 13.85168 -0.13612689 0.9453907
2.4821777 13.963066 -0.137518 0.9448486
2.6853027 14.076757 -0.13895644 0.94428706
2.8927441 14.19289 -0.14045124 0.9437052
3.1047363 14.311563 -0.14199947 0.94310224
3.3214843 14.43288 -0.14360699 0.94247741
3.5432422 14.557012 -0.145276 0.94182956
3.7702343 14.684072 -0.14700428 0.94115794
4.0027537 14.814248 -0.14879791 0.94046122
4.4854102 15.084423 -0.15259528 0.93898886
4.7361622 15.224794 -0.1546059 0.93821061
4.9936619 15.368925 -0.15669513 0.93740261
5.2582812 15.51704 -0.15886696 0.93656331
5.5303416 15.669345 -0.16112553 0.93569124
8.2659273 20.134375 -0.21104433 0.91661805
8.2552729 19.410526 -0.20451815 0.91908532
8.140439 16.227783 -0.17604147 0.92995059
2.7409375 4.8406248 -0.053941343 0.97799361
9.9168158 8.8541889 -0.12894554 0.9482094
9.9258986 8.640625 -0.12760761 0.94871938
1.2724707 0.94916016 -0.015392837 0.99366993
1.2725195 0.92453122 -0.015251502 0.9937278
1.2725195 0.90033203 -0.015115203 0.99378383
1.2725586 0.87656248 -0.014983482 0.99383783
1.272666 0.78539062 -0.014500618 0.9940356
1.2913965 0.70995116 -0.014289589 0.99412233
1.3307323 0.70995116 -0.014624824 0.99398482
1.3719921 0.70995116 -0.014978904 0.99383956
1.4607812 0.70995116 -0.015748633 0.99352407
1.5087304 0.70995116 -0.016168099 0.99335217
1.5592968 0.70995116 -0.016612854 0.99316984
1.6127343 0.70995116 -0.017085953 0.99297613
1.7293359 0.70995116 -0.018126449 0.99254996
1.7931445 0.70994139 -0.018700371 0.99231505
1.8611425 0.70996094 -0.019314766 0.99206346
1.9337695 0.70995116 -0.019974403 0.99179357
1.9935449 0.70360351 -0.020499 0.991579
1.9934765 0.64771485 -0.020324707 0.9916504
23.227324 -4.1290431 -0.22875515 0.90994573
18.723291 -4.0617967 -0.18577382 0.92622435
1.9934863 -0.64772457 -0.020324631 0.99165034
1.9935058 -0.67554688 -0.020409966 0.99161553
1.7293164 -0.70995116 -0.018126449 0.99255002
1.460791 -0.70995116 -0.015748786 0.99352407
1.3719629 -0.70994139 -0.014978904 0.99383968
1.272666 -0.78540039 -0.014500999 0.99403554
1.2726562 -0.80763668 -0.014615211 0.99398869
1.2725977 -0.83022457 -0.014733657 0.99394029
1.2725781 -0.85320312 -0.014856148 0.99388993
1.2725488 -0.87657225 -0.014983482 0.99383783
1.2725488 -0.90033203 -0.015115203 0.99378377
1.1785351 -3.788496 -0.038471259 0.98425424
1.1301563 -3.800703 -0.038448866 0.98426372
1.0781933 -3.8000488 -0.038301848 0.98432326
1.024668 -3.7922461 -0.038088646 0.98440909
0.97125977 -3.7827246 -0.037872426 0.98449898
-0.66463864 -17.621548 -0.17099036 0.93189079
-0.88637692 -17.619028 -0.17105953 0.93186384
-1.1083496 -17.616514 -0.17115776 0.93182641
-1.3305957 -17.613989 -0.17128108 0.93177861
-1.5532129 -17.611464 -0.17143181 0.93172032
-1.7762207 -17.608934 -0.17161193 0.93165147
-1.9997753 -17.606396 -0.17181964 0.93157208
-2.3953223 -18.960884 -0.18531609 0.92639929
-2.6373534 -18.95767 -0.18559511 0.92629308
-3.36833 -18.947964 -0.18661031 0.92590493
-2.9468358 -14.458276 -0.14307952 0.94268334
-4.6080079 -18.931484 -0.18892911 0.92501944
-5.1134081 -18.924765 -0.19008838 0.92457849
-5.368506 -18.921377 -0.19071615 0.92433876
-6.4072361 -18.907578 -0.19357799 0.92324692
-6.8951659 -18.075512 -0.18759859 0.92553103
-7.6407909 -17.965733 -0.18931238 0.9248758
-7.8982906 -17.941738 -0.19009233 0.92457891
-8.1576271 -17.916845 -0.19090149 0.92427105
-8.6823339 -17.864712 -0.19260982 0.92361963
-8.9478607 -17.837362 -0.19351143 0.92327595
-9.522666 -17.849424 -0.19617911 0.92226118
-9.9259472 -18.055267 -0.19979592 0.92088592
-11.191865 -19.19873 -0.2154803 0.91494161
-11.179863 -18.115845 -0.20641293 0.91836953
-11.168798 -17.11982 -0.19820458 0.92148626
-11.153779 -15.764677 -0.18724757 0.92565894
-11.144629 -14.940785 -0.1807366 0.92815048
-11.136104 -14.171806 -0.17476204 0.93043965
-11.132041 -13.805957 -0.17196472 0.93151504
-11.120615 -12.774751 -0.16423331 0.93449295
-11.117022 -12.451167 -0.16185035 0.93540961
-11.110126 -11.831055 -0.15737358 0.93714005
-11.106816 -11.533628 -0.15525627 0.93795693
-11.100478 -10.961845 -0.15127571 0.93950152
-1.0409374 -0.95320308 -0.01368618 0.99436992
-1.0409765 -0.92945307 -0.013531913 0.99443316
-1.0410156 -0.90622067 -0.013383216 0.99449414
-1.0410546 -0.88350582 -0.013239899 0.99455297
-1.0410742 -0.86124998 -0.013101463 0.99460977
-1.0411035 -0.83947265 -0.012968253 0.99466449
-1.0411719 -0.77664059 -0.012595253 0.99481755
-1.0412011 -0.75648433 -0.012479553 0.994865
-1.0412011 -0.73668945 -0.012367668 0.9949109
-1.04125 -0.71723634 -0.012259864 0.99495506
-1.0589062 -0.70995116 -0.012361831 0.99491322
-1.1834081 -0.70995116 -0.013381653 0.9944948
-1.2178417 -0.70995116 -0.013668976 0.9943769
-1.2538183 -0.70995116 -0.013971061 0.99425286
-1.3307421 -0.70995116 -0.014625129 0.99398476
-1.5087206 -0.70994139 -0.016168175 0.99335223
-1.6692871 -0.70995116 -0.01758953 0.99276996
-22.87043 5.5667672 -0.29346377 0.91013712
-1.7749511 0.65165037 -0.023572845 0.99246478
-1.7293164 0.70994139 -0.023305777 0.99254984
-1.612705 0.70995116 -0.021968193 0.99297601
-1.5592871 0.70995116 -0.021360168 0.99316967
-1.4607812 0.70996094 -0.020248795 0.9935239
-1.3719727 0.70994139 -0.019258995 0.9938395
-1.2537891 0.70994139 -0.017963639 0.9942528
-1.1503808 0.70995116 -0.016853523 0.99460691
-1.0882226 0.70994139 -0.016199112 0.99481577
-1.0589062 0.70995116 -0.015894203 0.9949131
-1.0405371 0.71675777 -0.015752677 0.99495834
-1.0403711 0.83886719 -0.016661758 0.99466807
-1.040332 0.86064452 -0.01683319 0.99461341
-1.0402637 0.90557617 -0.017194672 0.99449795
-1.0402246 0.92876953 -0.017385788 0.99443704
-12.109004 11.371122 -0.20709546 0.93570989
-10.692226 11.386065 -0.19472571 0.93942946
-10.159707 11.378994 -0.19018407 0.94080168
-9.6222067 11.338086 -0.18539928 0.94224721
-8.9018555 11.328526 -0.17962344 0.94399458
-8.671504 11.325459 -0.17783746 0.9445371
-8.4710741 11.356563 -0.1766427 0.94489998
-8.0308008 11.350713 -0.17334099 0.94589669
-7.7932224 11.313788 -0.17126796 0.94652605
-7.3996091 11.342334 -0.16884354 0.94726658
-6.7791796 11.300322 -0.16428906 0.94865006
-6.415 11.329258 -0.16231686 0.94925141
-5.6782618 11.319463 -0.15788428 0.95060247
-5.4641504 11.242969 -0.15584533 0.95122403
-5.0511327 11.47416 -0.15629962 0.95108587
-4.6351271 11.707031 -0.15697888 0.95087868
-4.4955955 11.785136 -0.15725498 0.95079404
-4.3555369 11.863535 -0.15755703 0.95070148
-4.0736718 12.021318 -0.15824284 0.95049238
-3.9317772 12.100742 -0.15862744 0.95037574
-2.9156835 12.669531 -0.16208351 0.94932234
-2.7666211 12.752969 -0.16269398 0.94913661
-2.6163964 12.83706 -0.16333336 0.94894165
-2.4222753 12.697949 -0.16116394 0.9496026
-2.1810546 12.269131 -0.15536045 0.95137233
-1.7608007 11.587969 -0.14612804 0.95419466
-1.3427734 11.821962 -0.14833526 0.95351928
-0.91129881 12.063496 -0.15082648 0.95275718
-0.76416016 12.145859 -0.15172492 0.95248276
-0.61523438 12.229228 -0.15265697 0.95219773
-0.46441406 12.313633 -0.1536264 0.95190179
-0.31168944 12.399131 -0.15463284 0.95159471
-0.15692383 12.485762 -0.15567718 0.95127618
0.32059568 12.753066 -0.15904537 0.95024794
0.48447263 12.844794 -0.16025348 0.94987994
0.99178708 13.128769 -0.16414562 0.94869417
1.1664746 13.226572 -0.1655394 0.9482702
1.5251172 13.427334 -0.1684785 0.94737631
2.482168 13.963057 -0.17681116 0.94484699
3.1047461 14.311552 -0.18257584 0.94310057
3.5432422 14.557012 -0.18678427 0.94182783
4.7361622 15.224794 -0.19878417 0.93820876
5.2582812 15.51704 -0.20426065 0.93656141
5.5303712 15.669355 -0.20716444 0.93568927
5.8103318 15.826074 -0.21018359 0.9347828
6.0986328 15.98746 -0.2133285 0.93384016
8.2659082 20.134356 -0.27136391 0.91661566
8.2552729 19.410507 -0.26298523 0.91908306
9.1171675 20.710537 -0.28211594 0.91345513
9.8927832 20.355312 -0.28215691 0.91344243
10.654482 19.970869 -0.28219715 0.91343051
9.4385347 16.191015 -0.23365164 0.9277705
9.9168653 8.8542671 -0.16575965 0.9482075
10.018633 8.5024414 -0.16390426 0.94879282
1.2716113 0.94850582 -0.019777793 0.99367398
1.2716894 0.89971679 -0.019420967 0.99378777
1.2717187 0.87597656 -0.019251937 0.99384171
1.2717383 0.85264647 -0.019088669 0.99389374
1.2718945 0.7414453 -0.018354377 0.99412793
1.2913965 0.70995116 -0.018372612 0.99412215
1.3307323 0.70995116 -0.018803978 0.99398464
1.3719921 0.70995116 -0.019259147 0.99383938
1.5087304 0.70995116 -0.020787848 0.993352
1.6127343 0.70995116 -0.021968078 0.99297589
1.6692969 0.70995116 -0.022615394 0.99276972
1.7293359 0.70995116 -0.023305969 0.99254972
1.8611425 0.70996094 -0.02483364 0.99206322
1.9337695 0.70995116 -0.025682028 0.99179333
1.9956347 0.70433593 -0.026384048 0.99156994
1.9955957 0.67624998 -0.02626892 0.99160653
17.217958 -3.9624121 -0.22027214 0.93176228
15.739452 -4.0412011 -0.20259231 0.9370628
14.296533 -3.8628514 -0.18462928 0.94247919
1.9955664 -0.6483984 -0.026159247 0.9916414
1.9955957 -0.67624998 -0.026269112 0.99160653
1.9956445 -0.7043457 -0.026384048 0.99156988
1.7931347 -0.70996094 -0.024043769 0.99231482
1.7293164 -0.70995116 -0.023306122 0.99254984
1.5592773 -0.70995116 -0.021360015 0.99316972
1.5087206 -0.70994139 -0.020787887 0.99335206
1.460791 -0.70995116 -0.020248756 0.99352384
1.4152539 -0.70994139 -0.019739989 0.9936862
1.2914063 -0.70994139 -0.018372726 0.99412215
1.2719042 -0.72020507 -0.018222693 0.99417001
1.2718164 -0.78487301 -0.018632583 0.99403936
1.2717968 -0.80711913 -0.018779144 0.99399251
1.2717675 -0.82968748 -0.018931007 0.99394405
1.2717383 -0.85264647 -0.019088706 0.99389374
1.2716992 -0.87598634 -0.019251937 0.99384177
1.2716503 -0.92388672 -0.019596329 0.99373192
1.2716016 -0.94850582 -0.019777983 0.99367404
19.525976 -14.950341 -0.30659553 0.90630764
18.946806 -15.67413 -0.30656603 0.90631628
18.747618 -15.910371 -0.30655587 0.90631968
18.545498 -16.144102 -0.30654553 0.90632308
18.340635 -16.375385 -0.30653504 0.90632564
17.708525 -17.053223 -0.3065027 0.90633512
17.492178 -17.273729 -0.30649158 0.90633851
16.826923 -17.918842 -0.30645746 0.90634793
16.599794 -18.128178 -0.30644581 0.90635133
16.370068 -18.334648 -0.30643401 0.90635473
16.137617 -18.538012 -0.30642208 0.90635896
15.902743 -18.738617 -0.30640998 0.90636247
15.183456 -19.322466 -0.30637297 0.90637267
14.938876 -19.510986 -0.30636036 0.90637606
14.442588 -19.878531 -0.30633476 0.90638375
14.342783 -20.272026 -0.30959582 0.90543562
1.2306055 -3.7873828 -0.049648397 0.98419583
1.1783301 -3.7877734 -0.049455106 0.98425668
1.0243847 -3.7912695 -0.048962515 0.98441267
0.97090816 -3.7813671 -0.04867363 0.98450398
0.92850584 -3.8145604 -0.048946112 0.98441768
4.777451 -22.022099 -0.28094575 0.91379923
4.422822 -21.700092 -0.27610567 0.91521907
3.4861231 -21.149609 -0.26723856 0.91782671
2.90958 -20.91452 -0.26325938 0.91899896
2.6371777 -20.875532 -0.26233229 0.91927284
1.5634472 -20.696777 -0.25877142 0.92032403
1.2989551 -20.646631 -0.25791737 0.9205755
0.89187497 -17.728682 -0.22130841 0.93145263
0.65459961 -17.355551 -0.21652986 0.93288165
0.42833006 -17.03829 -0.21248674 0.93409234
-9.7656248e-06 -16.451933 -0.20511113 0.93630606
-0.40249023 -16.011766 -0.19968663 0.9379372
-0.7949121 -15.800947 -0.19724233 0.93867248
-0.99540037 -15.821235 -0.1976369 0.93855387
-1.1970605 -15.84621 -0.19812225 0.93840808
-1.8086133 -15.923276 -0.19979553 0.93790406
-2.0272167 -16.04705 -0.2016515 0.93734545
-2.2635741 -16.271059 -0.20480867 0.93639666
-3.6138964 -18.944702 -0.24044739 0.92574984
-4.108418 -18.938124 -0.24159881 0.92540801
-4.3468552 -18.888378 -0.24164701 0.92539513
-4.7311716 -18.42664 -0.23718426 0.92672056
-5.3459473 -17.978485 -0.23385143 0.92771405
-5.5528026 -17.849888 -0.23306412 0.92794728
-5.9618454 -17.593315 -0.231602 0.92838401
-6.3651853 -17.337372 -0.23026714 0.92878193
-6.5648336 -17.209648 -0.22964376 0.92896634
-6.7632127 -17.081938 -0.22905952 0.92914164
-7.2002831 -16.929985 -0.2293734 0.92904717
-7.6836228 -16.875786 -0.23118398 0.92850786
-7.9277439 -16.847315 -0.23214042 0.92822295
-8.4212208 -16.787519 -0.23416042 0.92762184
-8.6707325 -16.756172 -0.23522644 0.92730522
-8.9221773 -16.723843 -0.23632652 0.92697757
-9.175683 -16.690508 -0.23746313 0.9266386
-9.6890135 -16.620659 -0.23986293 0.92592657
-10.773779 -16.514317 -0.24583633 0.92415279
-11.153769 -15.764688 -0.24076027 0.92565674
-11.149131 -15.345444 -0.23647837 0.9269293
-11.144629 -14.940785 -0.23238587 0.92814839
-11.132041 -13.805957 -0.22110504 0.93151301
-11.124287 -13.108037 -0.21433857 0.93353766
-11.120595 -12.774765 -0.21115592 0.93449098
-11.103622 -11.244028 -0.19701876 0.93874174
-11.097422 -10.686738 -0.19207548 0.94023007
-1.0402148 -0.92875975 -0.017385788 0.9944371
-1.0402539 -0.90556639 -0.01719513 0.99449795
-1.0403711 -0.83887696 -0.016661797 0.99466807
-1.0404491 -0.77609372 -0.016182937 0.99482095
-1.0404882 -0.75597656 -0.016034584 0.99486834
-1.0405273 -0.73619139 -0.015891112 0.99491405
-1.0405567 -0.71676755 -0.015752601 0.99495822
-1.0589062 -0.70995116 -0.015894013 0.9949131
-1.0882128 -0.70994139 -0.016199112 0.99481583
-1.1186913 -0.70995116 -0.016518593 0.99471378
-1.1834081 -0.70995116 -0.017205199 0.99449468
-1.2178417 -0.70995116 -0.017574769 0.99437678
-1.3307421 -0.70995116 -0.018803749 0.99398458
-1.4152539 -0.70995116 -0.019740028 0.99368614
-1.460791 -0.70995116 -0.020248909 0.99352384
-1.5087206 -0.70994139 -0.020788077 0.99335206
-1.5592675 -0.70995116 -0.021360245 0.99316978
-1.612705 -0.70995116 -0.021968001 0.99297601
-1.7749609 -0.67708004 -0.023684425 0.99242932
-1.7749316 -0.65166014 -0.023573074 0.99246484
-22.884785 5.2665429 -0.35783783 0.91033483
-22.864101 5.5652146 -0.35858452 0.91015756
-1.7757909 0.6519531 -0.028825684 0.99246097
-1.7758007 0.67741209 -0.028961943 0.99242544
-1.7758203 0.70310545 -0.029104117 0.99238843
-1.6692871 0.70996094 -0.027641715 0.99276948
-1.612705 0.70995116 -0.026850548 0.99297571
-1.5592871 0.70995116 -0.026107406 0.99316943
-1.5087109 0.70994139 -0.025408171 0.99335182
-1.4607812 0.70996094 -0.024749374 0.99352366
-1.4152637 0.70994139 -0.024127349 0.9936859
-1.3719727 0.70994139 -0.023539543 0.99383926
-1.3307323 0.70994139 -0.022983322 0.9939844
-1.2913867 0.70996094 -0.02245613 0.99412197
-1.2537891 0.70994139 -0.021955872 0.99425256
-1.1834081 0.70995116 -0.021029091 0.99449444
-1.0882226 0.70994139 -0.019799346 0.99481559
-1.0589062 0.70995116 -0.019426612 0.99491286
-1.0398632 0.71628904 -0.019240798 0.99496138
-1.0397949 0.75544918 -0.019584732 0.99487156
-1.039746 0.7755664 -0.01976612 0.99482429
-1.0397265 0.79607421 -0.019953918 0.99477512
-1.0396093 0.86003906 -0.020559501 0.99461693
-1.0395117 0.90492183 -0.021001091 0.99450171
-11.839434 11.401308 -0.25046155 0.93636113
-11.541465 11.397344 -0.24716224 0.93717098
-10.935293 11.355527 -0.24022581 0.93888104
-10.692226 11.386065 -0.23800547 0.9394272
-10.422832 11.38249 -0.2351813 0.94012576
-10.159707 11.378994 -0.23244385 0.94079947
-9.8728514 11.341415 -0.22913028 0.94161987
-8.9018555 11.328515 -0.21954441 0.94399256
-8.2488861 11.353613 -0.21384618 0.94540501
-7.5834961 11.311006 -0.20751348 0.94697928
-7.1963673 11.339628 -0.20465255 0.94769013
-6.9963865 11.336982 -0.20300683 0.94810092
-6.415 11.329258 -0.19839065 0.94924951
-5.8410935 11.287881 -0.1936686 0.95042652
-5.6782618 11.319463 -0.19297034 0.95060062
-5.4641504 11.242969 -0.19048455 0.95122218
-5.3267283 11.319892 -0.19063917 0.95118374
-5.1890721 11.396934 -0.19082348 0.95113772
-5.0511327 11.47416 -0.19103847 0.95108402
-4.9128709 11.551562 -0.19128269 0.95102268
-4.774209 11.629169 -0.19155928 0.95095366
-4.6351271 11.707031 -0.19186714 0.95087683
-4.4955859 11.785127 -0.19220491 0.95079225
-4.3555274 11.863535 -0.19257581 0.95069963
-3.78916 12.180576 -0.19438311 0.95024896
-3.6457908 12.26083 -0.19491777 0.95011568
-3.5016015 12.341533 -0.19548465 0.94997406
-3.3565624 12.422734 -0.19608758 0.9498238
-3.2105956 12.504443 -0.19672689 0.94966483
-2.9156835 12.669531 -0.19810639 0.9493205
-2.6163964 12.83706 -0.19963405 0.94893974
-2.4222558 12.697929 -0.19698204 0.94960082
-2.1810546 12.269131 -0.18989061 0.95137048
-1.4835156 11.743174 -0.18036681 0.95375204
-0.91129881 12.063496 -0.18434769 0.95275539
-0.76416016 12.145859 -0.18544565 0.95248097
-0.46441406 12.313633 -0.18777128 0.95190001
-0.31167969 12.39914 -0.18899971 0.95159286
-0.15689453 12.485791 -0.19027455 0.95127422
0.15915039 12.662695 -0.19297068 0.95060122
0.65087891 12.937959 -0.19740015 0.94949663
0.81995118 13.032588 -0.19898628 0.94910157
0.99178708 13.128769 -0.200627 0.94869226
1.1664746 13.226572 -0.20233032 0.94826829
1.3442285 13.326074 -0.2040938 0.94782913
1.7093066 13.53043 -0.20781764 0.94690341
1.8969238 13.635468 -0.2097813 0.94641554
2.2832227 13.85168 -0.21392155 0.94538701
2.4821777 13.963066 -0.21610713 0.9448449
2.6852832 14.076767 -0.21837266 0.94428331
3.1047363 14.311563 -0.22315498 0.94309843
4.2410059 14.947617 -0.23676504 0.9397347
4.7361622 15.224785 -0.24296382 0.93820649
5.5303416 15.669326 -0.25320643 0.93568701
6.0986133 15.987451 -0.26074067 0.93383777
6.3957129 16.153749 -0.26474333 0.9328571
7.4570994 16.939512 -0.28203309 0.92863303
7.8810449 16.748075 -0.28205544 0.92862767
8.5077534 16.4412 -0.28208861 0.92861903
8.7140131 16.333632 -0.28209952 0.9286164
2.6949217 4.9020505 -0.085241735 0.97786999
9.5251951 15.877666 -0.28214243 0.92860556
9.9218941 15.634375 -0.28216347 0.92860073
10.312363 15.381182 -0.28218412 0.9285959
10.505254 15.250966 -0.28219441 0.92859322
10.696396 15.118252 -0.28220454 0.92859101
9.9259863 8.6407032 -0.20053518 0.94871551
1.2707324 0.94786131 -0.02415718 0.99367809
1.2707715 0.92327148 -0.023935126 0.99373591
1.2708105 0.89912105 -0.023721542 0.99379176
1.2708594 0.87539059 -0.02351509 0.99384558
1.2708985 0.85208005 -0.023315696 0.99389756
1.2710156 0.78437501 -0.022758903 0.99404287
1.271084 0.7409668 -0.022419432 0.99413145
1.2711133 0.71974605 -0.022258719 0.99417341
1.3307323 0.70995116 -0.022983206 0.9939844
1.3719921 0.70995116 -0.02353939 0.99383914
1.4607812 0.70995116 -0.024749184 0.99352366
1.5592968 0.70995116 -0.026107406 0.99316937
1.6127343 0.70995116 -0.026850585 0.99297565
1.7931445 0.70994139 -0.02938755 0.99231452
1.8611425 0.70996094 -0.030353354 0.99206293
1.9977245 0.7050879 -0.032281876 0.99156082
1.997666 0.67695314 -0.032141075 0.99159753
18.723291 -4.0618162 -0.29194418 0.9262194
17.217939 -3.9624317 -0.26922718 0.93175983
14.296533 -3.8628514 -0.22566305 0.94247705
1.9976465 -0.64907223 -0.032006606 0.99163246
1.9976953 -0.67694336 -0.032140959 0.99159741
1.9977441 -0.70507812 -0.032281838 0.99156076
1.9337401 -0.70994139 -0.031389922 0.99179316
1.7931347 -0.70996094 -0.029387474 0.99231452
1.6693066 -0.70995116 -0.027641639 0.99276942
1.5592773 -0.70995116 -0.026107177 0.99316949
1.5087206 -0.70994139 -0.025408097 0.99335176
1.460791 -0.70995116 -0.024749184 0.9935236
1.3307421 -0.70994139 -0.022983246 0.99398434
1.271084 -0.74097657 -0.022419432 0.99413145
1.2710546 -0.76251954 -0.022586174 0.99408793
1.2709765 -0.80658203 -0.022937965 0.99399614
1.2708985 -0.85207027 -0.023315735 0.99389756
1.27083 -0.89912105 -0.023721619 0.9937917
1.2707226 -0.94786131 -0.024157066 0.99367815
15.96542 -12.224165 -0.30640632 0.92270964
15.810195 -12.42353 -0.30639839 0.92271137
15.492158 -12.816211 -0.30638218 0.92271543
15.329531 -13.009575 -0.30637386 0.92271709
15.164346 -13.200756 -0.30636543 0.92271954
14.654873 -13.76186 -0.30633938 0.92272532
14.480322 -13.944477 -0.30633044 0.9227277
14.425303 -14.245229 -0.30892944 0.92209822
14.38126 -15.314463 -0.32013199 0.91939133
14.376143 -15.69977 -0.32438174 0.91836554
14.370889 -16.095518 -0.32880127 0.91730064
14.365498 -16.502289 -0.33339614 0.91619468
14.359951 -16.920658 -0.33817551 0.9150458
14.354228 -17.351244 -0.34314838 0.91385186
14.34833 -17.794775 -0.34832838 0.91261047
14.335996 -18.723589 -0.35934317 0.90997559
14.329512 -19.210527 -0.3651998 0.90857673
1.229912 -3.785244 -0.060647886 0.98420405
1.1780859 -3.7870409 -0.06043537 0.98425913
1.0775489 -3.7978222 -0.060156591 0.98433131
0.97054684 -3.7800195 -0.059468877 0.98450893
4.5655565 -21.045332 -0.32815489 0.9174571
4.2279201 -20.743778 -0.32259887 0.9187963
3.9013183 -20.45141 -0.31726557 0.92008388
2.8873925 -17.517128 -0.27053088 0.93144119
2.5498633 -16.780878 -0.25864634 0.93435216
1.821543 -16.037113 -0.24594606 0.93747199
1.6163769 -16.024223 -0.2454185 0.9376021
1.0044922 -15.965874 -0.24377237 0.93800765
0.39955077 -15.893808 -0.24226871 0.93837774
9.7656248e-06 -15.852778 -0.24156673 0.93855065
-0.1990332 -15.838096 -0.24136318 0.93860108
-0.39777341 -15.823432 -0.24119584 0.93864202
-0.59625977 -15.808784 -0.24106859 0.93867362
-2.0271971 -16.046713 -0.24646358 0.93734437
-2.2635252 -16.270712 -0.25032386 0.93639559
-2.5074999 -16.502079 -0.25434944 0.9354068
-2.7594531 -16.741098 -0.25854653 0.93437648
-3.3356738 -17.486298 -0.27127302 0.9312619
-2.9653418 -14.549062 -0.22625715 0.94233012
-3.7391698 -17.236 -0.26876137 0.93187565
-3.9377441 -17.110649 -0.26755947 0.93217027
-4.1342869 -16.98518 -0.26638937 0.93245673
-4.5214844 -16.734037 -0.26414716 0.93300515
-4.9010448 -16.482206 -0.26203474 0.93352294
-5.1068649 -16.41643 -0.26198971 0.9335342
-5.728447 -16.230679 -0.26228657 0.93346143
-6.1604199 -16.149443 -0.26339427 0.93319023
-6.599668 -16.075674 -0.26481164 0.93284267
-7.0428219 -15.998462 -0.26637039 0.93246067
-7.4987793 -15.935732 -0.26837772 0.93196893
-8.1985054 -15.843608 -0.27184439 0.93112206
-8.4351463 -15.810918 -0.27307957 0.93081987
-8.6736135 -15.777211 -0.27435854 0.93050742
-8.9139061 -15.74246 -0.27568138 0.9301846
-9.1101656 -15.627705 -0.2756539 0.93019098
-9.6487989 -15.204077 -0.27440822 0.93049592
-9.8266697 -15.062607 -0.27406064 0.9305805
-10.003819 -14.920957 -0.27374846 0.93065649
-10.705361 -14.351924 -0.27284443 0.93087751
-11.069892 -14.087578 -0.27302283 0.93083388
-11.132041 -13.805957 -0.27024406 0.93151045
-11.124307 -13.108037 -0.26197705 0.93353516
-11.120605 -12.774755 -0.25809175 0.93448853
-11.110107 -11.831055 -0.24731572 0.93713588
-11.103622 -11.244028 -0.24079973 0.93873948
-1.039541 -0.88222653 -0.02077629 0.99456048
-1.0396093 -0.86001951 -0.02055973 0.99461699
-1.0397167 -0.79607421 -0.019954033 0.99477518
-1.0397656 -0.7755664 -0.019766083 0.99482423
-1.0398145 -0.73569334 -0.019409752 0.99491733
-1.0589062 -0.70995116 -0.019426651 0.99491286
-1.1504102 -0.70995116 -0.020599402 0.99460661
-1.2538183 -0.70995116 -0.021955909 0.99425244
-1.3307421 -0.70995116 -0.02298313 0.99398434
-1.3719629 -0.70995116 -0.023539543 0.99383926
-1.4152539 -0.70995116 -0.024127159 0.9936859
-1.5087206 -0.70994139 -0.025408134 0.99335176
-1.5592675 -0.70995116 -0.026107406 0.99316949
-1.6692871 -0.70995116 -0.027641792 0.99276948
-1.7293066 -0.70994139 -0.028485831 0.9925496
-1.7757909 -0.6519531 -0.02882576 0.99246097
-23.759912 4.8426561 -0.43669757 0.90754753
-20.981318 6.8172555 -0.39730468 0.91552413
-20.894287 7.0804586 -0.39730895 0.91552299
-1.7766405 0.65226561 -0.034083936 0.99245697
-1.7766601 0.67773438 -0.03424526 0.99242151
-1.7766992 0.70343751 -0.034413528 0.99238437
-1.7293164 0.70994139 -0.033665963 0.99254918
-1.3719727 0.70994139 -0.027820395 0.99383897
-1.3307323 0.70994139 -0.027162857 0.9939841
-1.2178613 0.70994139 -0.025387229 0.99437624
-1.1834081 0.70995116 -0.024853477 0.9944942
-1.0882226 0.70994139 -0.023400038 0.99481535
-1.039121 0.73520505 -0.022923926 0.99492049
-1.0390821 0.7549414 -0.023130607 0.99487484
-1.0389453 0.81639647 -0.023796272 0.99472779
-1.0388477 0.85942382 -0.024281386 0.99462062
-1.0387988 0.88160157 -0.024536934 0.99456406
-1.0386425 0.95107418 -0.0253627 0.99438173
-12.109004 11.371122 -0.29915813 0.93570465
-11.839434 11.401308 -0.2960124 0.93635827
-11.541484 11.397353 -0.29211396 0.93716806
-11.25121 11.393496 -0.28837189 0.93794823
-10.935293 11.355527 -0.28390405 0.9388783
-10.692226 11.386065 -0.28128514 0.93942451
-10.422832 11.38249 -0.27794611 0.94012308
-10.159707 11.378994 -0.27471974 0.94079685
-9.6221876 11.338096 -0.26781443 0.9422425
-9.4052534 11.368975 -0.26572186 0.94267857
-9.1644726 11.365771 -0.26293468 0.94326258
-8.9018555 11.328515 -0.25947034 0.94399005
-8.248867 11.353613 -0.25274149 0.94540262
-7.7932029 11.313779 -0.24740024 0.94652176
-7.5834961 11.311006 -0.2452489 0.9469769
-7.3996091 11.342334 -0.24389589 0.94726223
-7.1963477 11.339628 -0.24187246 0.9476878
-6.9963865 11.336982 -0.23992944 0.9480986
-6.7791796 11.300322 -0.23732576 0.94864583
-6.6058593 11.331787 -0.23622268 0.94887787
-6.2269335 11.326757 -0.23277639 0.94960362
-5.8410935 11.28787 -0.22888723 0.95042431
-5.6782618 11.319463 -0.22806579 0.95059842
-5.4641504 11.242969 -0.22512428 0.95121998
-5.1890917 11.396943 -0.22552322 0.95113552
-5.0511327 11.47416 -0.2257773 0.95108181
-4.774209 11.629169 -0.22639453 0.95095146
-4.2149119 11.942256 -0.22807387 0.95059693
-4.0736718 12.021318 -0.22858819 0.95048833
-3.9317772 12.100742 -0.22914125 0.95037162
-3.5016015 12.341533 -0.23103383 0.9499718
-3.3565624 12.422734 -0.2317463 0.94982153
-2.7666211 12.752958 -0.23501532 0.9491325
-2.1810546 12.269131 -0.22442226 0.95136827
-1.956582 11.870078 -0.21665682 0.95301104
-1.4835156 11.743174 -0.21316665 0.95374995
-1.3427441 11.821973 -0.21427415 0.95351547
-1.0567089 11.98209 -0.21662638 0.95301735
-0.61521482 12.229218 -0.22051889 0.9521938
-0.46441406 12.313633 -0.22191738 0.95189786
-0.31167969 12.39914 -0.22336952 0.95159072
9.7656248e-06 12.573613 -0.22644104 0.95094162
0.32059568 12.753066 -0.22974712 0.95024383
0.48446289 12.844805 -0.23149042 0.94987577
0.65087891 12.937959 -0.233299 0.94949436
0.99178708 13.128769 -0.23711304 0.94868994
1.3442285 13.326064 -0.24121028 0.94782686
1.8969238 13.635468 -0.24793005 0.94641316
2.2832129 13.851689 -0.25282517 0.94538456
2.4821777 13.963066 -0.25540644 0.94484246
3.543252 14.557021 -0.26981518 0.94182307
3.7702637 14.684092 -0.27302775 0.94115126
4.0027537 14.814238 -0.27636155 0.94045466
4.2410254 14.947617 -0.27982277 0.93973202
4.4610839 15.002607 -0.28187835 0.93930274
5.0238867 14.82539 -0.28190801 0.93929648
5.2099705 14.761581 -0.28191781 0.93929452
5.5796876 14.62705 -0.2819373 0.93929029
5.7632322 14.55627 -0.28194699 0.93928832
5.9459081 14.483183 -0.28195661 0.93928629
6.3083591 14.330039 -0.28197575 0.93928283
6.8447657 14.083681 -0.28200409 0.93927616
7.0214062 13.997021 -0.28201345 0.93927425
7.3714256 13.81708 -0.28203192 0.93927032
2.6949315 4.9020505 -0.10074337 0.97786897
2.740957 4.8406444 -0.10018531 0.97799104
7.8876953 13.530674 -0.28205925 0.93926489
8.0573826 13.430937 -0.28206825 0.93926293
8.2257128 13.328975 -0.28207716 0.93926144
8.5586615 13.118916 -0.28209484 0.9392575
8.8861523 12.900469 -0.28211212 0.93925399
9.0478611 12.788222 -0.28212076 0.93925202
9.2080956 12.673847 -0.28212926 0.93925047
9.3669338 12.557549 -0.28213769 0.9392485
9.5242672 12.439198 -0.28214604 0.93924683
9.834404 12.19664 -0.28216255 0.9392435
10.435976 11.688428 -0.28219455 0.93923682
9.9170017 8.8543653 -0.23945035 0.94820261
1.2699023 0.92263669 -0.028268814 0.9937399
1.2699804 0.89851558 -0.028016547 0.99379557
1.2700683 0.85151362 -0.027537765 0.99390125
1.2701172 0.82860351 -0.027310828 0.99395138
1.2701367 0.80605465 -0.027091827 0.99399984
1.2702246 0.76202148 -0.026676483 0.99409151
1.2703222 0.7192871 -0.02628994 0.99417675
1.3719921 0.70995116 -0.027820243 0.99383885
1.5087304 0.70995116 -0.030028647 0.9933514
1.6692969 0.70995116 -0.032668725 0.99276912
1.7293359 0.70995116 -0.033665922 0.99254912
1.7931445 0.70994139 -0.034731865 0.99231416
1.8611425 0.70996094 -0.035873223 0.99206257
1.9337695 0.70995116 -0.037098274 0.99179262
1.9998339 0.70581055 -0.038192406 0.99155158
23.520487 7.3168063 -0.44360623 0.90615481
23.720898 7.0534863 -0.44568473 0.9057377
23.929785 6.7895017 -0.44797012 0.90527779
23.161083 -3.8176951 -0.42274031 0.91036499
21.85252 -3.8846385 -0.39971882 0.91503328
21.801826 -4.1589355 -0.39971644 0.91503382
14.296533 -3.8628612 -0.26670241 0.94247448
21.3512 -6.0578709 -0.39969489 0.91503751
21.27294 -6.3255758 -0.39969108 0.91503924
21.191776 -6.592412 -0.39968711 0.91503918
1.8611425 -0.70995116 -0.03587326 0.99206257
1.7931347 -0.70996094 -0.034731712 0.99231416
1.5592773 -0.70995116 -0.030855102 0.99316913
1.5087206 -0.70994139 -0.030028686 0.99335146
1.3720019 -0.70994139 -0.027820166 0.99383885
1.2914063 -0.70994139 -0.026539611 0.99412167
1.270332 -0.71929687 -0.026290206 0.99417675
1.2702832 -0.74049801 -0.026479835 0.9941349
1.2701757 -0.78386718 -0.026880341 0.99404651
1.2700098 -0.87481445 -0.027772864 0.9938494
14.426143 -11.934331 -0.3371844 0.92783332
14.417958 -12.551021 -0.34425879 0.92637634
14.41374 -12.869243 -0.34799305 0.9256084
14.409404 -13.19453 -0.35186285 0.92481279
14.395849 -14.216049 -0.36436516 0.92224777
14.38625 -14.939057 -0.37351009 0.9203763
14.376122 -15.69977 -0.38337088 0.91836202
14.370869 -16.095522 -0.38859409 0.91729707
14.365479 -16.502275 -0.39402443 0.9161911
14.359941 -16.920635 -0.3996754 0.9150421
14.354218 -17.351234 -0.40555573 0.9138481
13.691474 -18.355194 -0.41239697 0.91245973
13.225107 -18.692329 -0.41237289 0.91246474
12.510146 -19.175863 -0.41233599 0.91247183
12.267754 -19.330914 -0.41232347 0.91247469
12.023564 -19.483027 -0.41231087 0.9124769
11.777411 -19.631927 -0.41229811 0.91247964
11.529404 -19.777695 -0.4122853 0.9124825
11.27958 -19.920366 -0.41227239 0.91248518
11.027998 -20.059872 -0.41225937 0.91248798
9.538496 -17.879053 -0.3649461 0.92212868
9.1556444 -17.693291 -0.35877791 0.92339319
8.2634182 -17.560638 -0.34951794 0.92529422
7.9868259 -17.541714 -0.34711638 0.92578804
7.4122849 -17.428471 -0.34108025 0.92703021
7.1045995 -17.305658 -0.33690274 0.9278909
6.1851268 -16.846983 -0.32320565 0.93071926
5.6204882 -16.585962 -0.31538528 0.93233699
1.2293946 -3.7836523 -0.071647339 0.98420995
1.1291894 -3.7973633 -0.071347386 0.98427558
0.97019529 -3.778662 -0.070259169 0.9845137
0.92747068 -3.8104198 -0.070626065 0.98443323
0.92543942 -4.0212598 -0.074313387 0.98362732
3.2726464 -16.056776 -0.29511607 0.93654454
2.8542089 -16.055849 -0.29368588 0.93684179
2.0266309 -16.042465 -0.29121026 0.93735766
1.8214648 -16.036459 -0.29066187 0.93747163
1.1721485 -15.516397 -0.28024217 0.93964559
0.79266602 -15.756293 -0.28412393 0.93883538
0.19944336 -15.869975 -0.28582934 0.93847859
9.7656248e-06 -15.852749 -0.28549546 0.93854797
-0.1990332 -15.83808 -0.28525481 0.93859839
-0.39776367 -15.823437 -0.28505957 0.93863928
-0.59625977 -15.808813 -0.28490752 0.93867075
-0.99506831 -15.815868 -0.28539535 0.93856907
-1.1967676 -15.842558 -0.28612462 0.93841678
-1.6034667 -15.896352 -0.28773519 0.9380815
-2.0271583 -16.04649 -0.29128307 0.93734241
-2.2680175 -16.302885 -0.29643747 0.93627107
-2.4745409 -16.285156 -0.29665858 0.93622535
-2.6811426 -16.265938 -0.29689923 0.93617541
-2.8877442 -16.244492 -0.29714718 0.93612397
-3.0858495 -16.176508 -0.29658985 0.9362399
-3.2830663 -16.107973 -0.29606676 0.9363488
-3.4794726 -16.038891 -0.29557791 0.9364506
-3.6750877 -15.969282 -0.29512084 0.93654525
-3.8699024 -15.899092 -0.29469794 0.93663299
-4.064043 -15.82831 -0.29431173 0.93671381
-4.2574511 -15.756924 -0.29395729 0.93678784
-4.4502344 -15.68499 -0.29363462 0.93685484
-5.6799707 -15.471069 -0.29681468 0.93619281
-5.8879881 -15.435278 -0.29752398 0.93604529
-6.3062987 -15.361108 -0.29905719 0.93572688
-6.5166893 -15.322676 -0.2998811 0.93555599
-6.7280173 -15.283325 -0.30073914 0.935377
-6.9402246 -15.243042 -0.3016386 0.93519014
-7.5829196 -15.116411 -0.30457604 0.93458015
-7.799336 -15.072211 -0.30563647 0.93436009
-8.9232225 -14.874228 -0.31238773 0.93295968
-9.1061029 -14.755547 -0.31227425 0.93298328
-9.2784271 -14.620463 -0.31185618 0.93306947
-9.6206732 -14.349502 -0.31113729 0.9332186
-10.091611 -13.529116 -0.30397066 0.93470508
-10.167803 -13.279731 -0.30121738 0.93527746
-10.241904 -13.033862 -0.29853624 0.93583465
-10.384052 -12.552192 -0.29339033 0.93690509
-10.518496 -12.083115 -0.28851587 0.93792021
-10.873554 -11.874731 -0.28997776 0.93761617
-11.106826 -11.533618 -0.28835934 0.93795002
-11.103603 -11.244033 -0.28458866 0.9387368
-1.0386914 -0.92740232 -0.025077209 0.99444473
-1.0388086 -0.88160157 -0.024537239 0.99456406
-1.0388964 -0.8376953 -0.024034385 0.99467516
-1.0389453 -0.81639647 -0.023796272 0.99472779
-1.0390429 -0.77503902 -0.023344764 0.99482751
-1.0390821 -0.75493163 -0.023130683 0.99487484
-1.039121 -0.73519528 -0.022924194 0.99492049
-1.0391797 -0.71580076 -0.022724761 0.99496448
-1.2178417 -0.70995116 -0.02538719 0.9943763
-1.2913867 -0.70995116 -0.026540032 0.99412167
-1.4152539 -0.70995116 -0.028514976 0.9936856
-1.460791 -0.70995116 -0.029249916 0.9935233
