# .PCD v0.7 - Point Cloud Data file format
VERSION 0.7
FIELDS x y z intensity
SIZE 4 4 4 4
TYPE F F F F
COUNT 1 1 1 1
WIDTH 1074
HEIGHT 1
VIEWPOINT 0 0 0 1 0 0 0
POINTS 1074
DATA ascii
1.7931445 0.70995116 -0.013357086 0.99231517
1.8611425 0.70996094 -0.013796081 0.99206364
1.9337695 0.70995116 -0.014267196 0.99179375
1.9914355 0.64705074 -0.014502487 0.9916591
1.9914062 -0.64706051 -0.01450222 0.99165922
1.9914355 -0.67484373 -0.014563179 0.99162436
1.7293164 -0.70996094 -0.012947197 0.99255019
1.6127148 -0.70994139 -0.012203865 0.99297637
1.5087206 -0.70995116 -0.011548461 0.99335235
1.3719629 -0.70995116 -0.010699043 0.9938398
1.2914063 -0.70994139 -0.010206603 0.99412245
1.2735254 -0.72111326 -0.010136146 0.99416292
1.2735058 -0.74239254 -0.010209388 0.99412084
1.2734668 -0.78590816 -0.010364189 0.99403191
1.2734473 -0.83078122 -0.010530929 0.99393636
1.2734179 -0.87715816 -0.010709495 0.99383378
1.2733788 -0.90094727 -0.010803718 0.99377978
4.8925781 -4.0475001 -0.04397827 0.97492015
11.063076 -9.3888378 -0.10050419 0.94361067
7.7981348 -8.304184 -0.078898884 0.95545483
3.6668162 -4.0044336 -0.037606161 0.97851509
3.393115 -3.9981933 -0.036319427 0.97924227
6.9022751 -8.3434372 -0.074996717 0.95761001
6.8903904 -9.2374754 -0.079817161 0.95494825
11.007295 -15.150253 -0.12970138 0.92782813
2.192832 -3.9887304 -0.031525612 0.98195732
1.9595019 -3.9062011 -0.030267105 0.98267096
1.9132421 -3.9366894 -0.030315207 0.98264402
7.2652245 -15.439424 -0.11818157 0.93402207
1.633828 -3.9797461 -0.02979595 0.98293853
7.4227633 -21.904423 -0.16018447 0.91163653
7.1217284 -21.918423 -0.15961902 0.9119339
6.6416893 -22.336029 -0.161395 0.91099983
0.54276365 -3.901377 -0.027280997 0.98436731
0.14925781 -3.9572754 -0.027427444 0.98428404
0.10320313 -8.2119579 -0.056881331 0.96768254
-0.31020507 -8.2244577 -0.057002258 0.967614
-0.51613277 -8.2037354 -0.056931648 0.96765411
-0.9472363 -3.8916016 -0.02774002 0.98410636
-0.99215817 -3.8642774 -0.027632255 0.98416781
-15.689355 -19.457949 -0.17311999 0.90485209
-15.685165 -18.960108 -0.17043155 0.9062584
-15.67375 -18.005196 -0.16533634 0.90892863
-15.697177 -17.581024 -0.16323811 0.91002983
-17.38583 -17.605707 -0.17137352 0.90576506
-17.351845 -17.13517 -0.16889861 0.90705854
-1.0417285 -0.95391601 -0.0097830575 0.99436581
-1.0417578 -0.93012691 -0.009672584 0.99442917
-1.0418555 -0.84006834 -0.0092692561 0.99466079
-1.0418555 -0.8186816 -0.0091771698 0.99471378
-1.0589062 -0.70996094 -0.0088296505 0.99491334
-1.0882128 -0.70994139 -0.0089991381 0.99481606
-1.1504102 -0.70995116 -0.0093627926 0.99460709
-1.1834081 -0.70996094 -0.0095582576 0.99449492
-1.2538183 -0.70996094 -0.0099794008 0.99425298
-1.2913867 -0.70996094 -0.010206375 0.99412251
-1.460791 -0.70995116 -0.011249008 0.99352419
-1.5087206 -0.70995116 -0.011548538 0.99335235
-1.6692871 -0.70995116 -0.01256382 0.99277014
-1.7293066 -0.70995116 -0.012947006 0.99255025
-1.7732812 -0.70208985 -0.013209152 0.99239999
-1.7732519 -0.67643553 -0.013144836 0.99243701
-14.068173 -3.9915135 -0.10128074 0.94318271
-1.7741113 0.67674804 -0.018411979 0.99243319
-1.774121 0.70242184 -0.018502044 0.99239624
-1.6692871 0.70995116 -0.017589493 0.99276996
-1.6127245 0.70995116 -0.017086105 0.99297613
-1.5592871 0.70994139 -0.016612967 0.9931699
-1.4607714 0.70995116 -0.015748672 0.99352413
-1.3719727 0.70994139 -0.01497879 0.99383968
-1.3307519 0.70994139 -0.014624977 0.99398476
-1.2537891 0.70994139 -0.013971176 0.99425298
-1.2178613 0.70994139 -0.013669014 0.9943769
-1.1834277 0.70994139 -0.013381538 0.9944948
-1.1186913 0.70995116 -0.012847595 0.99471396
-1.0882226 0.70994139 -0.012598991 0.99481595
-1.0412304 0.71724606 -0.012259941 0.99495512
-1.0412207 0.73668945 -0.012367744 0.99491084
-1.0412011 0.75647461 -0.012479553 0.994865
-1.0411621 0.79718751 -0.012715111 0.99476826
-1.041123 0.81811523 -0.012839279 0.99471736
-1.0410839 0.86125976 -0.013101616 0.99460971
-1.0410058 0.92945307 -0.013531761 0.99443305
-1.0409667 0.95321286 -0.013686256 0.9943698
-14.110058 13.250234 -0.18768993 0.92549324
-13.88834 13.374385 -0.18695958 0.92577136
-13.668262 13.497548 -0.18626651 0.92603648
-13.232793 13.741318 -0.1849806 0.92652762
-12.803057 13.981884 -0.18383026 0.9269681
-12.590127 14.101084 -0.18330151 0.9271698
-12.378369 14.2196 -0.18280461 0.92735946
-11.958105 14.454853 -0.18190949 0.92770296
-11.749443 14.571651 -0.18150349 0.9278571
-11.541689 14.687949 -0.18113248 0.92799962
-11.334756 14.803789 -0.18078935 0.92813069
-11.128545 14.919218 -0.18047823 0.92825037
-10.513769 15.263359 -0.17971455 0.92854214
-10.309882 15.377481 -0.17952034 0.92861724
-9.9033003 15.605068 -0.17921579 0.92873442
-5.2456837 8.5000877 -0.096852794 0.96083212
-5.1177344 8.5307913 -0.096461982 0.96098691
-8.7379389 16.378487 -0.18000291 0.92843229
-8.6962891 16.805567 -0.18347797 0.92710108
-8.7094727 17.920567 -0.19320305 0.92339021
-8.6617088 19.023994 -0.20269053 0.91978425
-7.089375 16.104198 -0.17062129 0.93203431
-7.0602441 17.197548 -0.18025652 0.92833275
-7.0242577 18.413975 -0.19110142 0.92419088
-7.1064548 20.135019 -0.20704986 0.91813284
-5.7075391 20.116415 -0.20276625 0.91975713
11.579531 18.246397 -0.20955345 0.91718477
7.8252439 10.770508 -0.12909222 0.94813836
11.518291 13.572285 -0.17260787 0.93126851
11.501249 12.247559 -0.16293228 0.9350006
11.436377 10.739453 -0.15212387 0.93917203
11.431416 9.701416 -0.14538628 0.94178766
1.2724999 0.92452145 -0.015251464 0.99372786
1.2725195 0.90032226 -0.015115012 0.99378389
1.2725586 0.87657225 -0.014983254 0.99383777
1.2725781 0.85319334 -0.014856186 0.99388999
1.2726269 0.83022457 -0.014733543 0.99394017
1.2726171 0.80762696 -0.014615135 0.99398881
1.2914063 0.70994139 -0.014289474 0.99412233
1.3307323 0.70995116 -0.014624938 0.99398482
1.3719727 0.70994139 -0.014978828 0.99383968
1.5592773 0.70994139 -0.016612854 0.99316996
1.6127441 0.70994139 -0.017085837 0.99297607
1.6692969 0.70995116 -0.017589454 0.99276996
1.7293261 0.70994139 -0.018126449 0.99255002
1.7931445 0.70995116 -0.018700028 0.99231499
1.8611425 0.70996094 -0.019314956 0.99206346
1.9935254 0.67554688 -0.020409698 0.99161541
1.9934765 0.64770508 -0.020324744 0.9916504
1.9935058 -0.67554688 -0.02040989 0.99161553
1.9935352 -0.70360351 -0.020498924 0.99157906
1.8611425 -0.70994139 -0.01931465 0.99206346
1.6127148 -0.70994139 -0.017085761 0.99297619
1.460791 -0.70996094 -0.015748519 0.99352401
1.4152637 -0.70995116 -0.015352974 0.99368632
1.3719629 -0.70995116 -0.014978904 0.99383968
1.2726953 -0.74191403 -0.014284286 0.99412441
1.272666 -0.76348633 -0.014390678 0.99408084
1.2726367 -0.80763668 -0.014615021 0.99398875
1.2725781 -0.85321289 -0.014856186 0.99388993
1.2725683 -0.87656248 -0.014983292 0.99383777
1.2725488 -0.90033203 -0.015115089 0.99378377
1.2725195 -0.92452145 -0.015251655 0.9937278
1.2724707 -0.94916016 -0.015392913 0.99366993
5.0333495 -3.9551756 -0.062071685 0.97471821
4.9214649 -3.9682813 -0.061302032 0.9750278
11.063076 -9.3888378 -0.14069374 0.94360936
11.043036 -10.905161 -0.15050235 0.93980485
11.045693 -11.1854 -0.15243191 0.93905312
7.7981348 -8.304184 -0.11046077 0.95545381
3.6773241 -4.0159178 -0.052799795 0.97845364
3.4299803 -3.9401953 -0.050654601 0.97931993
3.393115 -3.9981933 -0.050847623 0.97924179
6.9022655 -8.3434277 -0.10499825 0.95760912
6.9243064 -8.587554 -0.10696758 0.95683175
6.9147558 -9.0310936 -0.11029049 0.95552027
6.8903904 -9.2374754 -0.11174503 0.95494723
2.1893651 -3.9824121 -0.044065703 0.98198521
1.9595019 -3.9062011 -0.042374574 0.98267055
7.2579589 -15.424033 -0.16529274 0.93408418
7.0233102 -16.513838 -0.17400882 0.93073136
7.4227633 -21.904423 -0.22426307 0.91163456
6.8115525 -21.896297 -0.22235265 0.91235185
0.70542967 -3.9682128 -0.039081 0.98400682
0.44220701 -3.8932226 -0.037993737 0.98444843
0.39797851 -3.9452734 -0.038449783 0.98426318
0.14929686 -3.9578807 -0.038405303 0.9842813
0.10320313 -8.2119675 -0.079634324 0.96768177
9.7656248e-06 -8.2285891 -0.079788737 0.96761996
-0.20678711 -8.2258539 -0.079787441 0.96762043
-0.80416989 -3.9456346 -0.039045751 0.98402125
-0.99215817 -3.8642774 -0.038685456 0.98416746
-1.045205 -3.8683202 -0.038854331 0.98409885
-14.368017 -17.819233 -0.22195722 0.91250157
-14.444199 -17.460049 -0.21972515 0.91334152
-14.600683 -16.77252 -0.21562544 0.9148882
-14.930478 -15.899341 -0.21148957 0.91645068
-15.632041 -15.829726 -0.21572217 0.91485173
-16.002235 -15.802407 -0.21807191 0.91396487
-16.441278 -15.832861 -0.22132754 0.91273874
-1.0409765 -0.92944336 -0.013531951 0.99443316
-1.0410742 -0.86124998 -0.013101501 0.99460977
-1.0411426 -0.81810546 -0.012839279 0.9947173
-1.0411719 -0.77664059 -0.0125951 0.99481755
-1.0412011 -0.75648433 -0.012479515 0.994865
-1.0412011 -0.73667967 -0.012367782 0.9949109
-1.04125 -0.71724606 -0.012259941 0.994955
-1.1187109 -0.70995116 -0.01284748 0.9947139
-1.1834081 -0.70996094 -0.013381729 0.9944948
-1.217832 -0.70995116 -0.013669014 0.99437696
-1.2538183 -0.70996094 -0.013971176 0.9942528
-1.2913867 -0.70996094 -0.014289474 0.99412233
-1.3307421 -0.70994139 -0.0146249 0.99398476
-1.3719629 -0.70995116 -0.014979095 0.99383968
-1.4152539 -0.70995116 -0.015352974 0.99368632
-1.460791 -0.70995116 -0.015748749 0.99352407
-1.5592675 -0.70995116 -0.016613159 0.99316996
-1.7293066 -0.70995116 -0.018126296 0.99255008
-1.774121 -0.67675781 -0.018411597 0.99243313
-14.063926 -3.9903123 -0.14175411 0.94319808
-14.054794 -3.7975585 -0.14116481 0.94342542
-1.7749511 0.65165037 -0.023572883 0.99246478
-1.7749707 0.67707032 -0.023684233 0.99242932
-1.775 0.70276368 -0.023800505 0.99239224
-1.6127245 0.70995116 -0.021968231 0.99297595
-1.5592871 0.70994139 -0.021360205 0.99316972
-1.5087109 0.70994139 -0.020788193 0.99335206
-1.3307519 0.70994139 -0.018804055 0.99398458
-1.1503808 0.70995116 -0.016853562 0.99460691
-1.1186913 0.70995116 -0.016518477 0.99471378
-1.0882226 0.70994139 -0.016198996 0.99481577
-1.0405273 0.73619139 -0.015890846 0.99491405
-1.0404882 0.75596678 -0.016034393 0.99486834
-1.0404589 0.77611327 -0.016183013 0.99482089
-1.0404004 0.81753904 -0.016496466 0.99472088
-1.0403417 0.86062497 -0.016833114 0.99461341
-1.0403125 0.88287109 -0.017010689 0.99455667
-1.0401856 0.95249021 -0.017583732 0.99437386
-14.110058 13.250234 -0.24131921 0.92549103
-13.88834 13.374385 -0.24038057 0.92576921
-13.449785 13.619863 -0.23864217 0.92628622
-13.232793 13.741318 -0.2378362 0.92652541
-12.803066 13.981874 -0.23635662 0.92696589
-12.167714 14.33752 -0.23444282 0.927535
-11.958105 14.454853 -0.23388693 0.92770082
-11.541689 14.687949 -0.23289078 0.92799747
-11.334756 14.803789 -0.23244983 0.92812854
-10.923027 15.034267 -0.23168455 0.92835665
-10.513769 15.263359 -0.23106797 0.92854005
-10.309882 15.377481 -0.23081559 0.92861509
-9.9033003 15.605068 -0.23042369 0.92873228
-5.1177735 8.5308495 -0.12402691 0.96098548
-8.8906155 16.171944 -0.23008069 0.92883474
-8.6962891 16.805567 -0.23591407 0.92709893
-8.7094822 17.920567 -0.24840786 0.92338794
-8.6665525 18.417383 -0.25376755 0.92180216
-7.089375 16.104198 -0.21938545 0.93203229
-7.0602441 17.197557 -0.2317666 0.9283306
-7.1265817 19.411289 -0.25779939 0.92060971
-6.9753122 21.467821 -0.2814185 0.91365939
-5.8886032 21.793877 -0.2814534 0.91364914
-5.3394337 21.936455 -0.28147104 0.9136436
-5.0635157 22.002441 -0.28147995 0.91364127
-4.7867479 22.06496 -0.28148884 0.91363889
-4.373281 24.601143 -0.31151745 0.90487802
11.60955 20.503056 -0.29375267 0.91005123
11.594716 19.889736 -0.28703701 0.91201627
11.594101 19.326376 -0.28097853 0.91378826
11.586894 18.7754 -0.27506629 0.91552418
11.57997 18.247099 -0.26943418 0.91717929
7.7568164 10.963467 -0.16743709 0.94769335
7.8220801 10.766162 -0.16591117 0.94815719
11.501249 12.247559 -0.20945901 0.93499869
1.2716309 0.92388672 -0.019596213 0.99373198
1.2717383 0.85263669 -0.019088782 0.9938938
1.2717675 0.82968748 -0.018931197 0.99394405
1.2718261 0.78488278 -0.018632468 0.9940393
1.2718652 0.76298827 -0.018490905 0.99408442
1.2718945 0.7414453 -0.018354416 0.99412793
1.271914 0.72020507 -0.018222885 0.99416995
1.2914063 0.70994139 -0.018372497 0.99412215
1.3719727 0.70994139 -0.019259071 0.9938395
1.4152637 0.70995116 -0.019739952 0.99368614
1.6692969 0.70995116 -0.022615546 0.99276972
1.7931445 0.70995116 -0.024043655 0.99231482
1.8611425 0.70996094 -0.024833756 0.99206322
1.9337695 0.70995116 -0.025681838 0.99179333
1.9956347 0.7043457 -0.026384085 0.99156994
1.9955859 0.67624021 -0.026269112 0.99160659
1.9955761 -0.67624998 -0.026269073 0.99160659
1.8611425 -0.70994139 -0.024833832 0.99206322
1.7293164 -0.70996094 -0.023305625 0.99254978
1.6692773 -0.70995116 -0.02261547 0.99276978
1.6127148 -0.70994139 -0.021968117 0.99297601
1.5592871 -0.70996094 -0.021359902 0.99316967
1.3719629 -0.70995116 -0.019259071 0.9938395
1.3307421 -0.70994139 -0.018803826 0.99398458
1.2718847 -0.74143553 -0.018354416 0.99412799
1.2718164 -0.78487301 -0.018632317 0.99403936
1.2717773 -0.82970703 -0.018931273 0.99394393
1.2716992 -0.87597656 -0.019252013 0.99384177
1.2716309 -0.92389649 -0.019596443 0.99373192
5.0333495 -3.9551854 -0.079807773 0.97471744
4.8925781 -4.0475097 -0.079164691 0.97491884
11.063076 -9.3888378 -0.18090187 0.94360769
3.502666 -3.9230273 -0.065567322 0.97918147
3.4299803 -3.9402051 -0.065128326 0.97931927
3.3930957 -3.998203 -0.065377347 0.97924119
6.9213767 -8.8081732 -0.13966015 0.95617694
10.988222 -15.530737 -0.23719342 0.92671859
10.959208 -17.758329 -0.26016557 0.91991186
10.952607 -18.257061 -0.2654326 0.91835791
2.0238867 -3.9111328 -0.054902267 0.98253787
7.1378708 -15.677182 -0.21475713 0.93341255
7.0233493 -16.513964 -0.2237304 0.93072885
1.5762402 -3.9811132 -0.053381994 0.98301733
6.8115525 -21.896297 -0.2858927 0.91234928
6.6952343 -23.597538 -0.3058067 0.90653694
6.0997071 -23.756739 -0.30578753 0.90654296
5.5003805 -23.900927 -0.30576828 0.90654892
0.70431638 -3.9621191 -0.050170936 0.98403072
3.9881542 -24.195194 -0.30571955 0.90656334
3.6836815 -24.24272 -0.30570975 0.90656585
0.54276365 -3.901377 -0.049107742 0.98436648
0.49055663 -3.8830078 -0.048794858 0.98446524
0.39797851 -3.9452734 -0.049436606 0.9842627
2.1538379 -24.422192 -0.30566031 0.90658039
1.5393358 -24.466988 -0.30564043 0.90658629
1.2317284 -24.483686 -0.30563048 0.90658885
0.10320313 -8.2119675 -0.10238853 0.96768075
-0.31022459 -8.2244778 -0.10260952 0.96761221
-0.41279295 -8.205122 -0.10242416 0.96766961
-0.51613277 -8.2037449 -0.10247959 0.96765232
-9.8566895 -22.39039 -0.30500048 0.90677285
-10.093174 -22.167963 -0.30367392 0.90715873
-10.321729 -21.934824 -0.30223194 0.90757823
-10.546083 -21.699501 -0.30079451 0.90799761
-11.421338 -20.775331 -0.29557434 0.90951961
-11.849404 -20.326674 -0.29333639 0.910173
-12.067295 -20.115147 -0.29244852 0.9104321
-12.283701 -19.904516 -0.29160526 0.91067779
-12.712255 -19.485674 -0.29005939 0.91112965
-12.924561 -19.277328 -0.28935555 0.91133618
-12.54332 -17.264442 -0.26605088 0.91817558
-12.774228 -16.256523 -0.2577616 0.9206214
-12.94579 -16.055405 -0.25713006 0.92080742
-13.930791 -16.002998 -0.26451743 0.91862732
-14.260693 -15.972153 -0.26695225 0.91791087
-14.589814 -15.933134 -0.26933935 0.91720688
-14.924746 -15.893242 -0.27181756 0.91647887
-15.269658 -15.85645 -0.27444717 0.91570556
-16.002275 -15.802446 -0.28038642 0.91396219
-16.441172 -15.832759 -0.2845692 0.91273677
-16.928858 -15.897265 -0.28952551 0.91128522
-1.0401856 -0.95249021 -0.017583771 0.99437386
-1.0404395 -0.7761035 -0.016183089 0.99482095
-1.0404687 -0.75596678 -0.016034355 0.9948684
-1.0405273 -0.73620117 -0.015891036 0.99491405
-1.0405567 -0.71676755 -0.015752563 0.99495822
-1.0589062 -0.70996094 -0.015894013 0.99491304
-1.0882128 -0.70994139 -0.01619892 0.99481583
-1.1834081 -0.70996094 -0.017205276 0.99449462
-1.2538183 -0.70996094 -0.017963486 0.99425268
-1.2913867 -0.70996094 -0.018372497 0.99412215
-1.4152539 -0.70995116 -0.019739876 0.99368614
-1.5087206 -0.70995116 -0.02078804 0.993352
-1.5592675 -0.70995116 -0.021360245 0.99316978
-1.612705 -0.70995116 -0.021968231 0.99297601
-1.7293066 -0.70995116 -0.023305969 0.99254984
-1.7749707 -0.70277339 -0.023800392 0.99239236
-1.7749316 -0.65166014 -0.023572806 0.99246484
-14.059697 -3.9891112 -0.1822052 0.94321299
-1.7758203 0.67740232 -0.028961867 0.99242544
-1.6692871 0.70995116 -0.027641829 0.99276948
-1.612705 0.70995116 -0.026850814 0.99297571
-1.5592871 0.70994139 -0.026107367 0.99316943
-1.5087109 0.70994139 -0.025408477 0.99335182
-1.4607714 0.70995116 -0.024749221 0.99352366
-1.3307519 0.70994139 -0.022983206 0.99398434
-1.2913867 0.70994139 -0.022456016 0.99412197
-1.2537891 0.70994139 -0.021956023 0.99425256
-1.1834277 0.70994139 -0.021029091 0.99449438
-1.1503808 0.70995116 -0.020599518 0.99460673
-1.1186913 0.70995116 -0.020189667 0.9947136
-1.0589062 0.70994139 -0.019426499 0.99491292
-1.039746 0.77557617 -0.01976612 0.99482423
-1.0396289 0.83829099 -0.020350609 0.99467164
-1.0395898 0.86001951 -0.020559616 0.99461704
-1.0395508 0.8822363 -0.02077648 0.99456042
-1.0394629 0.92808592 -0.021234207 0.99444091
-13.293437 12.801503 -0.28122288 0.92883021
-12.968057 13.13203 -0.28123307 0.92882752
-12.802119 13.294063 -0.28123829 0.92882693
-12.634434 13.454307 -0.28124353 0.92882484
-12.464482 13.612109 -0.2812489 0.92882431
-12.118916 13.921581 -0.28125978 0.92882168
-11.943418 14.073213 -0.28126529 0.92881948
-11.586338 14.369355 -0.28127655 0.92881733
-11.405107 14.51417 -0.28128228 0.92881572
-11.222109 14.65667 -0.28128806 0.92881411
-10.850664 14.934638 -0.2812998 0.92881143
-10.280713 15.333935 -0.28131789 0.9288072
-10.087451 15.462285 -0.28132397 0.92880553
-5.0525584 8.6672163 -0.15286854 0.96066046
-8.4862204 16.39954 -0.28137493 0.92879331
-8.2796478 16.505283 -0.28138152 0.92879164
-8.0717773 16.608418 -0.28138813 0.92879003
-7.652236 16.806807 -0.28140154 0.92878675
-7.2278614 16.994726 -0.2814151 0.92878306
-7.0138669 17.084608 -0.28142199 0.92878151
-6.5826464 17.256289 -0.28143573 0.92877823
-6.3654199 17.338047 -0.2814427 0.92877662
-5.707871 17.567011 -0.2814638 0.92877126
-5.4868164 17.637774 -0.28147084 0.92876959
-5.042119 17.771055 -0.28148514 0.92876589
-4.4568357 18.31039 -0.28716287 0.92738289
-4.4288769 20.415293 -0.31832907 0.91982633
-4.4124804 21.649305 -0.33668017 0.91540575
-4.3732715 24.601112 -0.38075447 0.90487468
-0.95283198 12.613183 -0.19274917 0.95065659
7.8189254 10.761826 -0.20270301 0.94817561
8.023447 10.756426 -0.20449583 0.94773227
11.538349 15.069716 -0.28921452 0.92688322
11.528233 14.297285 -0.27986464 0.92916143
11.523417 13.929404 -0.27547577 0.93023247
11.51875 13.572812 -0.27126643 0.93126136
11.500928 12.247216 -0.25601086 0.93499804
11.431416 9.701416 -0.2284741 0.94178373
1.2707324 0.94787109 -0.0241568 0.99367809
1.2708985 0.85208005 -0.023315735 0.99389756
1.2709277 0.82913083 -0.023123512 0.9939478
1.2710059 0.78437501 -0.022758827 0.99404293
1.2710644 0.7409668 -0.022419509 0.99413151
1.2914063 0.70994139 -0.022455977 0.99412191
1.3307323 0.70995116 -0.022983169 0.9939844
1.3719727 0.70994139 -0.023539467 0.99383926
1.4152637 0.70995116 -0.024127312 0.9936859
1.5087109 0.70994139 -0.025408287 0.99335182
1.5592773 0.70994139 -0.026107406 0.99316949
1.6692969 0.70995116 -0.027641715 0.99276942
1.7931445 0.70995116 -0.029387511 0.99231452
1.8611425 0.70996094 -0.030353241 0.99206293
1.9977245 0.70507812 -0.032282028 0.99156082
1.997666 0.67694336 -0.032141037 0.99159753
1.9976465 0.64907223 -0.032006528 0.99163246
1.9976465 -0.64907223 -0.032006681 0.99163246
1.9977148 -0.7050879 -0.032282028 0.99156088
1.9337401 -0.70994139 -0.031389806 0.99179316
1.8611425 -0.70994139 -0.03035347 0.99206293
1.7293164 -0.70996094 -0.028485678 0.99254948
1.6127148 -0.70994139 -0.0268507 0.99297571
1.5592871 -0.70996094 -0.02610752 0.99316943
1.5087206 -0.70995116 -0.025408097 0.99335176
1.460791 -0.70996094 -0.024749298 0.9935236
1.2914063 -0.70994139 -0.022455901 0.99412191
1.2710546 -0.76251954 -0.022586135 0.99408793
1.2710156 -0.78437501 -0.02275894 0.99404287
1.2709277 -0.8291406 -0.023123473 0.9939478
1.2708594 -0.87539059 -0.023515053 0.99384558
1.2708203 -0.89913082 -0.023721313 0.9937917
5.0333495 -3.9551854 -0.097545736 0.97471648
4.9214454 -3.968291 -0.096336171 0.97502613
4.8925781 -4.0475097 -0.09675888 0.97491789
4.4972072 -4.0153513 -0.09186855 0.97617
11.043036 -10.905147 -0.23650016 0.93980086
7.6037693 -8.3038912 -0.17156677 0.95595694
3.502666 -3.9230273 -0.080140263 0.97918069
3.3930957 -3.998203 -0.079907946 0.97924036
6.9022655 -8.3434277 -0.16500351 0.95760626
6.9243064 -8.587554 -0.16809791 0.95682883
6.9213767 -8.8081837 -0.17069966 0.95617527
3.0588379 -3.9950097 -0.076670952 0.98007268
6.8903809 -9.2374659 -0.17560908 0.95494425
2.0238867 -3.9111524 -0.067104951 0.98253715
1.9594824 -3.9062109 -0.066592522 0.98266935
1.9132227 -3.9366992 -0.066697083 0.98264241
7.213623 -15.3298 -0.25816771 0.93446904
7.6222167 -18.566488 -0.30583137 0.92284858
6.9164939 -18.839087 -0.30580878 0.92285442
6.6790719 -18.924072 -0.30580118 0.92285615
6.4405761 -19.006079 -0.30579355 0.92285782
6.2010641 -19.084887 -0.30578586 0.92286026
5.9606051 -19.16087 -0.30577818 0.92286193
5.7192674 -19.233944 -0.3057704 0.92286313
5.476953 -19.303696 -0.30576262 0.92286539
4.9898925 -19.434326 -0.30574697 0.92286891
4.7451267 -19.494883 -0.30573907 0.92287123
4.2535253 -19.60704 -0.30572325 0.92287475
0.75714844 -3.9690819 -0.06157238 0.98396546
3.2626758 -19.793989 -0.30569133 0.9228822
0.54276365 -3.901377 -0.060022354 0.98436588
0.49055663 -3.8830078 -0.059640005 0.98446465
0.44220701 -3.8932226 -0.05970661 0.98444736
1.5108398 -20.000332 -0.30563477 0.92289615
1.0077051 -20.030727 -0.30561846 0.9229008
0.75590819 -20.041498 -0.30561033 0.92290193
9.7656248e-06 -8.2285891 -0.12538822 0.96761775
-0.31022459 -8.2244778 -0.12541431 0.96761101
-0.75292969 -3.947041 -0.061230086 0.98405379
-0.9472363 -3.8916016 -0.061031874 0.98410493
-0.99215817 -3.8642774 -0.060794372 0.98416638
-8.8788185 -22.425306 -0.3675288 0.90802139
-9.352685 -21.990854 -0.36414817 0.90882802
-9.8172951 -21.562025 -0.3610211 0.90957475
-10.268965 -21.129375 -0.35798278 0.91029978
-10.486455 -20.90451 -0.35637984 0.91068345
-10.701787 -20.681171 -0.35483706 0.91105235
-9.8934469 -17.996103 -0.31293458 0.92112935
-10.429893 -17.385736 -0.30894443 0.92209542
-10.613359 -17.197876 -0.30794963 0.92233568
-10.949306 -16.78336 -0.3053593 0.92296314
-11.107431 -16.567036 -0.30393952 0.9233073
-11.370712 -16.071302 -0.29999459 0.92426419
-11.668897 -16.060863 -0.30251312 0.9236533
-12.942372 -16.051128 -0.31419593 0.92082465
-13.95167 -14.128124 -0.302573 0.92364043
-14.313056 -13.783418 -0.30280018 0.92358524
-14.613115 -13.722651 -0.30547348 0.9229368
-1.0394238 -0.95179683 -0.021475868 0.99437773
-1.0395019 -0.90492183 -0.02100132 0.99450171
-1.039541 -0.8822363 -0.020776367 0.99456042
-1.0395995 -0.86003906 -0.020559654 0.99461699
-1.0396484 -0.83829099 -0.020350417 0.99467158
-1.0396777 -0.81698239 -0.02014881 0.99472427
-1.0397656 -0.77557617 -0.019766236 0.99482417
-1.0398632 -0.71628904 -0.019240912 0.99496138
-1.1187109 -0.70995116 -0.020189704 0.99471354
-1.1834081 -0.70996094 -0.021029204 0.99449444
-1.217832 -0.70995116 -0.02148075 0.9943766
-1.2538183 -0.70996094 -0.021956176 0.99425244
-1.460791 -0.70995116 -0.024749221 0.9935236
-1.5087206 -0.70995116 -0.025408171 0.99335176
-1.77583 -0.70311522 -0.029104233 0.99238837
-1.7758007 -0.67741209 -0.02896183 0.99242544
-1.7757909 -0.6519531 -0.028825568 0.99246097
-14.055469 -3.9879198 -0.22263306 0.94322747
-24.347656 4.6445508 -0.44638923 0.90559518
-21.245731 6.0279589 -0.39772132 0.91543895
-21.168329 6.2944627 -0.39772359 0.91543883
-21.003603 6.8244629 -0.39772835 0.91543835
-20.916435 7.0879588 -0.39773089 0.91543734
-20.825859 7.3502831 -0.39773354 0.9154368
-1.7766405 0.65226561 -0.03408413 0.99245697
-1.7766796 0.6777246 -0.034245566 0.99242145
-1.5592871 0.70994139 -0.03085514 0.99316913
-1.5087109 0.70994139 -0.030028839 0.99335152
-1.4152637 0.70994139 -0.028515015 0.9936856
-1.3719727 0.70994139 -0.027820053 0.99383897
-1.2913867 0.70994139 -0.026539803 0.99412173
-1.2178613 0.70994139 -0.025387306 0.99437624
-1.1834277 0.70994139 -0.024853554 0.99449414
-1.1186913 0.70995116 -0.023861464 0.99471337
-1.0882226 0.70994139 -0.023399696 0.99481535
-1.0589062 0.70994139 -0.022959517 0.99491268
-1.0391601 0.71581054 -0.022724876 0.99496454
-1.039121 0.73519528 -0.022924041 0.99492049
-1.0389941 0.79552734 -0.023566475 0.99477851
-1.0389453 0.81639647 -0.023796311 0.99472779
-1.0388184 0.88160157 -0.02453701 0.994564
-1.0387499 0.90425777 -0.024802398 0.99450547
-11.38582 10.691992 -0.28128698 0.93942577
-11.250712 10.834355 -0.28129125 0.93942505
-11.113837 10.975019 -0.28129548 0.93942428
-10.834795 11.251152 -0.28130424 0.93942273
-10.549004 11.520253 -0.28131324 0.93942076
-10.403604 11.652139 -0.28131783 0.93941957
-10.256484 11.7821 -0.28132245 0.93941885
-10.107822 11.910293 -0.28132716 0.93941766
-9.8056641 12.160956 -0.28133664 0.93941563
-9.4972754 12.403945 -0.28134638 0.93941373
-8.8626947 12.866386 -0.28136647 0.93940949
-8.5369139 13.085556 -0.28137681 0.93940717
-8.3718557 13.191875 -0.28138205 0.93940681
-7.5277538 13.69289 -0.28140888 0.93940091
-7.3552928 13.786767 -0.28141439 0.93939936
-7.0067186 13.967705 -0.28142548 0.93939751
-6.1164646 14.381523 -0.28145391 0.93939167
-5.7533984 14.531377 -0.28146556 0.93938887
-5.5704198 14.602822 -0.28147134 0.93938774
-5.2019334 14.73877 -0.28148317 0.93938541
-5.0163965 14.803262 -0.28148913 0.93938428
-4.8301072 14.865518 -0.28149512 0.93938273
-4.6430273 14.925351 -0.28150111 0.93938154
-4.4990721 15.13039 -0.28427777 0.93880194
-4.4898534 15.82459 -0.2962378 0.93631107
-4.4688768 17.40501 -0.32361937 0.93063331
-4.4288769 20.415274 -0.37621695 0.91982287
-4.4124804 21.649296 -0.39790535 0.91540205
-3.5967577 21.820723 -0.39827678 0.915326
-3.0473828 21.905067 -0.39829451 0.91532284
-2.2197363 22.005829 -0.39832127 0.91531742
-0.95283198 12.613194 -0.22780074 0.95065433
-1.1114062 22.0916 -0.39835706 0.91530997
-0.83373046 22.104414 -0.39836609 0.91530782
7.6163864 23.440762 -0.44387344 0.90610117
7.6071386 22.448456 -0.42686352 0.90953225
7.5985446 21.529247 -0.41116858 0.91270906
7.8925486 20.690224 -0.39880618 0.91521865
8.9219236 20.26705 -0.39879647 0.91522062
9.175849 20.153193 -0.39879405 0.91522115
9.4283495 20.036289 -0.39879164 0.91522121
10.422812 19.536621 -0.39878231 0.9152239
10.6675 19.404121 -0.39878002 0.91522384
10.910332 19.26828 -0.39877772 0.91522491
11.151621 19.129677 -0.39877549 0.91522485
11.391074 18.987919 -0.39877322 0.91522527
11.571084 16.798271 -0.36737579 0.92163628
7.7491894 10.952665 -0.24161892 0.94773918
7.8158007 10.7575 -0.23947035 0.94819349
8.0210257 10.753144 -0.2416106 0.94774538
11.48957 11.346054 -0.29080725 0.93744177
11.48582 11.060752 -0.28716874 0.93819916
11.436377 10.739453 -0.28253853 0.93916523
11.431787 9.9515133 -0.27295682 0.94116604
11.736718 9.2225971 -0.26881918 0.9420315
1.2699609 0.89850587 -0.028016357 0.99379563
1.2700683 0.85150391 -0.027537765 0.99390131
1.2700976 0.82860351 -0.02731079 0.99395144
1.2701855 0.78386718 -0.026880188 0.99404645
1.2702246 0.76202148 -0.026676483 0.99409151
1.3307323 0.70995116 -0.027162705 0.9939841
1.3719727 0.70994139 -0.027820243 0.99383897
1.4152637 0.70995116 -0.028514899 0.9936856
1.5087109 0.70994139 -0.0300288 0.99335152
1.6692969 0.70995116 -0.032668799 0.99276912
1.8611425 0.70996094 -0.035873029 0.99206257
1.9998339 0.70582032 -0.038192596 0.99155158
1.999707 0.64973629 -0.037866324 0.99162346
21.16371 6.5836425 -0.39915815 0.91514683
21.245508 6.3174119 -0.39917237 0.91514403
21.323944 6.0501561 -0.39918646 0.91514122
21.539101 5.2426953 -0.39922836 0.91513264
21.604023 4.971797 -0.39924219 0.91512984
21.665575 4.7001071 -0.39925596 0.91512692
22.656689 4.0275974 -0.41442686 0.91204816
22.564569 -4.01124 -0.41274247 0.91238958
21.778467 -4.1544824 -0.39928833 0.9151209
21.724413 -4.427783 -0.39928687 0.91512138
21.667061 -4.7004395 -0.39928532 0.91512132
21.474199 -5.5136619 -0.39927992 0.91512251
21.328739 -6.0515232 -0.39927578 0.91512299
1.7931347 -0.70996094 -0.034731749 0.99231416
1.7293164 -0.70996094 -0.033665732 0.99254918
1.6692773 -0.70995116 -0.032668799 0.99276918
1.6127148 -0.70994139 -0.031733435 0.99297541
1.5592871 -0.70996094 -0.03085514 0.99316907
1.5087206 -0.70995116 -0.03002861 0.99335146
1.460791 -0.70996094 -0.029249953 0.9935233
1.4152637 -0.70995116 -0.028514823 0.9936856
1.270332 -0.71929687 -0.026289977 0.99417675
1.2702832 -0.74050778 -0.026479758 0.99413484
1.2702246 -0.76203126 -0.026676521 0.99409151
1.2701855 -0.78387696 -0.026880341 0.99404645
1.2701563 -0.80606443 -0.027091675 0.99399972
1.2700098 -0.87481445 -0.02777298 0.9938494
1.2699511 -0.89851558 -0.028016547 0.99379563
1.2699121 -0.92264646 -0.028269157 0.99373984
1.2698632 -0.94721675 -0.028530806 0.99368209
4.8925781 -4.0475097 -0.11435531 0.9749167
11.063076 -9.3888426 -0.26131538 0.9436031
11.06663 -9.6336575 -0.26423928 0.94299066
4.5023828 -4.0199509 -0.10870056 0.97614193
11.046123 -11.18581 -0.28311759 0.93904412
3.8602245 -4.008584 -0.10022281 0.9779821
3.502666 -3.9230371 -0.094713666 0.97917968
3.4299803 -3.9402051 -0.094079666 0.97931755
6.9243064 -8.587554 -0.19866794 0.95682687
6.9213767 -8.8081732 -0.20174293 0.9561733
2.9827244 -3.9987206 -0.089841418 0.98024011
14.026513 -20.363003 -0.4453069 0.90581369
13.774599 -20.545191 -0.44546857 0.90578073
13.537393 -20.750479 -0.44619477 0.90563446
13.011143 -21.08329 -0.44617805 0.90563798
12.74499 -21.244776 -0.44616839 0.90563941
12.476719 -21.402748 -0.44615984 0.90564156
1.9594824 -3.9062109 -0.078702465 0.98266858
1.9132227 -3.9366992 -0.078826062 0.98264164
7.213623 -15.329795 -0.30511773 0.93446612
5.8447361 -12.837021 -0.25402075 0.94513357
5.4247751 -12.755205 -0.24962401 0.94605702
5.8514938 -15.938272 -0.30577117 0.93433064
5.0429001 -16.210859 -0.30574524 0.93433565
4.6337204 -16.331703 -0.3057321 0.93433863
4.4280567 -16.388437 -0.30572549 0.93433946
4.0146189 -16.493662 -0.30571222 0.9343428
3.5987401 -16.588671 -0.30569881 0.93434536
3.3899024 -16.632256 -0.30569211 0.93434662
0.75593746 -3.9628124 -0.072654001 0.98398983
2.9707325 -16.71143 -0.30567858 0.93434948
2.5497167 -16.780024 -0.30566502 0.93435246
0.5427441 -3.9013867 -0.070937499 0.98436511
0.49051756 -3.8830175 -0.070485644 0.98446393
0.44220701 -3.8932323 -0.070564881 0.98444664
1.4909081 -16.905102 -0.3056308 0.93435961
1.2783105 -16.922157 -0.30562392 0.93436092
1.0655469 -16.936562 -0.30561703 0.93436211
0.85260743 -16.948164 -0.30561018 0.93436384
0.099560544 -3.9616308 -0.071368143 0.98427093
-0.10338867 -8.2272215 -0.14817771 0.96761906
-0.31020507 -8.2244673 -0.14822204 0.96760958
-2.0079784 -22.768101 -0.4116267 0.91261542
-2.2938769 -22.740601 -0.41161743 0.91261715
-2.8644726 -22.67458 -0.4115988 0.91262156
-3.1491308 -22.636503 -0.41158956 0.91262263
-3.4332519 -22.59454 -0.41158029 0.91262484
-0.70495117 -3.9656055 -0.072536848 0.98401541
-0.75242186 -3.9443748 -0.072316051 0.98406374
-4.5637498 -22.391415 -0.41154343 0.91263258
-0.9472363 -3.8916211 -0.07213112 0.9841041
-1.045205 -3.8683398 -0.072164036 0.984097
-6.5567188 -22.050322 -0.41429567 0.9120751
-7.1084862 -21.877626 -0.41427767 0.91207874
-7.3826952 -21.786127 -0.41426852 0.91208047
-7.6556931 -21.691166 -0.41425949 0.91208231
-8.197998 -21.490927 -0.41424185 0.91208619
-7.1189551 -17.980444 -0.34827083 0.9255507
-7.4951563 -17.623251 -0.34489414 0.92624551
-7.673955 -17.432119 -0.34301329 0.92663246
-8.014101 -17.030878 -0.3389765 0.92746413
-8.1745996 -16.81999 -0.33679709 0.92791319
-8.3311424 -16.607939 -0.3346186 0.92836183
-8.4810839 -16.389692 -0.33234462 0.9288314
-8.6276464 -16.171713 -0.33009672 0.92929524
-9.3789549 -16.088823 -0.33538672 0.92820376
-10.204014 -16.078911 -0.34295702 0.92664367
-10.774873 -16.071014 -0.34845874 0.92551249
-11.067236 -16.066851 -0.35135397 0.92491692
-11.667812 -16.059355 -0.35749435 0.92365676
-11.977451 -16.057289 -0.36076826 0.92298484
-12.615703 -16.054785 -0.36771995 0.92156041
-12.8171 -15.89582 -0.36774597 0.92155653
-12.895947 -15.588564 -0.36435929 0.92225027
-12.959883 -15.270967 -0.36071673 0.92299724
-13.122393 -14.330629 -0.34994385 0.92520803
-13.231757 -14.090415 -0.34811142 0.92558485
-13.468779 -13.639126 -0.3452175 0.92618001
-13.585107 -13.415478 -0.34385124 0.92646122
-13.813682 -12.971933 -0.34127498 0.92699152
-1.0387597 -0.90425777 -0.024802092 0.99450541
-1.0388477 -0.85942382 -0.02428112 0.99462062
-1.0389062 -0.8376953 -0.0240345 0.9946751
-1.0389453 -0.81640625 -0.023796311 0.99472773
-1.039121 -0.73520505 -0.022924155 0.99492049
-1.0882128 -0.70994139 -0.023399848 0.99481535
-1.1504102 -0.70995116 -0.024345551 0.99460638
-1.217832 -0.70995116 -0.025387306 0.9943763
-1.2538183 -0.70996094 -0.025948485 0.99425215
-1.3307421 -0.70994139 -0.027162742 0.9939841
-1.4152539 -0.70995116 -0.028515128 0.9936856
-1.5087206 -0.70995116 -0.030028991 0.99335146
-1.7293066 -0.70995116 -0.033666074 0.99254924
-1.7766405 -0.6777246 -0.034245107 0.99242157
-1.7766309 -0.65226561 -0.034084167 0.99245703
-21.096924 -6.5628905 -0.39790064 0.91540295
-14.036533 -3.7926171 -0.26186225 0.94349051
-21.399443 -5.494463 -0.3978897 0.91540509
-21.591055 -4.6839356 -0.39788264 0.91540617
-21.701651 -4.1398044 -0.3978785 0.91540724
-21.751659 -3.8667188 -0.39787653 0.91540837
-24.452314 -3.4017479 -0.44461071 0.90595359
-24.103418 -0 -0.50088596 0.90806937
-24.086172 0.90844727 -0.50088555 0.90806979
-24.055868 1.5134569 -0.5008859 0.90806931
-24.034931 1.8156152 -0.50088632 0.90806943
-24.010244 2.1175001 -0.50088674 0.90806931
-23.873642 3.3212206 -0.5008899 0.9080689
-23.731787 4.2187204 -0.50089353 0.90806782
-23.67704 4.5166111 -0.50089496 0.90806735
-22.677607 4.6220508 -0.4809444 0.91156232
-21.216396 4.6026368 -0.45114699 0.91680694
-18.82663 4.5824609 -0.40265426 0.92540675
-18.349531 5.4562793 -0.39781585 0.92626882
-18.279501 5.6864352 -0.39781788 0.92626888
-18.206709 5.9157128 -0.39782 0.92626846
-18.131054 6.1440721 -0.39782223 0.92626798
-1.7775097 0.6780566 -0.039534073 0.99241745
-1.7293164 0.70994139 -0.038846511 0.99254882
-1.5592871 0.70994139 -0.035603445 0.99316877
-1.5087109 0.70994139 -0.034649964 0.99335116
-1.4607714 0.70995116 -0.033750992 0.99352306
-1.2537891 0.70994139 -0.029941788 0.99425203
-1.1834277 0.70994139 -0.028678169 0.99449384
-1.1186913 0.70995116 -0.027533416 0.99471307
-1.0882226 0.70994139 -0.027001075 0.99481505
-1.0589062 0.70994139 -0.026492767 0.99491239
-1.0384864 0.71532226 -0.026204415 0.99496758
-1.0384277 0.734707 -0.026434211 0.99492359
-1.0383594 0.75444335 -0.026672134 0.99487805
-1.0382812 0.79497069 -0.027174262 0.99478185
-1.0381738 0.83710933 -0.027713507 0.99467856
-1.0381153 0.85880858 -0.027997855 0.99462414
-1.0379297 0.92671871 -0.028915176 0.99444848
-1.0378613 0.95037109 -0.029243583 0.9943856
-9.8690424 9.2676363 -0.28133768 0.9472757
-9.7519817 9.3910837 -0.28134134 0.94727474
-9.6333103 9.5129976 -0.2813451 0.94727421
-9.5131741 9.6334572 -0.28134882 0.94727331
-9.3914156 9.7523041 -0.28135261 0.94727302
-9.0176563 10.099844 -0.28136441 0.94727039
-8.8900585 10.212421 -0.28136846 0.94727015
-8.6308784 10.43292 -0.28137663 0.94726855
-8.2318945 10.751288 -0.28138918 0.94726628
-7.5411716 11.247861 -0.28141102 0.94726217
-7.3993845 11.341924 -0.28141555 0.94726127
-5.2456737 8.5001173 -0.20756668 0.96082556
-5.1178904 8.5310249 -0.20673569 0.9609794
-5.0526171 8.6673431 -0.20848343 0.96065611
-6.2245407 12.028867 -0.28145292 0.94725448
-5.7670407 12.255547 -0.2814675 0.94725186
-5.6126757 12.327275 -0.28147241 0.94725096
-5.4574118 12.39704 -0.28147736 0.94725007
-5.3012791 12.464844 -0.2814824 0.94724923
-5.1443653 12.530781 -0.28148741 0.94724798
-4.8279881 12.656465 -0.28149751 0.94724649
-4.5154591 13.897139 -0.30365303 0.94321418
-4.4898534 15.824609 -0.34182662 0.93630773
-4.4568357 18.31041 -0.39161211 0.92737585
-4.2981153 18.676661 -0.3982574 0.92618996
-4.0631542 18.729521 -0.39826494 0.92618871
-3.3545506 18.870419 -0.39828777 0.92618471
-2.8793848 18.949423 -0.39830309 0.92618221
-2.1632519 19.045586 -0.39832622 0.9261781
-0.95283198 12.613183 -0.2628575 0.95065182
-1.2036718 19.131739 -0.39835724 0.92617244
-0.96318358 19.145702 -0.39836502 0.92617118
-0.72253907 19.15661 -0.3983728 0.92616999
-0.49740234 19.787119 -0.41131818 0.92386383
-0.30334961 24.13747 -0.50163198 0.90793878
0 24.13994 -0.50164181 0.90793669
0.60667968 24.133144 -0.50166154 0.90793371
0.90989256 24.124159 -0.50167137 0.90793175
1.2129883 24.111084 -0.50168121 0.90793073
2.120996 24.049902 -0.50171071 0.90792471
3.9270313 23.824413 -0.50176948 0.90791506
4.5246873 23.719151 -0.50178903 0.9079116
4.8224802 23.660957 -0.50179869 0.90790957
5.4157519 23.533106 -0.50181806 0.90790659
5.7111621 23.46372 -0.50182772 0.90790462
6.0056739 23.390507 -0.50183737 0.90790308
6.8833885 23.148876 -0.5018661 0.90789801
7.6018457 22.432852 -0.49220836 0.90958756
7.5895019 21.503622 -0.4738732 0.91280383
7.5695605 20.617842 -0.45641685 0.91587734
7.5610156 19.821064 -0.44084549 0.9186269
7.554492 19.080498 -0.42645279 0.92117608
7.5483885 18.3866 -0.413032 0.92355943
7.5426364 17.734932 -0.40049121 0.9257921
7.7323437 17.564766 -0.39880931 0.92609155
7.9523339 17.465996 -0.39880726 0.92609245
8.1711426 17.36458 -0.39880514 0.92609286
8.388711 17.260527 -0.39880314 0.92609286
8.819726 17.044071 -0.39879906 0.9260937
9.0332031 16.931904 -0.39879707 0.92609364
9.4556932 16.699287 -0.3987931 0.92609477
10.078252 16.33078 -0.39878726 0.92609584
10.485371 16.072226 -0.39878348 0.92609644
7.8126659 10.753174 -0.27620995 0.94821107
8.0185642 10.749873 -0.27871335 0.94775814
11.50126 12.247568 -0.34916034 0.93498993
11.436377 10.739463 -0.32601464 0.93916202
11.431416 9.701416 -0.31156066 0.94177812
1.2689941 0.94656247 -0.032898635 0.99368608
1.269043 0.92201167 -0.032597084 0.99374384
1.2691113 0.89791012 -0.032306176 0.99379945
1.2691699 0.8742187 -0.032025259 0.99385315
1.2692676 0.82805663 -0.031492844 0.99395508
1.2693164 0.8055371 -0.03124054 0.99400336
1.269375 0.78336912 -0.030996894 0.99404997
1.2914063 0.70993161 -0.030623931 0.99412137
1.3307323 0.70995116 -0.031342849 0.99398381
1.4152637 0.70995116 -0.032903176 0.99368525
1.5087109 0.70994139 -0.034650002 0.99335116
1.6127441 0.70994139 -0.036617089 0.99297494
1.6692969 0.70995116 -0.037695959 0.9927687
1.8611425 0.70996094 -0.04139366 0.99206209
2.0019238 0.70656246 -0.04411621 0.99154234
2.0018554 0.67837888 -0.043923378 0.99157912
2.0018065 0.65041989 -0.043739203 0.99161428
18.338758 5.7048731 -0.39910632 0.92603892
18.54245 5.010078 -0.39914298 0.92603236
18.604404 4.7767868 -0.39915511 0.92603064
18.663622 4.5427928 -0.39916718 0.92602807
18.719921 4.3080664 -0.39917913 0.92602545
23.856161 3.9322557 -0.50243688 0.90779823
23.903828 3.6321971 -0.50243878 0.90779769
23.947723 3.3315625 -0.50244051 0.90779716
24.023886 2.7286816 -0.50244361 0.90779716
24.056278 2.4265819 -0.50244498 0.90779716
24.084999 2.1240919 -0.50244623 0.90779674
24.148241 1.214834 -0.50244927 0.90779561
24.1616 0.91129881 -0.50244999 0.90779561
24.176865 0.30381835 -0.50245118 0.90779567
24.161728 -0.91131836 -0.50245196 0.90779519
24.148369 -1.2148633 -0.50245184 0.90779519
24.13121 -1.5182129 -0.5024516 0.90779513
24.110086 -1.8213183 -0.5024513 0.90779561
24.085283 -2.1241307 -0.50245076 0.90779567
24.056679 -2.4266307 -0.50245017 0.90779573
24.024296 -2.7287304 -0.50244945 0.90779567
23.856445 -3.9323144 -0.50244528 0.90779716
19.479794 -3.9702928 -0.41312438 0.92354268
18.773056 -4.0725975 -0.39919078 0.92602366
18.72039 -4.3081837 -0.39918932 0.92602366
18.664677 -4.5430665 -0.39918777 0.92602402
2.0018065 -0.65041989 -0.043739319 0.99161428
2.0018456 -0.67837888 -0.043923605 0.99157917
2.0019336 -0.70656246 -0.0441164 0.99154228
1.8611425 -0.70994139 -0.04139366 0.99206215
1.7293164 -0.70996094 -0.03884678 0.99254876
1.460791 -0.70996094 -0.033751145 0.99352294
1.4152637 -0.70995116 -0.032902945 0.99368525
1.3719823 -0.70995116 -0.032101478 0.99383861
1.3307421 -0.70994139 -0.031342886 0.99398375
1.2914063 -0.70994139 -0.030623779 0.99412131
1.2695019 -0.71884763 -0.030316656 0.99418014
1.2694043 -0.7615332 -0.030761985 0.99409497
1.269375 -0.7833789 -0.030996971 0.99404991
1.2693164 -0.8055371 -0.031240616 0.99400336
1.2692676 -0.82805663 -0.031492844 0.99395508
1.2689941 -0.94656247 -0.032898713 0.99368608
5.0333591 -3.9551756 -0.13302512 0.97471398
16.253487 -15.263066 -0.46333939 0.91465753
16.021357 -15.428495 -0.46221262 0.91485596
11.043036 -10.905142 -0.32253027 0.93979508
3.8598437 -4.0081835 -0.11563358 0.97798306
7.7981348 -8.304184 -0.23672637 0.95544642
7.6037693 -8.3038912 -0.23397633 0.95595258
3.502666 -3.9230371 -0.10928856 0.97917861
3.3931055 -3.9981933 -0.10897186 0.97923833
6.9243164 -8.5875483 -0.22923975 0.9568246
6.9147754 -9.0310841 -0.23636468 0.95551288
2.9784179 -3.9929588 -0.10351738 0.98026723
12.41372 -17.086073 -0.43888086 0.918975
12.19833 -17.241093 -0.4388887 0.91897327
6.4362402 -10.141904 -0.24961379 0.95307893
6.2080369 -10.348271 -0.25077182 0.95286626
2.3229101 -3.9847949 -0.095848843 0.9817155
7.2510934 -12.805844 -0.30581322 0.94282204
1.9132421 -3.9367089 -0.090956688 0.98264062
5.7756543 -12.685292 -0.28964585 0.94576132
5.5243945 -12.549213 -0.28493252 0.94662017
5.3634863 -12.611103 -0.28478324 0.94664711
1.5158496 -3.9737792 -0.088381268 0.98312795
4.5462794 -13.992041 -0.3057268 0.94283772
4.0154591 -14.152646 -0.30570975 0.94284087
3.8372362 -14.201743 -0.30570403 0.94284183
3.6584179 -14.248506 -0.30569828 0.94284308
3.1186035 -14.375439 -0.30568087 0.9428463
0.75706053 -3.9687402 -0.083959803 0.98396528
0.5427441 -3.9013867 -0.081854172 0.98436427
0.49051756 -3.8830175 -0.081332736 0.9844631
0.44220701 -3.8932323 -0.081423722 0.98444581
1.1078125 -14.665005 -0.30561599 0.94285774
0.9234277 -14.677431 -0.30561003 0.94285899
0.73887694 -14.687549 -0.30560407 0.94286025
0.55424803 -14.695419 -0.30559808 0.9428612
0.049707029 -3.9561815 -0.082218476 0.98429525
-9.7656248e-06 -3.9602439 -0.082296595 0.98428047
-0.51613277 -8.2037544 -0.17081611 0.96764791
-1.4921386 -19.752588 -0.41164023 0.92380655
-1.7401953 -19.731831 -0.41163215 0.92380822
-2.4825194 -19.651108 -0.41160801 0.92381239
-2.9754393 -19.581728 -0.41159195 0.92381531
-3.22124 -19.542446 -0.41158393 0.92381662
-0.75364256 -3.9507322 -0.083579555 0.9840374
-4.1987109 -19.354361 -0.41155204 0.92382252
-4.441504 -19.299736 -0.41154411 0.92382377
-4.9868259 -17.576172 -0.37966019 0.92951208
-5.1597557 -17.352308 -0.37619677 0.93013233
-5.9873729 -16.308306 -0.36101687 0.93285483
-6.1483202 -16.117701 -0.35847721 0.93331063
-6.3756738 -16.103106 -0.35990784 0.93305391
-6.8471971 -16.099741 -0.36356357 0.93239725
-7.0879393 -16.100962 -0.36557373 0.93203646
-8.5879002 -16.097216 -0.3791388 0.92960554
-8.8481741 -16.09473 -0.38167134 0.92915279
-9.6499901 -16.085678 -0.38981041 0.9276979
-9.9249315 -16.082373 -0.39271918 0.92717808
-11.067236 -16.066851 -0.40542439 0.92491305
-11.713232 -16.121923 -0.41411987 0.9233672
-11.914736 -15.973256 -0.41411316 0.92336816
-12.171845 -15.489907 -0.4093875 0.92420894
-12.425185 -14.273422 -0.39325985 0.92708302
-12.785459 -13.615151 -0.38813272 0.92799848
-12.881298 -13.376338 -0.38591009 0.92839587
-13.100771 -12.615981 -0.37796032 0.92981786
-13.170088 -12.367549 -0.37544557 0.93026793
-1.0378711 -0.95037109 -0.029243849 0.99438554
-1.0380077 -0.90360349 -0.02859848 0.9945091
-1.0380566 -0.88095701 -0.02829258 0.99456769
-1.0380957 -0.85880858 -0.027998047 0.9946242
-1.0383399 -0.77451169 -0.026918754 0.99483073
-1.0384375 -0.73471677 -0.026434174 0.99492353
-1.0589062 -0.70996094 -0.026492691 0.99491233
-1.217832 -0.70995116 -0.029294014 0.994376
-1.2538183 -0.70996094 -0.029942015 0.99425185
-1.460791 -0.70995116 -0.033751298 0.99352294
-1.5087206 -0.70995116 -0.034649812 0.9933511
-1.5592675 -0.70995116 -0.035603561 0.99316883
-1.6692871 -0.70995116 -0.037696037 0.99276876
-1.7774999 -0.6780566 -0.039534073 0.99241751
-1.7774707 -0.65256834 -0.039347913 0.9924531
-18.060528 -6.3742771 -0.39799893 0.92623609
-18.139111 -6.1467967 -0.39799613 0.92623645
-14.047041 -3.9855077 -0.30342838 0.94325501
-18.715946 -4.0602245 -0.39797518 0.92624015
-18.765409 -3.8246973 -0.39797333 0.92624044
-18.811749 -3.5885448 -0.3979716 0.9262414
-19.544569 -3.4743848 -0.41251865 0.92365092
-20.927275 -3.4494727 -0.44075149 0.91864365
-22.54875 -3.4262793 -0.47395906 0.91278946
-23.874062 -3.3212988 -0.50089699 0.90806735
-23.913925 -3.021045 -0.50089538 0.90806729
-23.949854 -2.7202735 -0.50089389 0.90806782
-24.035107 -1.8156347 -0.50089014 0.90806878
-24.055996 -1.5134765 -0.50088918 0.9080689
-21.270809 -9.7656248e-06 -0.50097787 0.91841418
-21.264091 0.53453124 -0.50097752 0.91841418
-21.255703 0.80168945 -0.50097746 0.91841412
-21.228838 1.335586 -0.50097775 0.91841418
-21.210381 1.6022558 -0.50097811 0.91841412
-21.163418 2.1347754 -0.50097907 0.91841412
-21.134912 2.400537 -0.50097966 0.91841418
-21.103075 2.6659276 -0.50098044 0.91841418
-21.067919 2.9308984 -0.50098133 0.91841418
-21.029629 3.1954393 -0.50098228 0.9184134
-20.894365 3.985791 -0.5009858 0.91841298
-20.842733 4.248076 -0.50098717 0.91841257
-18.776358 4.5702343 -0.45514014 0.92559391
-17.76334 4.5608497 -0.4319416 0.92924917
-16.252138 4.6111522 -0.39788476 0.93464053
-16.192997 4.8150196 -0.39788643 0.93464023
-16.13122 5.0181446 -0.39788824 0.93464017
-16.066875 5.220449 -0.39789012 0.93464023
-16.000166 5.4219728 -0.39789206 0.93463963
-15.930849 5.6226368 -0.39789408 0.93463928
-1.7783301 0.65287107 -0.0446175 0.99244899
-1.7783495 0.67838866 -0.044828679 0.9924134
-1.7293164 0.70994139 -0.044028014 0.99254835
-1.6692871 0.70995116 -0.042723693 0.99276829
-1.5592871 0.70994139 -0.040352132 0.99316835
-1.5087109 0.70994139 -0.039271466 0.99335074
-1.4152637 0.70994139 -0.03729187 0.99368489
-1.3719727 0.70994139 -0.036383208 0.99383825
-1.2913867 0.70994139 -0.034708593 0.99412102
-1.2537891 0.70994139 -0.033935394 0.99425167
-1.1834277 0.70994139 -0.032503244 0.99449354
-1.1503808 0.70995116 -0.03183876 0.99460584
-1.0589062 0.70994139 -0.03002632 0.99491209
-1.0376562 0.75390625 -0.030209236 0.99488127
-1.0372363 0.90292966 -0.032389257 0.99451286
-1.0371875 0.92603511 -0.032747839 0.99445218
-8.9358587 8.3912983 -0.28871071 0.95213693
-8.5008106 8.394619 -0.28138301 0.95332283
-8.3947067 8.5008688 -0.28138629 0.95332241
-8.2873726 8.6058197 -0.28138962 0.95332164
-8.1786518 8.7093649 -0.28139311 0.95332122
-8.0686426 8.811533 -0.28139657 0.9533208
-7.9574118 8.9123535 -0.28140005 0.95332009
-7.8448629 9.0117483 -0.2814036 0.95331961
-7.731113 9.1097555 -0.28140715 0.95331895
-7.6161132 9.2062693 -0.28141075 0.95331848
-7.3825779 9.3950386 -0.28141817 0.95331711
-7.2639937 9.4871874 -0.28142193 0.95331663
-6.9015427 9.7546091 -0.28143343 0.95331478
-6.7785058 9.8406639 -0.28143728 0.9533143
-6.6544333 9.9252539 -0.28144121 0.95331347
-6.5292869 10.008252 -0.28144515 0.9533127
-5.2456932 8.5001268 -0.23525156 0.96082312
-5.1179099 8.5310841 -0.2343111 0.96097684
-5.8884373 10.399267 -0.28146553 0.95330924
-5.7573242 10.4725 -0.2814697 0.953309
-5.625371 10.544229 -0.2814739 0.95330811
-5.4924707 10.614199 -0.28147814 0.95330763
-5.0887594 10.81414 -0.28149107 0.9533056
-4.5359473 12.354932 -0.3099789 0.94870281
-4.5227733 13.346581 -0.3319023 0.94517618
-4.5154591 13.897139 -0.34415543 0.94321078
-4.4898534 15.824609 -0.38741839 0.93630391
-4.4106541 16.323984 -0.39825621 0.93458176
-3.9992187 16.430254 -0.3982695 0.93457943
-3.7925 16.47954 -0.39827612 0.93457818
-3.3772655 16.570059 -0.39828947 0.93457663
-3.168828 16.611532 -0.39829621 0.93457532
-2.3303418 16.750946 -0.39832324 0.93457085
-1.6974316 16.827627 -0.39834368 0.93456805
-1.0620313 16.880596 -0.39836425 0.93456447
-0.49092773 19.528906 -0.460098 0.92481464
-9.7656248e-06 21.29912 -0.50164485 0.91831011
0.80280274 21.285069 -0.5016709 0.91830617
