# .PCD v0.7 - Point Cloud Data file format
VERSION 0.7
FIELDS x y z intensity
SIZE 4 4 4 4
TYPE F F F F
COUNT 1 1 1 1
WIDTH 1083
HEIGHT 1
VIEWPOINT 0 0 0 1 0 0 0
POINTS 1083
DATA ascii
1.8122168 -5.5774803 -0.39865842 0.97676212
1.6714453 -5.6211619 -0.3986524 0.97676253
1.5296484 -5.6612988 -0.39864627 0.97676289
0.84923828 -3.9147167 -0.27230534 0.98406821
0.74768555 -3.9196777 -0.27125663 0.98412907
0.71000975 -3.9942186 -0.27577627 0.98386675
0.88088864 -5.7973633 -0.39861837 0.97676444
0.80795896 -5.8079295 -0.39861521 0.97676462
0.58846676 -5.8341208 -0.39860573 0.97676516
0.36815429 -5.8520117 -0.39859623 0.97676569
0.22096679 -5.8593359 -0.39858985 0.97676605
0.14733398 -5.8615918 -0.39858669 0.97676623
0.073642574 -5.8629394 -0.39858353 0.97676641
-2.9296874e-05 -5.8633494 -0.39858031 0.97676665
-0.073701173 -5.8628416 -0.39857712 0.97676682
-0.14735352 -5.8614063 -0.39857394 0.976767
-0.22101562 -5.8590331 -0.39857075 0.97676718
-0.29460937 -5.8557715 -0.39856759 0.9767673
-0.36816406 -5.8515525 -0.39856437 0.97676754
-0.51509762 -5.8403611 -0.39855799 0.97676784
-0.73485351 -5.8166699 -0.39854845 0.97676837
-0.80785155 -5.8069043 -0.3985453 0.97676867
-0.60472655 -3.9796875 -0.27363607 0.98399091
-0.64269531 -3.8988867 -0.26861477 0.98428231
-0.69029295 -3.8830273 -0.26809981 0.9843123
-0.74285156 -3.8940332 -0.26948166 0.98423201
-1.2429199 -5.7292871 -0.39852637 0.97676975
-1.3148242 -5.7131834 -0.39852324 0.97676986
-1.5291699 -5.6594238 -0.39851394 0.97677046
-1.8115234 -5.5752735 -0.3985016 0.97677118
-1.9510254 -5.5279102 -0.39849553 0.97677147
-2.0203321 -5.5029197 -0.39849249 0.97677165
-2.157959 -5.4503222 -0.39848652 0.97677201
-2.2262695 -5.4227538 -0.39848348 0.97677207
-2.294209 -5.3942966 -0.39848056 0.97677231
-2.3617675 -5.3649998 -0.39847758 0.97677255
-2.4289942 -5.3348532 -0.39847463 0.97677273
-2.4958301 -5.3038769 -0.39847171 0.97677284
-2.5622754 -5.2720604 -0.39846882 0.97677296
-2.6282909 -5.2394137 -0.3984659 0.97677314
-2.1874609 -3.8631444 -0.30178571 0.98235863
-2.2745116 -3.9017284 -0.30700895 0.98205608
-3.0153711 -5.0263085 -0.39844894 0.97677416
-3.1406834 -4.9488964 -0.39844343 0.97677445
-3.4451075 -4.7417674 -0.39843002 0.97677523
-3.5631249 -4.6536231 -0.39842483 0.97677559
-3.6212988 -4.6084571 -0.39842227 0.97677571
-3.6789062 -4.5625782 -0.39841971 0.97677577
-3.7359276 -4.5159473 -0.3984172 0.97677594
-3.8481834 -4.4205956 -0.39841223 0.97677618
-3.9034081 -4.3718357 -0.39840978 0.97677642
-4.011992 -4.2723145 -0.39840499 0.97677666
-4.1180468 -4.1701074 -0.39840031 0.9767769
-4.2214746 -4.0652442 -0.39839572 0.97677726
-1.0251074 -0.91525388 -0.093419299 0.99450552
-1.0253124 -0.8925488 -0.092408292 0.99456477
-1.0258887 -0.82718748 -0.08958324 0.99473041
-1.0260644 -0.80625975 -0.088706546 0.99478185
-1.0262109 -0.78573239 -0.087860487 0.99483156
-1.0263965 -0.76559567 -0.087043874 0.99487942
-1.0265527 -0.74583983 -0.086255416 0.99492562
-1.0882422 -0.70994139 -0.088326454 0.9948042
-1.1504102 -0.70994139 -0.091895178 0.99459481
-1.1834375 -0.70995116 -0.09381298 0.99448234
-1.2538183 -0.70995116 -0.09794689 0.99423987
-1.2914159 -0.70995116 -0.10017788 0.99410903
-1.3720019 -0.70995116 -0.10501125 0.99382567
-1.4152832 -0.70994139 -0.10763343 0.99367201
-1.5087304 -0.70995116 -0.11334785 0.99333721
-1.5593066 -0.70995116 -0.11646709 0.99315447
-1.6127539 -0.70995116 -0.11978252 0.99296021
-1.7293359 -0.70995116 -0.12707686 0.99253321
-1.7921581 -0.68365234 -0.13038985 0.99233925
-1.7920605 -0.65792966 -0.12977058 0.99237549
-7.0424414 -2.1907811 -0.50136143 0.97086346
-7.0693846 -2.1021094 -0.50136018 0.97086358
-7.0952635 -2.0131152 -0.50135899 0.97086352
-7.1199512 -1.923789 -0.50135785 0.9708637
-7.1660352 -1.7442578 -0.50135565 0.97086376
-7.1873631 -1.6540527 -0.50135463 0.97086388
-7.2075486 -1.5636035 -0.50135368 0.970864
-7.2266212 -1.4729102 -0.50135273 0.970864
-7.2613378 -1.2908398 -0.50135106 0.97086406
-7.3048143 -1.0162402 -0.50134885 0.97086412
-7.3169823 -0.92435545 -0.50134826 0.97086424
-7.3280272 -0.83233398 -0.50134766 0.97086424
-7.3378906 -0.74019527 -0.50134712 0.9708643
-7.3541503 -0.55554688 -0.50134623 0.97086436
-7.360527 -0.46308592 -0.50134587 0.97086447
-7.3727636 -0.18534179 -0.50134504 0.97086442
-7.3745117 -0.092675783 -0.50134486 0.97086442
-7.0845699 0.089013673 -0.5013572 0.97198844
-7.0829 0.17803711 -0.5013572 0.97198838
-7.0801072 0.26703125 -0.5013572 0.97198838
-7.0711522 0.44485351 -0.50135744 0.97198844
-7.0650196 0.53368163 -0.50135761 0.97198838
-7.057744 0.62243164 -0.50135779 0.97198838
-7.0493751 0.71107417 -0.50135803 0.97198838
-6.9424801 1.4149706 -0.50136197 0.97198814
-6.9047556 1.5889941 -0.5013634 0.97198802
-6.8162303 1.9339257 -0.50136685 0.97198784
-6.7385349 2.1894727 -0.50136995 0.97198772
-6.7104979 2.2739747 -0.50137109 0.97198766
-1.7929296 0.65825194 -0.13515003 0.99237037
-1.7930175 0.68396485 -0.13579498 0.99233419
-1.7293261 0.70994139 -0.13228072 0.99253178
-1.5592968 0.70995116 -0.12123668 0.99315315
-1.3719921 0.70994139 -0.1093116 0.99382454
-1.3307519 0.70994139 -0.10672825 0.99397004
-1.2914159 0.70994139 -0.10428013 0.9941079
-1.2538378 0.70994139 -0.1019577 0.99423873
-1.2178613 0.70995116 -0.09975189 0.99436313
-1.0882324 0.70995116 -0.091943435 0.99480319
-1.0589355 0.70994139 -0.09021274 0.9949007
-1.0260156 0.72591794 -0.088936232 0.99497271
-1.0258691 0.74531251 -0.089727059 0.99492812
-1.0257128 0.76506835 -0.090546913 0.99488187
-1.0255274 0.78519529 -0.091395646 0.99483407
-1.0253711 0.80569333 -0.092275351 0.99478441
-1.025 0.84791988 -0.094130516 0.99467987
-1.0247949 0.86967772 -0.09510906 0.99462473
-1.02458 0.89189452 -0.09612301 0.99456763
-1.0243847 0.9145996 -0.097173914 0.99450833
-1.0241601 0.93780273 -0.098263547 0.99444693
-5.1656446 4.8508496 -0.50143522 0.97198415
-4.979238 5.0421677 -0.50144303 0.97198367
-4.850996 5.1657519 -0.50144845 0.97198343
-4.6529198 5.3449998 -0.50145686 0.97198302
-4.5854197 5.4030957 -0.50145972 0.97198278
-4.4482422 5.5166798 -0.5014655 0.97198248
-4.3082519 5.6268067 -0.50147146 0.97198212
-4.0931931 5.7852731 -0.50148058 0.97198164
-3.9465818 5.8863864 -0.50148684 0.97198129
-3.8723047 5.9355469 -0.50149 0.97198117
-3.6459277 6.0773926 -0.50149959 0.97198063
-3.5692675 6.1227636 -0.50150293 0.97198051
-3.49208 6.1671872 -0.50150621 0.97198021
-3.0980663 6.3744822 -0.50152302 0.97197938
-2.9369335 6.4504294 -0.50152993 0.9719789
-2.855664 6.4868751 -0.50153339 0.97197872
-2.609199 6.5900292 -0.50154394 0.97197813
-2.5261817 6.622324 -0.50154752 0.97197807
-2.4427831 6.6536036 -0.50155109 0.97197783
-2.3590038 6.6838279 -0.50155467 0.97197759
-2.2748632 6.7129784 -0.5015583 0.97197741
-2.1054688 6.7681346 -0.50156558 0.971977
-1.5897461 6.9078026 -0.50158775 0.9719758
-1.5028125 6.9272852 -0.5015915 0.97197556
-1.4156543 6.9456735 -0.5015952 0.97197539
-1.240664 6.9791598 -0.50160277 0.97197497
-1.1528808 6.9942575 -0.50160652 0.97197473
-1.0649219 7.0082321 -0.50161034 0.97197461
-0.97678709 7.0211229 -0.50161415 0.97197431
-0.8884961 7.0328808 -0.50161797 0.97197419
-0.7114746 7.0531149 -0.5016256 0.97197372
-0.4451367 7.0750875 -0.50163704 0.97197306
-0.26719725 7.0841403 -0.50164479 0.97197264
-0.089111328 7.0887108 -0.50165248 0.97197229
-9.7656248e-06 7.0893359 -0.50165635 0.97197205
0.26719725 7.0844626 -0.50166792 0.97197139
0.3561914 7.080615 -0.50167173 0.97197109
0.53401369 7.0695214 -0.50167942 0.97197074
0.71151364 7.0539942 -0.50168717 0.97197026
0.80010742 7.0445118 -0.50169098 0.9719702
0.88860351 7.0339646 -0.50169486 0.97196996
1.3285351 6.9645605 -0.50171399 0.97196889
1.5031641 6.9290915 -0.50172156 0.97196841
1.5901269 6.9097071 -0.50172532 0.97196823
1.6768359 6.8892384 -0.50172913 0.971968
1.7633106 6.8676562 -0.50173283 0.97196782
1.9353417 6.821279 -0.5017404 0.97196746
2.0209472 6.7964745 -0.50174409 0.97196716
2.3599412 6.686543 -0.50175887 0.97196639
2.5272655 6.6252246 -0.5017662 0.97196597
2.6930077 6.5597067 -0.50177342 0.97196561
2.7752147 6.5253906 -0.50177705 0.97196549
2.9383886 6.4536915 -0.50178415 0.97196501
3.0996583 6.3778906 -0.50179124 0.97196472
3.1795995 6.3384862 -0.50179476 0.97196448
3.2590137 6.2980762 -0.50179821 0.97196424
3.3379393 6.25667 -0.50180167 0.97196406
3.7243359 6.0349317 -0.5018186 0.97196311
3.799912 5.9876952 -0.50182194 0.97196293
3.8748729 5.9395213 -0.50182527 0.97196275
4.0229588 5.8403416 -0.50183171 0.97196239
4.0960546 5.7893553 -0.50183499 0.97196221
4.240293 5.6846581 -0.50184131 0.97196192
4.381875 5.5763865 -0.50184757 0.9719615
4.5890136 5.4073629 -0.50185674 0.97196108
4.6566405 5.3493066 -0.50185966 0.97196084
4.7896485 5.2306542 -0.50186557 0.97196054
4.8550291 5.1700878 -0.50186849 0.97196037
4.9196482 5.1087012 -0.50187135 0.97196019
4.9834571 5.046504 -0.50187415 0.97196013
5.0465231 4.9835057 -0.50187695 0.97195995
5.108789 4.9197264 -0.50187969 0.97195971
5.1702342 4.8551755 -0.50188243 0.97195959
5.2308688 4.7898536 -0.50188512 0.97195941
5.2906542 4.7237692 -0.5018878 0.97195929
5.4077735 4.589375 -0.50189298 0.97195894
5.4650192 4.5210643 -0.50189555 0.97195888
5.6316113 4.3119335 -0.501903 0.97195852
1.2537109 0.9108789 -0.10965812 0.99380505
1.2540722 0.86384761 -0.10775791 0.99391216
1.2545996 0.79620117 -0.10514721 0.99405921
1.2547754 0.77436525 -0.10433701 0.99410474
1.2549024 0.75284177 -0.10355511 0.99414891
1.2551855 0.71074218 -0.10207283 0.99423248
1.2913965 0.70996094 -0.10428032 0.99410796
1.3719434 0.70994139 -0.1093116 0.99382472
1.4607812 0.70995116 -0.11492946 0.99350828
1.5087109 0.70993161 -0.11798931 0.99333602
1.6126952 0.70995116 -0.12468772 0.99295908
1.6692969 0.70995116 -0.12836166 0.99275225
1.7931055 0.70995116 -0.13646843 0.9922964
2.0236914 0.71423829 -0.1518589 0.9914313
2.0237012 0.68578124 -0.15120086 0.99146825
2.0237012 0.65753907 -0.15057243 0.99150366
6.8242283 1.9362109 -0.50195712 0.97195548
6.8707418 1.7641015 -0.50195932 0.97195542
6.8923826 1.677627 -0.50196034 0.97195536
6.9129295 1.5908886 -0.50196129 0.9719553
6.9324021 1.5038965 -0.50196224 0.97195518
6.9507518 1.4166796 -0.50196314 0.97195518
6.999238 1.1536816 -0.50196552 0.97195512
7.0132031 1.0656543 -0.50196624 0.971955
7.0260644 0.9774316 -0.50196689 0.97195494
7.0483985 0.80056638 -0.50196803 0.97195494
7.066328 0.62318361 -0.50196898 0.97195482
7.0797458 0.44540039 -0.50196975 0.97195488
7.0847754 0.35640624 -0.50197011 0.97195488
7.0887203 0.2673535 -0.50197035 0.97195476
7.0915136 0.17826171 -0.50197053 0.97195482
7.0932031 0.089130856 -0.50197071 0.97195476
7.0937595 -1.953125e-05 -0.50197083 0.97195476
7.0887303 -0.26736328 -0.50197095 0.97195476
7.0735836 -0.53436524 -0.50197053 0.97195488
7.0579395 -0.71194333 -0.50197005 0.97195482
7.0484276 -0.80057615 -0.50196975 0.97195482
7.0378122 -0.88910156 -0.50196934 0.97195482
7.0260739 -0.97746092 -0.50196898 0.97195488
6.9992771 -1.1537304 -0.50196797 0.97195488
6.9842381 -1.241582 -0.50196743 0.97195488
6.9508004 -1.4166894 -0.50196618 0.971955
6.9129977 -1.5909277 -0.50196469 0.971955
6.8924313 -1.6776659 -0.50196391 0.97195512
6.870791 -1.7641406 -0.50196308 0.97195518
6.7993751 -2.021826 -0.50196028 0.97195536
2.023711 -0.68578124 -0.15120113 0.99146825
1.7931055 -0.70995116 -0.13646835 0.9922964
1.5592773 -0.70994139 -0.1212363 0.99315327
1.2552148 -0.71074218 -0.10207275 0.99423242
1.2550585 -0.73165035 -0.10280059 0.99419141
1.2547559 -0.77436525 -0.10433704 0.9941048
1.2540624 -0.86385739 -0.10775795 0.99391216
1.2538965 -0.88715816 -0.10869122 0.99385953
1.2535058 -0.93502927 -0.11065987 0.99374866
4.9538865 -3.7930467 -0.4415032 0.97529101
4.1559958 -3.8056445 -0.39875796 0.9776563
4.107832 -3.8575585 -0.39875594 0.97765636
4.0590329 -3.9088476 -0.39875388 0.97765648
3.9594727 -4.0095606 -0.39874968 0.97765678
3.7966893 -3.9426172 -0.38731784 0.97829044
3.7321582 -3.9743946 -0.38579741 0.97837454
3.7095115 -4.0511036 -0.38868994 0.97821426
3.7529297 -4.2033496 -0.39874095 0.97765726
3.6460936 -4.296289 -0.39873642 0.97765744
3.4814746 -4.4305859 -0.39872944 0.97765785
3.4255078 -4.4739552 -0.39872706 0.97765803
3.3690135 -4.5166211 -0.39872468 0.97765809
3.2543945 -4.5998144 -0.39871979 0.97765839
3.1963086 -4.6402926 -0.39871734 0.97765857
3.0191014 -4.7574024 -0.39870977 0.97765887
2.3721678 -3.9542577 -0.32629892 0.9816789
2.2866406 -3.9225683 -0.32128993 0.98195773
2.589375 -5.003994 -0.39869148 0.97765994
2.4627635 -5.0674314 -0.39868605 0.97766024
2.3988867 -5.0979395 -0.39868331 0.97766036
2.3345995 -5.1276364 -0.39868057 0.9776606
2.2699707 -5.1565332 -0.39867777 0.97766072
2.2049706 -5.1846094 -0.39867499 0.97766089
2.1396484 -5.211875 -0.39867222 0.97766101
2.0079589 -5.2639356 -0.39866656 0.97766131
1.8750292 -5.3126364 -0.39866087 0.97766167
1.7408984 -5.3580079 -0.39865512 0.97766197
1.6734179 -5.3794336 -0.39865223 0.97766209
1.6056836 -5.4000096 -0.39864928 0.97766221
1.5376953 -5.4197068 -0.39864638 0.97766244
1.4694726 -5.4385743 -0.39864343 0.9776625
1.4009863 -5.4565625 -0.39864051 0.97766274
1.3322949 -5.473701 -0.39863753 0.97766286
1.2633789 -5.4899707 -0.39863458 0.97766304
0.71000975 -3.9942186 -0.28706875 0.98386371
0.77617186 -5.5794334 -0.39861357 0.97766423
0.56532228 -5.6045995 -0.39860451 0.97766471
0.49483398 -5.6112008 -0.39860144 0.97766495
0.42427734 -5.6169529 -0.3985984 0.97766507
0.35365233 -5.6217966 -0.39859533 0.97766525
0.21228515 -5.628818 -0.39858925 0.97766554
0.14154297 -5.6310058 -0.39858618 0.97766572
-0.14157227 -5.6308298 -0.39857394 0.97766638
-0.21231444 -5.6285543 -0.39857087 0.97766662
-0.2830371 -5.6254001 -0.3985678 0.97766674
-0.35368162 -5.6213474 -0.39856476 0.97766697
-0.7059375 -5.5878611 -0.3985495 0.97766769
-0.77609372 -5.578486 -0.39854643 0.97766793
-0.60473633 -3.9796972 -0.28484175 0.98398781
-0.69029295 -3.8830273 -0.27907827 0.98430932
-1.1247948 -5.5185447 -0.39853126 0.97766876
-1.1940234 -5.5039258 -0.39852828 0.97766894
-1.2630956 -5.4884667 -0.39852527 0.97766906
-1.4006054 -5.4548926 -0.39851928 0.97766942
-1.4690331 -5.4368358 -0.3985163 0.97766954
-1.7403027 -5.3559961 -0.39850447 0.97767019
-1.8743066 -5.3104978 -0.39849859 0.97767055
-1.9408886 -5.2864842 -0.3984957 0.97767067
-2.073076 -5.2359667 -0.39848995 0.97767103
-2.1387012 -5.2094626 -0.39848709 0.97767121
-2.2039843 -5.1821384 -0.39848423 0.97767133
-2.2689061 -5.1539941 -0.39848137 0.9776715
-2.3976953 -5.095283 -0.39847577 0.97767174
-2.1043847 -3.9444823 -0.31635144 0.98223215
-2.1361132 -3.8855565 -0.31375897 0.98237669
-2.1874609 -3.8631444 -0.31414357 0.98235524
-2.8967774 -4.8286619 -0.39845386 0.97767299
-2.9571972 -4.7918358 -0.39845124 0.97767323
-3.1356542 -4.6768847 -0.39844337 0.97767359
-3.2521484 -4.5965428 -0.39843825 0.97767395
-3.3096287 -4.5553026 -0.39843571 0.97767401
-3.3666015 -4.51333 -0.39843318 0.97767413
-3.4230077 -4.4706249 -0.39843071 0.97767437
-3.4789257 -4.4272361 -0.39842826 0.97767437
-3.5342381 -4.3831348 -0.39842579 0.9776746
-3.5890234 -4.3383689 -0.39842337 0.97767466
-3.8023827 -4.1524611 -0.39841393 0.9776752
-3.8542383 -4.1043162 -0.39841166 0.97767538
-3.905498 -4.0555372 -0.39840937 0.97767544
-4.0555077 -3.9054003 -0.39840275 0.9776758
-1.0241797 -0.93780273 -0.098263547 0.99444687
-1.0243652 -0.91460937 -0.097173996 0.99450839
-1.0255371 -0.78521484 -0.091395758 0.99483401
-1.0258594 -0.74531251 -0.089727134 0.99492812
-1.0260156 -0.72591794 -0.088936076 0.99497271
-1.0306933 -0.70995116 -0.088559799 0.99499387
-1.0589062 -0.70996094 -0.090212971 0.99490076
-1.0882422 -0.70994139 -0.091943547 0.99480319
-1.1504102 -0.70994139 -0.095658451 0.9945938
-1.2178808 -0.70995116 -0.099752046 0.99436301
-1.2914159 -0.70995116 -0.10428028 0.9941079
-1.3307421 -0.70994139 -0.10672829 0.9939701
-1.3720019 -0.70995116 -0.10931141 0.99382448
-1.4152832 -0.70994139 -0.11204109 0.99367082
-1.460791 -0.70995116 -0.11492924 0.99350822
-1.6127539 -0.70995116 -0.12468769 0.99295884
-1.6693066 -0.70996094 -0.12836197 0.99275219
-1.7293359 -0.70995116 -0.13228057 0.99253178
-1.7930273 -0.68397462 -0.1357951 0.99233413
-1.7929394 -0.65823239 -0.13515006 0.99237037
-6.6814842 -2.3581543 -0.50137728 0.97198731
-6.7105761 -2.2740135 -0.50137591 0.97198737
-6.7386036 -2.1895118 -0.5013746 0.97198743
-6.7655663 -2.1046581 -0.50137335 0.97198749
-6.7914844 -2.0194628 -0.50137216 0.97198749
-6.6212401 -1.7000488 -0.48372808 0.97295994
-6.8842773 -1.6756543 -0.50136775 0.97198784
-6.9242187 -1.5021386 -0.50136584 0.97198784
-6.9425192 -1.4150195 -0.50136495 0.9719879
-7.0048046 -1.0643847 -0.50136191 0.97198808
-7.0176072 -0.97627926 -0.50136125 0.9719882
-7.0493846 -0.71108395 -0.50135958 0.97198832
-7.0711813 -0.44488281 -0.50135839 0.97198832
-7.0801268 -0.26705077 -0.50135779 0.97198832
-7.0845895 -0.089033201 -0.50135744 0.97198832
-6.8121777 0.25692382 -0.50136882 0.97302866
-6.8084178 0.34250975 -0.50136888 0.97302866
-6.8035545 0.42803711 -0.501369 0.97302872
-6.7825875 0.6841504 -0.50136966 0.97302872
-6.7520213 0.93931639 -0.50137067 0.9730286
-6.7262888 1.1087011 -0.50137162 0.97302854
-6.7118554 1.193125 -0.50137216 0.97302842
-6.6797752 1.3614258 -0.50137341 0.97302836
-6.6621289 1.4452636 -0.50137407 0.97302836
-6.6237302 1.6122265 -0.50137556 0.9730283
-6.6029391 1.6953417 -0.50137633 0.9730283
-6.5811424 1.7781738 -0.50137722 0.97302824
-6.5343847 1.9430078 -0.50137901 0.97302818
-6.5094824 2.024961 -0.50138003 0.97302806
-6.4835253 2.106621 -0.50138104 0.97302806
-6.4565821 2.1879199 -0.50138217 0.97302788
-6.4285641 2.2688866 -0.50138324 0.97302794
-1.793789 0.6585449 -0.14053668 0.99236524
-1.793916 0.68428707 -0.1412078 0.99232882
-1.7293261 0.70994139 -0.13748626 0.99253035
-1.6127245 0.70995116 -0.12959453 0.99295759
-1.5592968 0.70995116 -0.12600757 0.99315178
-1.4608008 0.70995116 -0.11945217 0.99350691
-1.415293 0.70994139 -0.11645053 0.99366951
-1.3719921 0.70994139 -0.11361328 0.99382329
-1.3307519 0.70994139 -0.11092868 0.99396884
-1.2538378 0.70994139 -0.10597023 0.9942376
-1.1187207 0.70994139 -0.097446404 0.9946999
-1.0882324 0.70995116 -0.095561825 0.99480218
-1.0589355 0.70994139 -0.093763083 0.99489969
-1.0242676 0.84733397 -0.097766109 0.99468255
-1.023623 0.91392577 -0.1009246 0.99451131
-4.8513279 4.7907224 -0.50144887 0.97302449
-4.790781 4.8513279 -0.50145143 0.97302431
-4.7294626 4.9111814 -0.501454 0.97302419
-4.2798729 5.3078809 -0.50147301 0.97302318
-4.2128711 5.3612695 -0.50147587 0.973023
-4.1451855 5.4138184 -0.50147873 0.97302288
-4.0768456 5.4655075 -0.50148165 0.97302276
-4.0078611 5.5163474 -0.50148457 0.97302258
-3.9382617 5.5663085 -0.50148755 0.9730224
-3.7971873 5.6635742 -0.50149351 0.9730221
-3.5810938 5.8027735 -0.50150275 0.97302163
-3.5079002 5.8473434 -0.50150585 0.97302151
-3.3598926 5.9337401 -0.50151217 0.97302109
-3.1339452 6.0562596 -0.50152183 0.97302061
-2.9807909 6.133193 -0.50152832 0.97302026
-2.7475781 6.2412891 -0.50153834 0.97301978
-2.6689355 6.2753806 -0.50154167 0.97301954
-2.3503222 6.4017282 -0.50155538 0.97301883
-2.1074121 6.4858985 -0.50156575 0.97301829
-2.0257616 6.5118942 -0.50156927 0.97301817
-1.943789 6.5369043 -0.50157279 0.97301787
-1.8615038 6.5608497 -0.50157636 0.97301775
-1.6960645 6.6056542 -0.50158346 0.97301733
-1.4459082 6.665029 -0.50159425 0.9730168
-1.2779785 6.6993356 -0.50160146 0.9730165
-1.0245898 6.7429099 -0.50161237 0.97301584
-0.93981445 6.7553124 -0.501616 0.97301561
-0.85484374 6.7666111 -0.5016197 0.97301549
-0.76974607 6.776875 -0.50162339 0.97301531
-0.51378906 6.8012304 -0.50163442 0.97301465
-0.42828125 6.8071971 -0.50163811 0.97301447
-0.34272459 6.8120799 -0.50164181 0.97301435
-0.25708982 6.815918 -0.50164551 0.97301406
-0.17142577 6.8186522 -0.5016492 0.97301388
-0.085732423 6.820322 -0.5016529 0.9730137
0.085693359 6.8204198 -0.50166035 0.97301328
0.34270507 6.8124804 -0.50167149 0.97301275
0.42828125 6.8076954 -0.50167519 0.97301257
0.68457031 6.7868652 -0.50168628 0.97301197
1.1094433 6.730752 -0.50170475 0.9730109
1.4462695 6.6666989 -0.50171936 0.97301012
1.5299219 6.6480465 -0.50172299 0.97300994
1.6133398 6.6283298 -0.50172663 0.97300982
1.6965234 6.6076074 -0.50173026 0.97300953
1.7794336 6.5857906 -0.5017339 0.97300941
1.9443945 6.5390916 -0.50174105 0.97300905
2.1081347 6.4882517 -0.5017482 0.97300869
2.3512402 6.4043164 -0.50175881 0.9730081
2.6701367 6.2782812 -0.50177276 0.97300732
2.9049315 6.1733007 -0.50178301 0.97300678
3.0591795 6.0984278 -0.50178975 0.97300643
3.2869139 5.9789157 -0.50179976 0.97300595
3.3617969 5.9371676 -0.50180304 0.97300583
3.5100098 5.8508983 -0.50180954 0.97300535
3.5832715 5.8063669 -0.50181276 0.97300524
3.6559765 5.7609177 -0.50181592 0.97300506
3.7996385 5.6672754 -0.50182229 0.97300476
3.8705859 5.6191306 -0.50182539 0.97300458
4.2158985 5.3651657 -0.50184059 0.97300375
4.2830076 5.3118162 -0.50184357 0.97300357
4.3494239 5.2575879 -0.50184649 0.97300351
4.4152145 5.2025485 -0.50184941 0.97300327
4.5445895 5.0900097 -0.50185513 0.97300303
4.671123 4.9742575 -0.50186074 0.97300267
4.7332716 4.9151855 -0.50186348 0.97300261
4.855361 4.7947364 -0.5018689 0.97300225
4.9152637 4.7333593 -0.50187153 0.97300214
5.0902438 4.5448146 -0.50187927 0.97300172
5.1469822 4.4805174 -0.50188184 0.9730016
5.2029004 4.4154978 -0.50188434 0.97300148
5.3122559 4.2834082 -0.50188917 0.97300124
1.2526464 0.93439454 -0.11493656 0.9937517
1.2528613 0.91027343 -0.11389694 0.99380797
1.2534473 0.84038085 -0.11098907 0.99396557
1.2537891 0.79568356 -0.10921478 0.99406183
1.2539452 0.77385741 -0.1083736 0.99410748
1.2541015 0.75235349 -0.10756218 0.99415153
1.2542871 0.7311914 -0.10677871 0.99419385
1.2913965 0.70996094 -0.10838401 0.99410677
1.3307323 0.70994139 -0.11092865 0.9939689
1.4607812 0.70995116 -0.11945232 0.99350697
1.5087109 0.70993161 -0.12263279 0.99333471
1.5592577 0.70993161 -0.12600757 0.99315196
1.6126952 0.70995116 -0.12959456 0.99295765
1.7292968 0.70994139 -0.13748638 0.99253041
2.0236425 0.68575191 -0.15714599 0.99146682
2.0236425 0.65751952 -0.15649208 0.99150217
6.5167675 2.027246 -0.50194371 0.97299826
6.6312594 1.6140722 -0.50194913 0.97299802
6.6510348 1.5306152 -0.50195009 0.97299796
6.6874218 1.362998 -0.50195181 0.9729979
6.7040429 1.2788574 -0.50195259 0.97299778
6.7340722 1.1099805 -0.50195408 0.97299778
6.7474999 1.0252734 -0.50195479 0.97299773
6.7598534 0.94040036 -0.50195539 0.97299773
6.7813668 0.77023435 -0.50195652 0.97299767
6.7905369 0.6849609 -0.501957 0.97299755
6.7986035 0.59958005 -0.50195742 0.97299755
6.8163767 0.34291014 -0.50195849 0.97299755
6.8244724 0.085751951 -0.50195909 0.97299749
6.8244824 -0.085771486 -0.50195926 0.97299743
6.8228612 -0.1715039 -0.50195926 0.97299749
6.8164062 -0.34291992 -0.5019592 0.97299743
6.7986231 -0.59958982 -0.50195873 0.97299749
6.7813668 -0.77026367 -0.50195813 0.97299767
6.7196188 -1.1945312 -0.50195593 0.97299767
6.704082 -1.2788965 -0.50195539 0.97299761
6.6510739 -1.5306445 -0.50195336 0.97299778
6.588623 -1.7802441 -0.50195092 0.9729979
6.5657325 -1.8628711 -0.50194997 0.97299796
2.0236425 -0.65751952 -0.15649253 0.99150217
2.0236328 -0.68575191 -0.15714587 0.99146688
1.7931055 -0.70995116 -0.14183913 0.99229485
1.7293066 -0.70994139 -0.13748622 0.99253041
1.6127148 -0.70995116 -0.12959468 0.99295759
1.5592773 -0.70994139 -0.12600742 0.9931519
1.5087206 -0.70995116 -0.12263264 0.99333465
1.4607617 -0.70995116 -0.11945209 0.99350703
1.4152539 -0.70995116 -0.11645046 0.99366963
1.3719531 -0.70996094 -0.11361328 0.99382341
1.2544433 -0.71031249 -0.10602333 0.99423474
1.2538086 -0.79568356 -0.10921489 0.99406177
1.2536132 -0.81786132 -0.11008628 0.99401456
1.2534375 -0.84038085 -0.11098934 0.99396563
1.2532715 -0.86327147 -0.11192451 0.9939149
1.2530469 -0.88657224 -0.11289345 0.99386245
1.2528613 -0.91026366 -0.1138969 0.99380803
4.9538865 -3.7930467 -0.45887816 0.97528613
4.824502 -3.7911034 -0.45127091 0.97569078
4.2365623 -3.7826464 -0.41771224 0.97747809
4.1331348 -3.7847068 -0.41217032 0.97777349
4.0323439 -3.7866504 -0.40683255 0.97805816
3.934082 -3.7885156 -0.40168902 0.97833252
3.857666 -3.8095214 -0.39874503 0.97848964
3.8094823 -3.8576856 -0.398743 0.9784897
3.7606835 -3.9052343 -0.39874098 0.97848982
3.7112987 -3.952168 -0.39873889 0.97848988
3.6612988 -3.9984667 -0.39873675 0.97849005
3.6107714 -4.0441403 -0.39873463 0.97849011
3.5596678 -4.08917 -0.39873248 0.97849017
3.4557323 -4.1772852 -0.39872804 0.97849047
3.3496192 -4.262754 -0.39872354 0.97849071
3.2413964 -4.3455467 -0.39871895 0.97849095
3.0188963 -4.5028124 -0.39870948 0.97849143
2.846992 -4.6133103 -0.3987022 0.97849184
2.2367089 -3.9501855 -0.33386305 0.98195779
2.551621 -4.7828126 -0.39868957 0.9784925
2.4912889 -4.8144822 -0.39868701 0.97849262
2.4305859 -4.8453612 -0.39868438 0.9784928
2.1839941 -4.9612403 -0.39867386 0.97849339
1.9954296 -5.0399218 -0.39866582 0.97849381
1.8680956 -5.0883985 -0.39866033 0.97849417
1.8040136 -5.1114454 -0.39865759 0.97849423
1.7396483 -5.1336813 -0.39865482 0.97849435
1.4137988 -5.2326074 -0.39864081 0.97849506
0.84923828 -3.9147167 -0.29461092 0.98406202
0.79542965 -3.9027636 -0.29293379 0.9841519
0.81418943 -5.3583789 -0.39861503 0.97849649
0.67926759 -5.37708 -0.39860919 0.97849673
0.61163086 -5.3851366 -0.39860624 0.97849697
0.54390621 -5.3923631 -0.39860335 0.97849709
0.47611326 -5.3987303 -0.39860043 0.97849727
0.40823242 -5.4042578 -0.39859748 0.97849739
0.34026366 -5.4089255 -0.39859453 0.97849751
0.27228516 -5.412734 -0.39859161 0.97849768
0.1361621 -5.4177928 -0.39858574 0.97849798
0.068076171 -5.4190135 -0.39858279 0.97849822
-2.9296874e-05 -5.4193945 -0.39857981 0.9784984
-0.20426758 -5.4154296 -0.39857101 0.97849882
-0.27230468 -5.4124022 -0.39856803 0.978499
-0.34030274 -5.4085255 -0.39856508 0.97849905
-0.40824217 -5.403779 -0.39856216 0.97849923
-0.47608396 -5.3981738 -0.39855918 0.97849947
-0.54387695 -5.3917284 -0.39855629 0.97849959
-0.61160153 -5.3844237 -0.39855334 0.97849977
-0.74669921 -5.3672752 -0.39854747 0.97850007
-0.69029295 -3.8830273 -0.29006335 0.98430622
-1.082207 -5.3096189 -0.3985329 0.97850078
-1.1488379 -5.2955565 -0.39852995 0.97850096
-1.2152734 -5.2806735 -0.39852709 0.97850108
-1.4134375 -5.2310057 -0.39851847 0.9785015
-1.4790235 -5.2127829 -0.39851561 0.97850174
-1.5443749 -5.1937499 -0.39851275 0.97850192
-1.6095507 -5.1739063 -0.39850992 0.97850198
-1.6744043 -5.1532321 -0.39850706 0.97850215
-1.7390137 -5.1317477 -0.39850429 0.97850233
-1.8033594 -5.1094432 -0.39850146 0.97850251
-1.8674023 -5.0863476 -0.39849868 0.97850263
-1.9311523 -5.0624509 -0.39849588 0.97850275
-2.057744 -5.0122461 -0.39849037 0.97850305
-2.1830175 -4.9588866 -0.39848486 0.97850335
-2.4293358 -4.8428025 -0.39847413 0.978504
-2.1361132 -3.8855565 -0.32610691 0.98237324
-2.845283 -4.6104589 -0.39845583 0.9785049
-2.9029589 -4.5743165 -0.39845333 0.97850502
-3.0169725 -4.4998436 -0.39844832 0.97850531
-3.1290526 -4.4225683 -0.39844337 0.97850555
-3.184375 -4.3828712 -0.39844096 0.97850567
-3.2391698 -4.3424706 -0.39843851 0.97850585
-3.3472264 -4.2596774 -0.39843374 0.97850603
-3.4531736 -4.1741405 -0.3984291 0.97850639
-3.5053418 -4.1304002 -0.3984268 0.97850645
-3.556953 -4.0859962 -0.39842448 0.97850657
-3.6079979 -4.040957 -0.39842224 0.97850668
-3.7083592 -3.9489942 -0.3984178 0.97850686
-3.8063574 -3.8544824 -0.39841345 0.97850728
-3.8544824 -3.8063476 -0.39841133 0.97850728
-3.9489062 -3.7082422 -0.39840713 0.9785074
-1.0234082 -0.93710935 -0.10205547 0.99444991
-1.0240625 -0.86906248 -0.09878128 0.99462748
-1.0242578 -0.84732419 -0.097766034 0.99468261
-1.024453 -0.82603514 -0.096786 0.99473572
-1.0248339 -0.78465819 -0.094927669 0.99483651
-1.025332 -0.72542965 -0.092374533 0.99497509
-1.0589062 -0.70996094 -0.093763083 0.99489975
-1.1187207 -0.70994139 -0.097446322 0.9946999
-1.1504102 -0.70994139 -0.099423029 0.99459273
-1.2914159 -0.70995116 -0.10838398 0.99410671
-1.4152832 -0.70994139 -0.11645057 0.99366957
-1.5087304 -0.70995116 -0.12263298 0.99333459
-1.6693066 -0.70996094 -0.13341339 0.99275076
-1.7293359 -0.70995116 -0.13748649 0.99253029
-6.4566212 -2.1879687 -0.50138682 0.97302771
-6.5344529 -1.9430468 -0.50138319 0.97302788
-6.5389452 -1.8552734 -0.49989843 0.97310662
-6.4867282 -1.7526855 -0.49418581 0.97340995
-6.5042477 -1.6700097 -0.49388081 0.97342604
-6.4379392 -1.4815918 -0.48586518 0.97385168
-6.5630274 -1.3376563 -0.49261209 0.97349346
-6.556953 -1.1656152 -0.48980024 0.97364265
-6.7263379 -1.1087207 -0.50137401 0.97302836
-6.7826266 -0.68416989 -0.50137109 0.97302854
-6.7906833 -0.59888673 -0.50137067 0.9730286
-6.7976661 -0.51350588 -0.50137025 0.9730286
-6.8035936 -0.42804685 -0.50136989 0.9730286
-6.8121777 -0.25695312 -0.50136942 0.97302866
-6.8148532 -0.17131835 -0.50136918 0.97302872
-6.8164845 -0.085664064 -0.501369 0.97302866
-6.5683594 -1.953125e-05 -0.50137967 0.97399426
-6.567832 0.082529292 -0.50137955 0.97399431
-6.5662694 0.16505858 -0.50137955 0.97399431
-6.5600586 0.33000976 -0.50137967 0.97399426
-6.5429978 0.57702148 -0.50138015 0.97399414
-6.516572 0.82324219 -0.50138104 0.97399426
-6.5057225 0.90504879 -0.5013814 0.9739942
-6.4938474 0.98672849 -0.50138181 0.97399414
-6.4520602 1.2307714 -0.50138336 0.97399408
-6.4360938 1.3117676 -0.50138396 0.97399408
-6.401123 1.4730957 -0.50138533 0.97399396
-6.3821192 1.5534179 -0.50138605 0.9739939
-6.341084 1.7133203 -0.50138766 0.97399384
-6.3190622 1.792871 -0.50138855 0.97399378
-6.2720213 1.9511034 -0.5013904 0.97399378
-6.2470407 2.0297754 -0.50139141 0.9739936
-6.1940622 2.1861327 -0.50139356 0.9739936
-1.7946582 0.65886718 -0.14593093 0.99236
-1.7947754 0.6846289 -0.14662814 0.99232358
-1.7948925 0.71064454 -0.14735535 0.99228561
-1.7293261 0.70994139 -0.14269416 0.9925288
-1.6693164 0.70995116 -0.13846698 0.99274927
-1.5592968 0.70995116 -0.13078076 0.99315035
-1.3719921 0.70994139 -0.11791717 0.99382204
-1.2538378 0.70994139 -0.10998428 0.99423641
-1.1834277 0.70994139 -0.10534225 0.99447906
-1.1504296 0.70995116 -0.10318913 0.99459153
-1.0882324 0.70995116 -0.099181592 0.9948011
-1.0246387 0.72494137 -0.095809817 0.99497741
-1.0243164 0.7640332 -0.097542569 0.99488676
-1.0239356 0.80458003 -0.099401779 0.99478954
-1.0231249 0.89061522 -0.10354076 0.99457318
-1.0228808 0.9132812 -0.10467144 0.99451411
-4.674365 4.6159372 -0.50145668 0.97399032
-4.5568943 4.7320118 -0.50146168 0.97399014
-4.4366112 4.8450685 -0.50146675 0.97398984
-4.3754001 4.9004588 -0.50146931 0.97398973
-4.3135056 4.9550781 -0.50147194 0.97398955
-4.2509179 5.0089159 -0.50147462 0.97398943
-4.1237497 5.1142282 -0.50147998 0.97398913
-3.86166 5.3150778 -0.50149113 0.97398859
-3.7945898 5.3632226 -0.50149399 0.97398841
-3.6586425 5.4569335 -0.50149971 0.97398818
-3.5897949 5.5025196 -0.50150269 0.973988
-3.520371 5.5472169 -0.50150567 0.97398794
-3.3799219 5.6340036 -0.50151163 0.97398758
-3.308877 5.676074 -0.50151467 0.9739874
-3.0926366 5.7968554 -0.50152391 0.97398692
-3.0195801 5.8352833 -0.50152701 0.9739868
-2.9460254 5.8728123 -0.50153011 0.97398663
-2.7226465 5.979795 -0.50153965 0.97398609
-2.6473045 6.0135837 -0.50154293 0.97398591
-2.571543 6.0464063 -0.50154614 0.97398579
-2.4953711 6.0782714 -0.50154942 0.97398567
-2.2645605 6.1681247 -0.50155932 0.97398514
-2.0305371 6.2492185 -0.50156933 0.9739846
-1.9518456 6.2742867 -0.50157273 0.97398442
-1.8728613 6.2983594 -0.50157613 0.97398424
-1.7140136 6.3435254 -0.50158298 0.97398388
-1.6341699 6.3645997 -0.50158638 0.97398376
-1.5540723 6.3846679 -0.50158983 0.97398365
-1.4737304 6.4037595 -0.50159329 0.97398335
-1.393164 6.4217968 -0.50159675 0.97398323
-1.2313573 6.4548826 -0.50160372 0.97398281
-0.90549803 6.5087695 -0.50161779 0.97398216
-0.74164063 6.5295701 -0.50162482 0.9739818
-0.65957028 6.5384083 -0.50162834 0.97398162
-0.49504882 6.5530176 -0.50163549 0.97398126
-0.41264647 6.5587692 -0.50163907 0.97398108
-0.33021483 6.5634861 -0.50164258 0.97398084
-0.24770507 6.5671678 -0.50164616 0.97398067
-0.16517578 6.5698047 -0.50164974 0.97398049
-0.082597658 6.5713964 -0.50165331 0.97398037
-1.953125e-05 6.5719433 -0.50165689 0.97398025
0.33021483 6.5638571 -0.5016712 0.97397941
0.4950586 6.5535836 -0.50167835 0.97397906
0.5773828 6.5468946 -0.50168186 0.97397882
0.65958983 6.5391598 -0.5016855 0.9739787
0.74171871 6.5304098 -0.50168902 0.97397846
0.82373047 6.5206051 -0.50169259 0.97397834
0.90559566 6.5097752 -0.50169611 0.97397822
0.98734373 6.4979196 -0.50169969 0.97397804
1.0689257 6.4850583 -0.5017032 0.9739778
1.3126172 6.4402928 -0.50171381 0.97397733
1.3934473 6.4233494 -0.50171733 0.97397709
1.7940917 6.3233886 -0.50173479 0.97397619
1.8734374 6.3004098 -0.50173825 0.97397596
1.9524511 6.2763963 -0.50174171 0.97397584
2.0312011 6.2514157 -0.50174516 0.97397566
2.1876953 6.1984763 -0.50175196 0.9739753
2.3427734 6.1416111 -0.50175869 0.97397506
2.4198046 6.1117282 -0.50176209 0.97397482
2.5726562 6.0490723 -0.50176877 0.97397447
2.798877 5.9479489 -0.50177866 0.97397393
2.8734081 5.912324 -0.50178188 0.97397381
2.9475098 5.8757911 -0.50178516 0.97397363
3.0942774 5.7999606 -0.5017916 0.97397321
3.1669335 5.7606444 -0.50179482 0.9739731
3.2390916 5.7204294 -0.50179797 0.97397298
3.3107421 5.6793261 -0.50180107 0.97397274
3.6609275 5.4603806 -0.50181645 0.97397202
3.7970409 5.3667283 -0.50182247 0.97397166
3.9966698 5.2198925 -0.50183129 0.97397125
4.0619726 5.1692872 -0.50183415 0.97397113
4.1266403 5.1178613 -0.50183702 0.97397095
4.3786621 4.90416 -0.50184816 0.97397041
4.500586 4.7926269 -0.50185353 0.97397012
4.6196485 4.6780663 -0.50185883 0.97396982
4.6780763 4.6196775 -0.50186139 0.97396976
4.7357907 4.5605469 -0.50186396 0.97396958
4.9590526 4.3169236 -0.50187391 0.9739691
5.169785 4.0623732 -0.50188327 0.97396863
1.2517968 0.93374997 -0.11920929 0.99375463
1.2522266 0.88596678 -0.11709167 0.99386525
1.2524219 0.86270505 -0.11608738 0.9939177
1.2526269 0.83984375 -0.1151178 0.99396825
1.2528027 0.81732422 -0.11418205 0.99401718
1.2529687 0.79516602 -0.11327877 0.99406445
1.2531641 0.77335936 -0.11240692 0.99410993
1.2538086 0.70994139 -0.1099842 0.99423653
1.2913965 0.70996094 -0.11248985 0.99410558
1.3307323 0.70994139 -0.11513046 0.99396765
1.5087109 0.70993161 -0.12727794 0.99333334
1.6126952 0.70995116 -0.13450378 0.99295622
1.6692969 0.70995116 -0.13846703 0.99274933
2.0235448 0.71419919 -0.16380295 0.99142843
6.3259082 1.7948145 -0.50193572 0.973966
6.3690524 1.6352929 -0.50193775 0.97396582
6.3891306 1.5551367 -0.5019387 0.9739657
6.408154 1.4747266 -0.50193959 0.97396576
6.4432225 1.3132324 -0.50194126 0.97396559
6.4741993 1.1508985 -0.50194281 0.97396559
6.5130177 0.90606445 -0.50194478 0.97396541
6.5238767 0.82416016 -0.50194532 0.97396547
6.5337305 0.74211913 -0.50194585 0.97396541
6.5425391 0.65994138 -0.50194627 0.97396541
6.5503516 0.57768553 -0.50194669 0.97396529
6.5674706 0.33039063 -0.50194776 0.97396529
6.5710936 0.24783203 -0.50194794 0.97396535
6.5737009 0.16524413 -0.50194818 0.97396529
6.5752635 0.082636714 -0.5019483 0.97396523
6.5752635 -0.082636714 -0.50194848 0.97396523
6.5737009 -0.16524413 -0.50194854 0.97396529
6.5711036 -0.24785155 -0.50194848 0.97396529
6.5674706 -0.33040038 -0.50194842 0.97396529
6.5627928 -0.41290039 -0.5019483 0.97396529
6.5570898 -0.49533203 -0.50194818 0.97396529
6.5425587 -0.65996093 -0.5019477 0.97396535
6.5130467 -0.90608394 -0.50194669 0.97396529
6.4881835 -1.0694727 -0.50194579 0.97396547
6.4592576 -1.2321875 -0.50194472 0.97396547
6.3259568 -1.7948534 -0.50193954 0.97396576
6.3029294 -1.8741992 -0.50193864 0.97396564
6.2788477 -1.953252 -0.50193769 0.97396576
2.0235937 -0.65749997 -0.16241458 0.99150062
2.0235448 -0.71419919 -0.1638023 0.99142843
1.6692871 -0.70994139 -0.13846679 0.99274939
1.6127148 -0.70995116 -0.13450322 0.99295616
1.5592773 -0.70994139 -0.13078059 0.99315047
1.4607617 -0.70995116 -0.12397716 0.99350572
1.2913769 -0.70995116 -0.11248962 0.99410564
1.2537793 -0.70995116 -0.10998413 0.99423659
1.25333 -0.75188476 -0.11156559 0.99415392
1.2526269 -0.83981442 -0.11511806 0.99396831
1.2524023 -0.86271483 -0.11608745 0.9939177
1.2520117 -0.90964842 -0.11813194 0.99381089
1.2518066 -0.93374997 -0.11920936 0.99375463
4.9538865 -3.7930467 -0.47626022 0.97528106
4.699326 -3.7891893 -0.46079853 0.97607386
4.3466797 -3.7838573 -0.43990061 0.97714645
4.0241795 -3.7789941 -0.4213877 0.97809756
3.924336 -3.7791209 -0.41587138 0.97838116
3.7355664 -3.7828319 -0.40581584 0.97889829
3.6444628 -3.7845507 -0.4010565 0.97914326
3.5276463 -3.8524706 -0.39873084 0.97926289
3.4296875 -3.939873 -0.39872667 0.97926307
3.3295605 -4.0247655 -0.39872244 0.97926331
3.2786815 -4.0662794 -0.39872026 0.97926348
3.2273242 -4.1071286 -0.39871809 0.97926354
3.1754491 -4.1473341 -0.39871588 0.97926366
2.9086719 -4.338408 -0.39870456 0.97926432
2.7986913 -4.4100976 -0.39869988 0.9792645
2.743037 -4.4448829 -0.3986975 0.97926462
2.3721678 -3.9542577 -0.35198715 0.98167151
2.2866309 -3.9225585 -0.34658575 0.98195046
2.2366991 -3.9501758 -0.34650946 0.98195416
2.2098045 -4.0196776 -0.35014215 0.9817667
2.1641893 -4.7533202 -0.39867279 0.97926593
2.0440233 -4.8061423 -0.39866763 0.97926623
1.9225585 -4.855947 -0.39866245 0.97926646
1.8613964 -4.8796778 -0.39865983 0.97926658
1.7999121 -4.9026661 -0.39865717 0.9792667
1.676123 -4.9462695 -0.39865187 0.979267
1.6138281 -4.9669042 -0.39864922 0.97926712
1.5512793 -4.9867673 -0.3986465 0.97926724
1.4254491 -5.0241113 -0.39864111 0.97926754
1.2350488 -5.0741892 -0.39863291 0.97926784
1.1711816 -5.0892382 -0.39863017 0.97926813
0.79542965 -3.9027636 -0.30402958 0.98414862
0.74768555 -3.9196777 -0.30459371 0.98411959
0.78447264 -5.1628027 -0.39861351 0.97926891
0.65447265 -5.1808004 -0.39860788 0.97926921
0.45872068 -5.2016797 -0.39859948 0.97926968
0.39333984 -5.2069921 -0.39859664 0.9792698
0.26234373 -5.2151756 -0.39859098 0.97927004
0.1967871 -5.2180271 -0.39858812 0.97927016
0.13120116 -5.2200584 -0.39858532 0.97927028
-0.065644532 -5.2211719 -0.39857677 0.97927076
-0.19682617 -5.2178025 -0.39857113 0.97927105
-0.3278906 -5.2111325 -0.39856544 0.97927135
-0.45871094 -5.2011719 -0.39855975 0.97927165
-0.58927733 -5.1879392 -0.39855406 0.97927189
-0.65441406 -5.180078 -0.39855126 0.97927207
-0.7194531 -5.1714063 -0.39854842 0.97927225
-0.60473633 -3.9797168 -0.30726752 0.98398125
-1.0427148 -5.1158495 -0.39853439 0.97927296
-1.1068945 -5.1023045 -0.39853159 0.97927308
-1.2983984 -5.0568552 -0.39852324 0.9792735
-1.4250488 -5.0225587 -0.39851776 0.9792738
-1.4880469 -5.004209 -0.39851502 0.97927397
-1.5508008 -4.9850974 -0.39851227 0.97927403
-1.8607129 -4.8777146 -0.39849874 0.97927475
-1.9826465 -4.8293552 -0.39849341 0.97927505
-2.1632226 -4.7511129 -0.39848551 0.97927541
-2.2819042 -4.6951952 -0.39848033 0.97927564
-2.340703 -4.6661034 -0.39847773 0.97927588
-2.1361132 -3.8855565 -0.33845943 0.9823696
-2.2745214 -3.9017186 -0.34473854 0.98204541
-2.7970409 -4.4074121 -0.39845771 0.9792769
-2.8521972 -4.3719044 -0.39845526 0.97927696
-2.9068847 -4.3356543 -0.39845291 0.97927719
-2.9611328 -4.298789 -0.39845049 0.97927719
-3.0681736 -4.2229686 -0.39844581 0.97927749
-3.1209667 -4.1840525 -0.39844349 0.97927761
-3.4271777 -3.9369335 -0.39842993 0.97927827
-3.6205761 -3.7596776 -0.39842141 0.97927874
-3.7374706 -3.6908007 -0.40095103 0.97914863
-3.8281834 -3.6865039 -0.40567908 0.97890532
-3.9210351 -3.6820703 -0.4105812 0.97865307
-1.0228808 -0.9132812 -0.1046714 0.99451411
-1.0233301 -0.86844724 -0.10245014 0.99463022
-1.0235449 -0.84673828 -0.10139774 0.99468517
-1.0237402 -0.82544923 -0.10038231 0.99473828
-1.0239258 -0.80459958 -0.099401817 0.99478954
-1.0243262 -0.76404297 -0.097542532 0.9948867
-1.0246484 -0.72495115 -0.095809557 0.99497736
-1.0306933 -0.70995116 -0.095531844 0.99499184
-1.0589062 -0.70996094 -0.097314872 0.99489868
-1.1504102 -0.70994139 -0.10318897 0.99459159
-1.1834375 -0.70995116 -0.10534244 0.994479
-1.2178808 -0.70995116 -0.10760475 0.99436074
-1.2538183 -0.70995116 -0.10998432 0.99423647
-1.2914159 -0.70995116 -0.11248974 0.99410552
-1.3307421 -0.70994139 -0.11513016 0.99396759
-1.3720019 -0.70995116 -0.11791728 0.99382198
-1.460791 -0.70995116 -0.12397709 0.9935056
-1.5593066 -0.70995116 -0.13078091 0.99315035
-1.7293359 -0.70995116 -0.14269455 0.99252874
-1.7948828 -0.71063477 -0.14735535 0.99228567
-6.2470899 -2.0298047 -0.5013957 0.97399342
-6.2720799 -1.9511523 -0.50139457 0.97399348
-6.2960935 -1.8721679 -0.50139344 0.97399354
-6.3191013 -1.7929003 -0.50139236 0.9739936
-6.4011521 -1.4731152 -0.50138849 0.97399384
-6.4191308 -1.3925683 -0.5013876 0.9739939
-6.4670606 -1.1496289 -0.50138527 0.9739939
-6.4938769 -0.98674804 -0.5013839 0.97399402
-6.5057616 -0.90506834 -0.5013833 0.97399402
-6.5166016 -0.82323241 -0.50138277 0.97399414
-6.5352244 -0.65920895 -0.50138181 0.97399414
-6.5554099 -0.41243163 -0.50138062 0.9739942
-6.5600781 -0.33002928 -0.50138038 0.9739942
-6.5662889 -0.16506836 -0.50137991 0.97399426
-6.3366308 0.079619139 -0.50138962 0.9748928
-6.3325977 0.23884766 -0.50138962 0.97489291
-6.3291111 0.31840819 -0.50138968 0.97489285
-6.3245993 0.39790037 -0.50138974 0.97489291
-6.3191113 0.47734374 -0.50138992 0.97489285
-6.3051367 0.63598633 -0.5013904 0.9748928
-6.2966404 0.7151953 -0.50139064 0.97489285
-6.2871485 0.79424804 -0.50139099 0.97489285
-6.2766895 0.87317383 -0.50139135 0.9748928
-6.2652245 0.95198238 -0.50139177 0.9748928
-6.2527537 1.0306543 -0.50139219 0.97489285
-6.239336 1.1091309 -0.50139272 0.97489274
-6.2095017 1.2655761 -0.50139385 0.97489274
-6.1931248 1.3435156 -0.50139445 0.97489262
-6.1757321 1.4212304 -0.50139517 0.97489274
-6.1380954 1.575996 -0.5013966 0.97489262
-6.0965819 1.7297363 -0.50139821 0.9748925
-6.0743651 1.8062207 -0.5013991 0.9748925
-6.0270896 1.9583105 -0.50140095 0.97489232
-6.0020118 2.0338964 -0.50140202 0.97489232
-1.7956445 0.6849609 -0.1520557 0.99231821
-1.7957617 0.71098632 -0.15281078 0.99228024
-1.7293261 0.70994139 -0.14790413 0.99252719
-1.415293 0.70994139 -0.12527439 0.99366683
-1.3719921 0.70994139 -0.12222259 0.99382067
-1.3307519 0.70994139 -0.11933383 0.99396628
-1.2914159 0.70994139 -0.11659694 0.99410427
-1.1834277 0.70994139 -0.10918853 0.99447787
-1.0306739 0.70996094 -0.099019885 0.99499083
-1.0239453 0.72446287 -0.09924183 0.99497968
-1.0234082 0.78357422 -0.10198089 0.99484152
-1.0223827 0.88999021 -0.10724407 0.99457586
-1.0221386 0.91260737 -0.10841434 0.99451691
-4.6201954 4.338623 -0.50145936 0.97488952
-4.5653415 4.3963671 -0.50146163 0.9748894
-4.3964548 4.565371 -0.50146878 0.97488904
-4.3387599 4.6202927 -0.50147122 0.97488892
-4.1616211 4.7805858 -0.50147873 0.97488856
-4.1012301 4.8325391 -0.50148129 0.97488838
-4.040195 4.8837109 -0.50148386 0.97488832
-3.9785156 4.9341407 -0.50148648 0.97488815
-3.8533103 5.0326071 -0.50149179 0.97488791
-3.7256737 5.1279197 -0.50149721 0.97488761
-3.6609471 5.1743555 -0.50149995 0.97488749
-3.2609179 5.4355955 -0.501517 0.97488666
-3.1233106 5.5158982 -0.50152284 0.97488636
-3.05375 5.5547361 -0.50152582 0.97488624
-2.9132519 5.6298046 -0.50153184 0.97488588
-2.8423145 5.6659765 -0.50153488 0.97488576
-2.6990333 5.7356935 -0.50154096 0.97488552
-2.6267481 5.7691989 -0.50154406 0.97488534
-2.3336132 5.8940234 -0.50155663 0.97488481
-2.2594042 5.9229102 -0.50155979 0.97488463
-2.1847949 5.9508886 -0.50156301 0.97488445
-2.1098633 5.9779196 -0.50156623 0.97488421
-2.0345898 6.003994 -0.50156945 0.97488409
-1.9590038 6.0291309 -0.50157267 0.97488391
-1.8830956 6.0532908 -0.50157595 0.97488379
-1.8068848 6.0765233 -0.50157923 0.97488362
-1.7304296 6.0987887 -0.5015825 0.97488344
-1.6536523 6.1200976 -0.50158578 0.97488326
-1.4993457 6.1597948 -0.50159246 0.97488296
-1.4218359 6.1781931 -0.5015958 0.97488278
-1.2661426 6.2120605 -0.50160247 0.97488248
-1.1879785 6.227529 -0.50160581 0.97488225
-1.0311035 6.2554879 -0.5016126 0.97488201
-0.95243162 6.2679882 -0.501616 0.97488183
-0.79461914 6.2900391 -0.5016228 0.97488147
-0.63630855 6.3080955 -0.50162965 0.97488117
-0.4776074 6.3221874 -0.50163651 0.97488081
-0.31857422 6.3322849 -0.50164336 0.97488046
-0.2389746 6.3358397 -0.50164682 0.97488028
-0.1593457 6.3383689 -0.50165021 0.97488016
-0.079707026 6.3399119 -0.50165367 0.97487998
-9.7656248e-06 6.3404589 -0.50165713 0.9748798
0.31856444 6.3326464 -0.5016709 0.97487903
0.39812499 6.3281837 -0.50167435 0.97487891
0.47761717 6.3227243 -0.50167781 0.97487873
0.55705076 6.3162498 -0.50168127 0.97487861
0.6363672 6.3087988 -0.50168473 0.97487843
0.79471678 6.2909079 -0.50169158 0.97487807
0.87372071 6.2804489 -0.50169504 0.97487795
1.1881933 6.2288084 -0.50170869 0.97487718
1.2663867 6.2134275 -0.50171208 0.974877
1.4221289 6.1797071 -0.50171888 0.97487676
1.5770215 6.1420898 -0.50172555 0.97487646
1.6540723 6.1218457 -0.50172895 0.97487622
1.807412 6.0784178 -0.50173563 0.97487593
1.8836719 6.0552735 -0.50173897 0.97487575
2.0352635 6.0061131 -0.50174558 0.97487539
2.1105957 5.9800878 -0.50174886 0.97487527
2.2602344 5.9252343 -0.50175536 0.97487497
2.408457 5.8666406 -0.50176185 0.97487462
2.4820116 5.8359571 -0.50176507 0.97487444
2.6278906 5.7717967 -0.50177145 0.97487426
2.9852245 5.5955858 -0.50178713 0.97487342
3.0553417 5.5576658 -0.50179017 0.97487324
3.1249511 5.518867 -0.50179327 0.97487307
3.2627149 5.4386621 -0.50179929 0.97487271
3.3983984 5.355 -0.50180525 0.97487247
3.4654198 5.311904 -0.50180817 0.97487241
3.531914 5.2679782 -0.50181109 0.97487223
3.5978808 5.2232227 -0.50181401 0.97487199
3.7280078 5.1312013 -0.50181973 0.97487181
3.8558593 5.0359569 -0.50182533 0.97487146
3.9812109 4.9375291 -0.50183088 0.97487122
4.1040916 4.8359666 -0.50183636 0.97487092
4.2243652 4.7313571 -0.50184166 0.97487068
4.2835059 4.6779099 -0.50184423 0.97487062
4.3419724 4.6237302 -0.50184685 0.9748705
4.3997459 4.5688376 -0.50184941 0.97487038
4.4568553 4.5132031 -0.50185198 0.9748702
4.5132227 4.4568653 -0.50185442 0.97487009
4.7315526 4.2245603 -0.50186414 0.97486961
4.9379392 3.9815624 -0.50187331 0.97486913
4.9875975 3.9192188 -0.50187552 0.97486901
1.2521679 0.79465818 -0.1173391 0.99406695
1.2525293 0.75140625 -0.11556564 0.99415636
1.2526855 0.73026365 -0.11472522 0.99419874
1.2538086 0.70994139 -0.11400009 0.99423528
1.3719434 0.70994139 -0.12222244 0.99382085
1.4152441 0.70995116 -0.12527461 0.99366701
1.6126952 0.70995116 -0.13941452 0.99295473
1.6692969 0.70995116 -0.14352272 0.99274778
1.7931055 0.70995116 -0.15258697 0.99229163
1.9337499 0.70994139 -0.16298339 0.99176848
2.0234962 0.6857031 -0.1690419 0.99146384
2.0234962 0.6574707 -0.16833888 0.99149925
6.0574899 1.884375 -0.50192398 0.97486663
6.0807128 1.808125 -0.50192505 0.97486657
6.1445799 1.5776659 -0.50192809 0.97486639
6.1822948 1.4227442 -0.50192988 0.97486639
6.2315621 1.1887207 -0.50193226 0.97486621
6.2460251 1.110332 -0.50193298 0.97486615
6.2594724 1.0317578 -0.50193363 0.97486621
6.2834668 0.87413085 -0.50193483 0.97486603
6.2939453 0.79510742 -0.50193536 0.97486609
6.3034472 0.71594727 -0.5019359 0.97486603
6.3119431 0.63667965 -0.50193632 0.97486603
6.3194628 0.55732423 -0.50193673 0.97486597
6.3259864 0.47787109 -0.50193715 0.97486591
6.3394918 0.2390918 -0.50193799 0.97486597
6.3440137 -9.7656248e-06 -0.5019384 0.97486591
6.3394918 -0.23912109 -0.50193846 0.97486597
6.3259864 -0.47788084 -0.5019381 0.97486591
6.3119626 -0.63670897 -0.50193769 0.97486597
6.2834864 -0.87414062 -0.50193673 0.97486597
6.2595215 -1.0317773 -0.50193584 0.97486597
6.2460446 -1.1103613 -0.50193536 0.97486603
6.2315917 -1.18875 -0.50193483 0.97486609
6.1997461 -1.3449805 -0.50193357 0.97486609
6.1243162 -1.6547656 -0.50193065 0.97486621
6.1030078 -1.7315917 -0.50192982 0.97486633
6.0807614 -1.8081445 -0.50192893 0.97486633
2.0234962 -0.71418941 -0.16977733 0.99142683
1.9337401 -0.70995116 -0.16298297 0.99176854
1.8610938 -0.70996094 -0.15760136 0.99203932
1.7931055 -0.70995116 -0.15258689 0.99229163
1.6692871 -0.70994139 -0.14352272 0.99274784
1.5592773 -0.70994139 -0.13555568 0.99314898
1.5087206 -0.70995116 -0.13192509 0.99333185
1.4607617 -0.70995116 -0.12850375 0.99350429
1.4152539 -0.70995116 -0.12527454 0.99366695
1.2527149 -0.73026365 -0.11472515 0.99419868
1.2525195 -0.75141603 -0.11556564 0.99415636
4.824502 -3.7911034 -0.48546603 0.97568059
4.4606347 -3.7855859 -0.46288806 0.97679842
