# .PCD v0.7 - Point Cloud Data file format
VERSION 0.7
FIELDS x y z intensity
SIZE 4 4 4 4
TYPE F F F F
COUNT 1 1 1 1
WIDTH 1084
HEIGHT 1
VIEWPOINT 0 0 0 1 0 0 0
POINTS 1084
DATA ascii
-1.0301758 -0.83066404 -0.067884177 0.99471366
-1.0303417 -0.8096289 -0.067217179 0.99476534
-1.0304394 -0.78898436 -0.066573523 0.99481541
-1.0308105 -0.72930664 -0.064773366 0.99495524
-1.0309277 -0.71011716 -0.064214587 0.99499863
-1.1503808 -0.70994139 -0.069344215 0.9946003
-1.2178613 -0.70995116 -0.072311781 0.99436975
-1.3307226 -0.70994139 -0.077369079 0.99397725
-1.3719727 -0.70995116 -0.079241864 0.99383187
-1.4152734 -0.70995116 -0.081220739 0.99367827
-1.4607714 -0.70995116 -0.083314165 0.99351597
-1.5087402 -0.70995116 -0.085532568 0.99334377
-1.5592871 -0.70995116 -0.087886311 0.99316126
-9.2177639 -3.2533104 -0.5014264 0.96160501
-9.2578802 -3.1372266 -0.50142521 0.96160513
-9.3337698 -2.9035742 -0.50142294 0.96160525
-9.3694916 -2.7860448 -0.50142187 0.96160531
-9.4037399 -2.668076 -0.5014208 0.96160543
-9.5526361 -2.0723436 -0.50141621 0.96160573
-9.5778904 -1.9521191 -0.50141537 0.96160585
-9.6016693 -1.8316211 -0.50141466 0.96160585
-9.6976557 -1.2250879 -0.50141144 0.96160614
-9.7369041 -0.85871094 -0.50141001 0.96160626
-9.746933 -0.73628902 -0.50140959 0.96160626
-9.7677345 -0.3684082 -0.50140864 0.96160632
-9.7715816 -0.24562499 -0.5014084 0.96160638
-9.7739162 -0.12283203 -0.50140822 0.96160632
-9.2727633 9.7656248e-06 -0.50142151 0.9635362
-9.2369041 0.81461912 -0.50142157 0.9635362
-9.1843357 1.2777051 -0.50142246 0.96353608
-9.1493454 1.5080956 -0.50142318 0.96353602
-9.1296482 1.6229491 -0.50142354 0.96353608
-9.0860052 1.8518652 -0.50142449 0.96353602
-9.0620213 1.9659082 -0.50142503 0.96353602
-8.9815235 2.3060741 -0.50142682 0.96353585
-8.9207716 2.5310645 -0.50142819 0.96353573
-8.8882713 2.6429589 -0.50142896 0.96353567
-8.7442865 3.0862305 -0.5014323 0.96353549
-1.7879003 0.70788085 -0.10398174 0.99232662
-1.7293066 0.70994139 -0.10108581 0.99253958
-1.612705 0.70995116 -0.095283277 0.99296629
-1.2914063 0.70994139 -0.079688601 0.99411404
-1.2538086 0.70994139 -0.077913664 0.99424481
-1.217832 0.70995116 -0.076228105 0.99436903
-1.1504004 0.70994139 -0.073100053 0.9945994
-1.1187109 0.70995116 -0.07164669 0.99470645
-1.0589062 0.70994139 -0.068938561 0.99490607
-1.0306641 0.70994139 -0.067675434 0.99499917
-1.0301172 0.72882813 -0.06823574 0.99495786
-1.0298926 0.76820308 -0.069476657 0.99486637
-1.0297558 0.78842771 -0.070130654 0.99481821
-1.0291797 0.87342769 -0.072992206 0.99460733
-1.0288476 0.91861326 -0.074584007 0.99449009
-1.0286914 0.94197261 -0.075424194 0.99442816
-6.0045605 5.7823825 -0.45077288 0.96715826
-5.5923338 6.1072459 -0.44778532 0.9673723
-5.4288964 6.2364259 -0.44710982 0.9674207
-5.3472948 6.3008595 -0.4468753 0.96743751
-5.2706347 6.3711228 -0.44712603 0.96741956
-5.2094626 6.4607906 -0.44878784 0.96730042
-5.0865331 6.6433201 -0.45244217 0.96703863
-5.0242872 6.7357321 -0.45439947 0.96689838
-4.8981442 6.923027 -0.45858467 0.96659869
-4.5041013 7.5079784 -0.47344431 0.96553522
-4.4358301 7.6093063 -0.47628123 0.96533233
-4.3667383 7.711904 -0.47923148 0.96512145
-4.2967968 7.8158689 -0.4822973 0.96490222
-4.2337012 7.9357028 -0.4863703 0.96461111
-4.0543165 8.3421383 -0.50155199 0.9635269
-3.9491992 8.3924704 -0.50155473 0.96352667
-3.7370801 8.48915 -0.50156027 0.96352631
-3.6301367 8.5355072 -0.50156307 0.96352607
-3.5225878 8.5804882 -0.50156587 0.96352595
-3.3058984 8.6663866 -0.5015716 0.96352553
-3.1967578 8.7073145 -0.50157446 0.96352524
-2.9769628 8.7849998 -0.50158024 0.96352488
-2.8663671 8.8217678 -0.50158316 0.96352464
-2.6437891 8.8911324 -0.50158906 0.96352416
-2.5318847 8.9236813 -0.50159198 0.96352404
-2.4195409 8.9548531 -0.50159496 0.96352381
-2.3068359 8.9845896 -0.50159794 0.96352363
-2.0803516 9.039814 -0.5016039 0.96352327
-1.8525585 9.089385 -0.50160992 0.96352273
-1.6235644 9.1331739 -0.501616 0.96352232
-1.2782031 9.1880369 -0.50162518 0.96352166
-1.1626562 9.2034369 -0.50162828 0.96352142
-0.8149609 9.2408791 -0.50163746 0.96352082
-0.58249021 9.258564 -0.50164366 0.96352035
-0.34963867 9.2703905 -0.50164986 0.96351987
-0.23311523 9.2741213 -0.50165296 0.96351963
-0.1165625 9.2763577 -0.50165612 0.96351945
9.7656248e-06 9.2771778 -0.50165921 0.96351916
0.2331543 9.2743454 -0.50166547 0.96351874
0.46616209 9.2656736 -0.50167167 0.96351832
0.69885743 9.251152 -0.50167787 0.96351784
1.2783984 9.1892967 -0.50169343 0.96351677
1.3937891 9.1725683 -0.50169653 0.96351653
1.8529394 9.0911713 -0.50170892 0.96351564
2.0808301 9.0418358 -0.50171506 0.96351528
2.1943066 9.0150585 -0.5017181 0.96351492
2.5325584 8.926074 -0.50172722 0.96351445
2.6445704 8.8936329 -0.5017302 0.96351403
3.088125 8.7497168 -0.50174224 0.96351331
3.415791 8.627265 -0.50175112 0.9635126
3.738574 8.4925489 -0.50175989 0.963512
3.8450389 8.4449511 -0.50176275 0.96351177
3.9508691 8.3959961 -0.50176567 0.96351165
4.3678317 8.1870899 -0.50177699 0.96351075
4.6733789 8.0167675 -0.50178534 0.96351022
4.7737889 7.9574609 -0.50178808 0.96350992
4.9722853 7.8350682 -0.5017935 0.96350962
5.0405664 7.7262988 -0.49884531 0.96372002
5.0902438 7.5922556 -0.49428263 0.96404594
5.1390524 7.4606247 -0.48987788 0.96436048
5.1870017 7.3312888 -0.48562816 0.96466416
5.3251367 7.1390038 -0.48160556 0.96495163
5.3967576 7.0484862 -0.48003605 0.96506387
5.5387106 6.8691015 -0.47715145 0.9652701
5.9557128 6.3421578 -0.47046062 0.96574867
6.0241599 6.2556543 -0.46962169 0.96580869
6.2282715 5.9977636 -0.46756417 0.96595585
6.2959275 5.9122558 -0.46702915 0.96599418
6.4491796 5.7581444 -0.46751389 0.96595955
6.6364746 5.6321287 -0.47067875 0.96573305
6.7310839 5.5684376 -0.47238711 0.9656108
6.8263965 5.5042677 -0.47418392 0.96548229
6.9224415 5.4395895 -0.47606978 0.96534747
1.2588086 0.91455078 -0.084137343 0.99378645
1.2589452 0.89072263 -0.083392717 0.99384129
1.2590722 0.86728513 -0.082673647 0.99389428
1.2592285 0.84423828 -0.08197929 0.99394536
1.2593554 0.82157224 -0.081309699 0.99399471
1.2598339 0.73442382 -0.078855895 0.99417543
1.4152734 0.70995116 -0.08561939 0.99367738
1.460791 0.70995116 -0.087826349 0.99351496
1.7293164 0.70994139 -0.10108608 0.99253958
1.8611425 0.70995116 -0.10771331 0.99205232
1.9337597 0.70994139 -0.11139152 0.99178207
2.0241308 0.71438473 -0.11607158 0.99143833
2.0241504 0.65768552 -0.11508755 0.99151051
8.8627443 2.757041 -0.50190282 0.96350175
8.8966894 2.6454589 -0.50190383 0.96350175
8.9292479 2.5334473 -0.50190485 0.96350169
8.9603806 2.4210546 -0.5019058 0.96350169
8.9901266 2.3082812 -0.50190669 0.96350157
9.0184565 2.1951368 -0.50190759 0.96350145
9.0707912 1.9678124 -0.5019092 0.96350133
9.1385345 1.6245409 -0.5019114 0.96350127
9.1582708 1.5095898 -0.50191206 0.9635011
9.2086811 1.1633301 -0.50191373 0.96350104
9.2225876 1.0475196 -0.50191426 0.96350098
9.246006 0.81541991 -0.5019151 0.96350092
9.2635841 0.58281249 -0.50191587 0.96350092
9.2701855 0.46637693 -0.50191617 0.96350086
9.2753315 0.34984374 -0.50191635 0.9635008
9.2789936 0.23326172 -0.50191659 0.9635008
9.28123 -0.11663086 -0.50191706 0.96350068
9.270215 -0.46635741 -0.50191712 0.96350074
9.2460546 -0.81541991 -0.50191689 0.96350074
9.2226267 -1.0475292 -0.50191647 0.9635008
9.1765814 -1.3943847 -0.50191563 0.96350086
9.1583004 -1.5095898 -0.50191522 0.96350098
9.1386032 -1.6245507 -0.50191486 0.96350098
9.1174707 -1.7392676 -0.50191438 0.96350098
9.0708685 -1.9678222 -0.50191343 0.96350104
9.0454292 -2.08166 -0.50191283 0.96350104
9.0185452 -2.1951561 -0.50191224 0.9635011
8.9902439 -2.3083007 -0.50191158 0.9635011
8.9293165 -2.5334766 -0.50191021 0.96350145
8.8967772 -2.645498 -0.50190949 0.96350139
2.0241406 -0.65768552 -0.11508773 0.99151057
2.0241504 -0.68592775 -0.1155682 0.99147522
2.0241406 -0.71440428 -0.11607128 0.99143827
1.9337499 -0.70995116 -0.11139145 0.99178207
1.7293359 -0.70994139 -0.10108563 0.99253947
1.6693066 -0.70995116 -0.098091006 0.9927597
1.5592773 -0.70995116 -0.0926461 0.99316031
1.5087304 -0.70994139 -0.090164565 0.99334282
1.4152637 -0.70994139 -0.085619316 0.99367744
1.3719823 -0.70995116 -0.083533362 0.99383092
1.2914063 -0.70995116 -0.079688415 0.99411404
1.2599511 -0.71342772 -0.078295439 0.99421668
1.2593457 -0.82158202 -0.081309624 0.99399471
1.2592187 -0.84425777 -0.081979595 0.99394536
5.797998 -4.5560155 -0.39873892 0.97089338
4.8884764 -4.0440822 -0.34307384 0.97490543
5.5616598 -4.8414841 -0.39873293 0.97089392
5.5003614 -4.9109764 -0.39873138 0.97089404
5.3751659 -5.0476074 -0.39872816 0.97089428
5.3113084 -5.1147461 -0.39872658 0.97089428
5.2465625 -5.1810641 -0.39872488 0.97089452
5.1146774 -5.3112206 -0.39872155 0.97089475
4.9795408 -5.4380369 -0.39871803 0.97089499
4.9107909 -5.5001464 -0.39871627 0.97089511
3.4517674 -3.965205 -0.28427789 0.9791609
4.555625 -5.7975097 -0.39870712 0.97089583
4.2585349 -6.0189743 -0.3986994 0.97089624
4.1825194 -6.0719724 -0.39869744 0.97089648
4.1058884 -6.1240134 -0.39869544 0.9708966
4.0286036 -6.1751075 -0.39869341 0.97089666
3.7929296 -6.3224607 -0.39868727 0.97089714
3.7131641 -6.3695798 -0.39868522 0.97089732
1.977793 -3.9427049 -0.23852246 0.98248559
1.9233593 -3.9574902 -0.23793459 0.98252827
1.8866016 -4.0092478 -0.23960155 0.98240691
3.0549998 -6.709795 -0.39866802 0.97089857
2.9704101 -6.7476268 -0.39866576 0.97089875
2.8853905 -6.7843652 -0.39866355 0.97089893
2.7998924 -6.8200488 -0.39866129 0.97089911
2.6275878 -6.8881931 -0.39865676 0.97089934
2.278125 -7.0113277 -0.39864758 0.97090012
2.1898437 -7.0393653 -0.39864525 0.97090024
2.0122168 -7.0921092 -0.39864054 0.97090054
1.9229296 -7.1167774 -0.39863822 0.97090077
1.8333398 -7.1403418 -0.39863586 0.97090089
1.7434667 -7.1627636 -0.39863345 0.97090107
1.6533008 -7.184082 -0.3986311 0.97090119
1.5628809 -7.2042379 -0.39862868 0.97090143
1.472207 -7.2232714 -0.39862627 0.97090161
1.1989062 -7.2734861 -0.39861903 0.97090214
0.49560547 -3.9230077 -0.21382129 0.98428494
0.39955077 -3.9608788 -0.21527065 0.98417932
0.64757812 -7.3428512 -0.39860439 0.97090322
0.55527341 -7.3503709 -0.39860195 0.97090334
0.46285155 -7.356709 -0.39859948 0.97090358
0.37037107 -7.3619137 -0.39859703 0.97090369
0.27782226 -7.3659372 -0.39859453 0.97090393
0.18523437 -7.3688278 -0.39859205 0.97090399
0 -7.3710546 -0.39858714 0.97090435
-0.18523437 -7.3686328 -0.39858219 0.97090477
-0.37035155 -7.3615623 -0.39857721 0.97090507
-0.64751953 -7.3422265 -0.39856979 0.97090566
-0.73973632 -7.3334765 -0.39856735 0.97090578
-0.92378902 -7.31249 -0.39856237 0.97090608
-1.1072265 -7.2868357 -0.39855745 0.97090662
-1.2899902 -7.2566209 -0.39855254 0.97090697
-1.381084 -7.2398143 -0.39855009 0.97090703
-1.5625585 -7.202744 -0.39854521 0.97090739
-1.002334 -3.9037695 -0.21794198 0.98398447
-1.056123 -3.90874 -0.2189433 0.98391151
-2.0116503 -7.0901852 -0.39853314 0.97090834
-2.1005664 -7.0642872 -0.39853072 0.97090858
-2.1891699 -7.0373144 -0.39852831 0.97090864
-2.3653221 -6.97999 -0.39852354 0.970909
-2.5399315 -6.918252 -0.39851883 0.97090936
-2.7129588 -6.8521676 -0.39851412 0.97090966
-2.7988183 -6.8174996 -0.3985118 0.97090983
-3.2212889 -6.6281152 -0.39850032 0.97091067
-3.3042967 -6.58708 -0.39849806 0.97091085
-3.4687793 -6.5018945 -0.39849356 0.97091109
-3.7909667 -6.3192477 -0.3984848 0.9709118
-2.4353905 -3.9462988 -0.25075909 0.98159522
-2.5330663 -3.8827832 -0.25069112 0.98160028
-4.1801853 -6.0685644 -0.39847413 0.97091258
-4.256084 -6.0155368 -0.39847204 0.97091269
-4.5528517 -5.7939939 -0.39846388 0.97091323
-4.6252832 -5.736279 -0.39846188 0.97091341
-4.6969724 -5.6776657 -0.39845988 0.97091359
-4.7679396 -5.6181836 -0.39845794 0.97091365
-4.8381348 -5.5577831 -0.39845601 0.97091389
-4.9075685 -5.4965429 -0.3984541 0.97091395
-4.9762106 -5.4343848 -0.39845219 0.97091419
-5.0440817 -5.3714061 -0.39845031 0.9709143
-1.0290234 -0.89578122 -0.07377369 0.99454975
-1.0291601 -0.87342769 -0.072992057 0.99460739
-1.0293067 -0.85153317 -0.072238155 0.99466294
-1.0294532 -0.8300879 -0.071510352 0.99471658
-1.029873 -0.76821285 -0.069476582 0.99486637
-1.0301172 -0.72881836 -0.068235777 0.99495792
-1.0306641 -0.70994139 -0.06767536 0.99499917
-1.0588964 -0.70995116 -0.068938598 0.99490607
-1.1186817 -0.70995116 -0.071646653 0.99470651
-1.1503808 -0.70994139 -0.073099859 0.99459946
-1.1834277 -0.70994139 -0.074625164 0.99448699
-1.2537891 -0.70994139 -0.077913776 0.99424487
-1.4607714 -0.70995116 -0.087826349 0.99351501
-1.5087402 -0.70995116 -0.090164676 0.99334282
-1.6127148 -0.70996094 -0.095283546 0.99296629
-1.7878027 -0.6819824 -0.10347053 0.99236429
-1.7877344 -0.65634763 -0.10298035 0.99240023
-8.7444038 -3.0862596 -0.50143892 0.96353501
-8.81915 -2.8655176 -0.50143665 0.96353525
-8.88834 -2.6429882 -0.50143456 0.96353537
-8.9208593 -2.5310645 -0.50143361 0.96353537
-8.9816017 -2.3061035 -0.5014317 0.96353555
-9.0367088 -2.0796289 -0.50142998 0.96353561
-9.0860739 -1.8518847 -0.50142843 0.96353573
-9.149394 -1.5081054 -0.5014264 0.96353585
-9.1675978 -1.3930175 -0.50142574 0.9635359
-9.1996775 -1.1621875 -0.50142467 0.96353602
-9.2135639 -1.0464941 -0.50142419 0.96353602
-9.2369528 -0.8146289 -0.5014233 0.96353602
-9.2464647 -0.69847655 -0.50142294 0.96353602
-9.261054 -0.46589842 -0.50142229 0.96353614
-8.8190327 0.11083984 -0.50143349 0.96528113
-8.813467 0.33242187 -0.50143337 0.96528113
-8.8086033 0.44315428 -0.50143337 0.96528107
-8.8023338 0.55380857 -0.50143343 0.96528113
-8.7633982 0.99537104 -0.50143403 0.96528107
-8.750205 1.1054199 -0.50143427 0.96528107
-8.7196674 1.3249609 -0.50143486 0.96528101
-8.6421089 1.7613964 -0.50143647 0.96528095
-8.6193066 1.869873 -0.50143695 0.96528089
-8.5951366 1.9780273 -0.50143749 0.96528083
-8.5696192 2.0858886 -0.50143808 0.96528077
-8.5427341 2.1934083 -0.50143862 0.96528077
-8.5145111 2.300586 -0.50143927 0.96528071
-8.4217672 2.6198828 -0.50144142 0.96528065
-8.3533106 2.830703 -0.50144303 0.96528047
-8.3170996 2.9354296 -0.50144386 0.96528041
-1.7887499 0.7082324 -0.10937855 0.99232179
-1.729287 0.70995116 -0.10628074 0.99253851
-1.5087109 0.70994139 -0.094798394 0.99334186
-1.3307323 0.70994139 -0.085750617 0.9939754
-1.1504004 0.70994139 -0.076856457 0.99459863
-1.1187109 0.70995116 -0.075328484 0.99470562
-1.0882226 0.70994139 -0.073871724 0.99480784
-1.0589062 0.70994139 -0.072481424 0.99490529
-1.0294238 0.72833985 -0.071694523 0.99496049
-1.0287499 0.8295117 -0.075133055 0.99471939
-1.0285938 0.85093749 -0.075896718 0.99466586
-1.0282617 0.89512694 -0.077508926 0.99455291
-1.0280957 0.9179492 -0.078359604 0.99449325
-1.0279199 0.94126952 -0.079241559 0.99443144
-6.0877051 5.7167478 -0.47479111 0.96709508
-6.0044532 5.7822657 -0.4739289 0.96715391
-5.9215136 5.847568 -0.47314438 0.96720731
-5.8388085 5.9126658 -0.4724367 0.96725559
-5.7563376 5.9775782 -0.47180578 0.96729863
-5.6741114 6.0423241 -0.47125074 0.96733636
-5.5101075 6.1713963 -0.47036707 0.96739668
-5.42834 6.2357907 -0.47003755 0.96741909
-5.269834 6.3701267 -0.47003001 0.96741962
-5.1478515 6.5512109 -0.47369248 0.96717
-5.0861621 6.6428123 -0.47565761 0.96703607
-4.8977928 6.9225097 -0.48211479 0.96659607
-4.8337793 7.0174899 -0.48446047 0.96643639
-4.6379294 7.3082323 -0.49210608 0.9659158
-4.5037694 7.5073924 -0.49773678 0.96553266
-4.4355273 7.6087594 -0.50072134 0.96532953
-4.3466892 7.6764841 -0.50154483 0.96527356
-4.1524315 7.7833886 -0.5015499 0.9652732
-4.0543165 7.83499 -0.50155252 0.96527302
-3.8562012 7.9344921 -0.50155771 0.96527261
-3.756201 7.9823532 -0.50156027 0.96527249
-3.6556249 8.0289745 -0.50156289 0.96527231
-3.5544434 8.074297 -0.50156558 0.96527219
-3.4527245 8.1183882 -0.50156826 0.96527195
-3.3504589 8.1611719 -0.50157094 0.96527177
-3.0405273 8.2817869 -0.50157911 0.96527123
-2.93625 8.3194036 -0.50158185 0.96527094
-2.7262695 8.3906546 -0.50158733 0.96527064
-2.620625 8.4242964 -0.50159013 0.96527046
-2.5145996 8.4566011 -0.50159293 0.96527022
-2.3013086 8.5172262 -0.5015986 0.96526986
-2.1941113 8.5455074 -0.5016014 0.96526968
-2.0865819 8.5724506 -0.50160426 0.96526951
-1.8705077 8.6222849 -0.50160992 0.96526909
-1.7620214 8.6451759 -0.50161284 0.96526885
-1.4349316 8.7055664 -0.50162148 0.96526837
-1.3254395 8.7229586 -0.50162441 0.96526819
-1.2157421 8.7389936 -0.50162733 0.9652679
-1.1058301 8.7536421 -0.50163025 0.96526766
-0.99576169 8.7668943 -0.50163317 0.96526748
-0.77513671 8.7892284 -0.50163901 0.96526718
-0.66463864 8.7983398 -0.50164199 0.96526688
-0.33254883 8.8172846 -0.50165081 0.96526635
0 8.8237209 -0.50165969 0.96526569
0.4433789 8.8127832 -0.50167155 0.96526492
0.55408204 8.806572 -0.50167447 0.96526468
0.66469723 8.7989645 -0.50167745 0.9652645
0.77520508 8.7899704 -0.50168043 0.96526426
0.88561523 8.7795801 -0.50168335 0.96526408
0.99587888 8.7678318 -0.50168633 0.96526378
1.3256543 8.7242184 -0.50169522 0.96526325
1.6535449 8.6682034 -0.50170404 0.96526265
1.8708984 8.6240034 -0.50170988 0.96526229
1.9791309 8.5998831 -0.5017128 0.965262
2.3018847 8.5193167 -0.5017215 0.96526146
2.4087596 8.4897556 -0.50172436 0.96526128
2.5152929 8.4588671 -0.50172722 0.9652611
2.7270801 8.3930759 -0.50173295 0.96526074
2.9371874 8.3219919 -0.50173867 0.96526033
3.041543 8.2844915 -0.50174147 0.96526009
3.1454198 8.2456446 -0.50174427 0.96525991
3.2488086 8.2055073 -0.50174713 0.96525979
3.7577343 7.9855466 -0.5017609 0.96525878
3.8578026 7.9377537 -0.50176364 0.96525854
3.9572363 7.8886814 -0.50176632 0.96525848
4.2518163 7.7340426 -0.50177437 0.96525794
4.348711 7.6800485 -0.50177705 0.9652577
4.4448829 7.6248336 -0.50177968 0.96525759
4.540381 7.568418 -0.50178224 0.96525741
4.6351562 7.5108104 -0.50178486 0.96525717
4.8225098 7.3920312 -0.50178999 0.96525681
4.915029 7.3308883 -0.50179249 0.96525663
5.0067773 7.2685838 -0.50179505 0.96525645
5.097744 7.2051172 -0.50179756 0.96525633
5.4534278 6.9400291 -0.50180733 0.96525568
5.7486911 6.6037889 -0.49777597 0.96552986
5.8179784 6.516201 -0.49664703 0.96560675
5.886992 6.4290037 -0.49560019 0.96567792
6.1604099 6.0834765 -0.49223286 0.96590716
6.2280664 5.9975877 -0.49157676 0.9659518
6.4488182 5.7578125 -0.49151149 0.96595627
6.5421677 5.6950583 -0.49313149 0.96584594
6.7307715 5.5681739 -0.49664021 0.96560717
6.8260837 5.5040236 -0.49853024 0.9654786
1.2579395 0.91394532 -0.088401638 0.99378973
1.2585351 0.82104492 -0.085432239 0.99399769
1.2586719 0.79876953 -0.084753379 0.99404526
1.2587988 0.77684569 -0.084098049 0.99409115
1.2590625 0.73394531 -0.082855985 0.99417812
1.2591602 0.71296871 -0.082267687 0.99421942
1.2914063 0.70996094 -0.083783679 0.99411309
1.3307421 0.70994139 -0.08575058 0.9939754
1.3719727 0.70994139 -0.087826192 0.99383003
1.4152734 0.70995116 -0.090019032 0.99367642
1.460791 0.70995116 -0.092339739 0.99351394
1.5087206 0.70993161 -0.094798394 0.99334186
1.5592871 0.70994139 -0.097407378 0.99315923
1.7293164 0.70994139 -0.10628078 0.99253839
1.7931347 0.70995116 -0.10964569 0.99230307
1.9337597 0.70994139 -0.11711594 0.99178082
2.0240624 0.71436524 -0.12203228 0.99143732
2.0240722 0.65766603 -0.12099781 0.99150956
8.4293556 2.6222167 -0.50189137 0.9652499
8.4616604 2.5161035 -0.50189233 0.96524984
8.5505276 2.1954002 -0.50189507 0.96524966
8.5774317 2.0877831 -0.5018959 0.96524966
8.6030178 1.9798437 -0.50189668 0.96524954
8.7277737 1.3261914 -0.50190073 0.9652493
8.7583685 1.1064453 -0.50190175 0.96524924
8.7715721 0.99629879 -0.50190228 0.96524924
8.7834473 0.8859961 -0.5019027 0.96524906
8.8029299 0.66498047 -0.50190347 0.96524912
8.810605 0.55432618 -0.50190377 0.96524906
8.8168745 0.44356444 -0.50190407 0.96524906
8.8252344 0.22185546 -0.50190449 0.96524906
8.8273239 0.1109375 -0.50190473 0.96524906
8.8280268 1.953125e-05 -0.50190485 0.96524906
8.8273335 -0.1109375 -0.5019049 0.96524906
8.8252439 -0.2218457 -0.50190496 0.965249
8.8217382 -0.3327246 -0.50190502 0.96524912
8.8105955 -0.55432618 -0.5019049 0.96524906
8.7939062 -0.77555662 -0.50190473 0.965249
8.7834473 -0.88600582 -0.50190461 0.96524906
8.7716303 -0.99628901 -0.50190437 0.96524906
8.7584076 -1.1064355 -0.50190413 0.96524906
8.7104683 -1.4357519 -0.50190324 0.96524912
8.6917286 -1.5451074 -0.50190282 0.96524918
8.5223236 -2.3026855 -0.50189912 0.96524942
2.0240624 -0.71438473 -0.12203213 0.99143726
1.861123 -0.70995116 -0.11324856 0.99205112
1.7931347 -0.70996094 -0.10964531 0.99230301
1.7293359 -0.70994139 -0.10628055 0.99253833
1.6693066 -0.70995116 -0.10313191 0.99275863
1.6127245 -0.70996094 -0.10017994 0.99296516
1.5592773 -0.70995116 -0.097407222 0.99315923
1.5087304 -0.70994139 -0.0947982 0.9933418
1.460791 -0.70996094 -0.092339516 0.99351394
1.4152637 -0.70994139 -0.090019189 0.99367648
1.2914063 -0.70995116 -0.083783567 0.99411315
1.2586621 -0.79877931 -0.084753565 0.99404526
1.2585254 -0.82106441 -0.085432358 0.99399769
1.2583984 -0.84370112 -0.086135745 0.9939484
1.2582617 -0.86670899 -0.086864814 0.99389732
1.2581054 -0.89012694 -0.08761932 0.99384445
1.257959 -0.91394532 -0.088401675 0.99378967
1.2577929 -0.9382031 -0.089211844 0.99373293
5.5685253 -4.2636032 -0.39873251 0.97229248
5.5144725 -4.3332324 -0.39873114 0.9722926
4.9454198 -3.9875975 -0.36117935 0.97486895
5.2897167 -4.6047754 -0.39872542 0.97229296
5.2314258 -4.6708493 -0.39872393 0.97229308
5.1723142 -4.7362108 -0.39872244 0.97229308
5.0515919 -4.8646483 -0.39871937 0.97229344
4.9900584 -4.9277244 -0.39871776 0.9722935
4.9277244 -4.9900193 -0.39871618 0.97229362
4.8645997 -5.0515428 -0.39871454 0.97229367
4.8007226 -5.112236 -0.3987129 0.97229385
4.7361035 -5.1721387 -0.39871123 0.97229391
4.6707129 -5.2312107 -0.39870957 0.97229403
4.4018846 -5.459199 -0.39870262 0.97229451
4.3329101 -5.5140624 -0.39870086 0.97229463
4.2632518 -5.568027 -0.39869907 0.97229487
4.1929297 -5.6211424 -0.39869723 0.97229493
4.1219435 -5.6733594 -0.39869538 0.97229505
4.0503221 -5.7246876 -0.39869353 0.97229517
3.7575097 -5.9208593 -0.39868593 0.97229564
3.6827831 -5.9675684 -0.398684 0.97229582
3.531621 -6.0581737 -0.39868003 0.97229606
3.3782322 -6.1449509 -0.39867604 0.97229636
1.9233788 -3.9574902 -0.25016224 0.98252553
1.8865918 -4.0092382 -0.25191483 0.98240429
2.8252149 -6.4177537 -0.39866155 0.97229731
2.6630175 -6.48666 -0.39865729 0.97229755
2.4166112 -6.5822849 -0.3986508 0.97229809
2.2504101 -6.6408691 -0.39864647 0.97229838
1.9984863 -6.7208495 -0.39863983 0.97229886
1.9138476 -6.7454004 -0.39863756 0.97229904
1.7437109 -6.7912889 -0.39863306 0.97229934
1.6582323 -6.8126168 -0.39863083 0.97229952
1.5724707 -6.8329 -0.39862853 0.97229958
1.4864941 -6.8520603 -0.39862627 0.97229981
1.4002637 -6.8701758 -0.398624 0.97229987
1.3138086 -6.8871775 -0.39862171 0.97230011
0.49560547 -3.9230077 -0.22480974 0.98428255
0.44614255 -3.9277246 -0.22474058 0.98428732
0.39955077 -3.9608788 -0.22633307 0.98417687
0.61591798 -6.9839354 -0.39860317 0.97230136
0.26425782 -7.0058985 -0.39859381 0.97230202
0.17618163 -7.0086231 -0.39859146 0.9723022
0.08810547 -7.0102439 -0.39858907 0.97230232
9.7656248e-06 -7.0107517 -0.39858675 0.9723025
-0.35223633 -7.0017381 -0.3985773 0.97230315
-0.44018555 -6.9967089 -0.39857498 0.97230333
-0.6158691 -6.9833493 -0.39857024 0.97230369
-1.0531055 -6.9306931 -0.39855853 0.97230446
-1.1401172 -6.9168844 -0.3985562 0.97230458
-1.5721387 -6.8314352 -0.39854458 0.97230542
-0.95685548 -3.9311912 -0.23002721 0.98392069
-1.0023144 -3.9037695 -0.22914228 0.98398209
-1.056123 -3.90874 -0.23019508 0.98390907
-1.9979395 -6.7190528 -0.39853308 0.97230619
-2.0821874 -6.6933885 -0.39853081 0.97230631
-2.1661131 -6.6666503 -0.39852855 0.97230649
-2.4158106 -6.5801463 -0.39852181 0.97230703
-2.4982812 -6.5492477 -0.39851955 0.97230715
-2.5803905 -6.5173044 -0.39851734 0.97230721
-2.6620605 -6.4843454 -0.39851508 0.97230732
-2.8241601 -6.4153223 -0.39851069 0.97230762
-2.9844239 -6.3422461 -0.39850634 0.97230798
-3.1428418 -6.2651758 -0.39850202 0.97230828
-3.3766797 -6.1421776 -0.39849567 0.9723087
-3.4535742 -6.0991993 -0.39849356 0.97230899
-3.5299413 -6.0553222 -0.39849147 0.97230899
-2.4353905 -3.9462891 -0.26364535 0.98159248
-3.9031055 -5.8215623 -0.39848125 0.97230971
-3.975908 -5.7720213 -0.39847925 0.97230989
-4.0481248 -5.7215915 -0.39847729 0.97230995
-4.119668 -5.6702247 -0.39847529 0.97231019
-4.1905761 -5.6180077 -0.39847335 0.97231019
-4.2608008 -5.5648632 -0.39847144 0.97231042
-4.3992872 -5.4559765 -0.39846763 0.97231066
-4.4674606 -5.4002442 -0.39846572 0.97231078
-4.6017089 -5.286211 -0.39846203 0.97231108
-4.6677637 -5.2279587 -0.39846018 0.97231114
-4.797627 -5.1089649 -0.3984566 0.97231138
-4.0115919 -3.8631346 -0.31663215 0.97793406
-5.1088376 -4.7975192 -0.39844793 0.97231203
-1.0286034 -0.85093749 -0.075896837 0.9946658
-1.0291797 -0.76768553 -0.072997168 0.99486905
-1.0293067 -0.747832 -0.072334252 0.9949156
-1.0294434 -0.72833985 -0.071694337 0.99496043
-1.0306641 -0.70994139 -0.071153373 0.9949984
-1.0588964 -0.70995116 -0.072481386 0.99490529
-1.1186817 -0.70995116 -0.075328596 0.99470574
-1.1503808 -0.70994139 -0.076856494 0.99459869
-1.1834277 -0.70994139 -0.078460313 0.99448615
-1.2537891 -0.70994139 -0.081917532 0.99424398
-1.3307226 -0.70994139 -0.085750505 0.99397546
-1.3719727 -0.70995116 -0.087825999 0.99383003
-1.4607714 -0.70995116 -0.092339739 0.993514
-1.5087011 -0.70994139 -0.094798237 0.99334192
-1.5592871 -0.70995116 -0.097407036 0.99315923
-1.6692773 -0.70995116 -0.10313202 0.99275869
-1.7293164 -0.70996094 -0.10628055 0.99253839
-1.7887597 -0.7082324 -0.10937835 0.99232173
-1.7886621 -0.68231446 -0.10884048 0.99235946
-8.4541111 -2.5138574 -0.50144601 0.96528029
-8.4849997 -2.4074121 -0.50144506 0.96528041
-8.5696678 -2.0858886 -0.50144249 0.96528059
-8.3752241 -1.816914 -0.48723698 0.96624726
-8.3309078 -1.589209 -0.48218334 0.96659148
-8.3415823 -1.4828515 -0.48168331 0.96662545
-8.3977051 -1.3841991 -0.48388115 0.96647578
-8.719697 -1.3249414 -0.50143766 0.96528095
-8.7356834 -1.2152929 -0.50143713 0.96528083
-8.7752438 -0.88515621 -0.5014357 0.96528095
-8.7856541 -0.77481443 -0.50143528 0.96528107
-8.7947168 -0.66435546 -0.50143498 0.96528095
-8.8086128 -0.44314453 -0.50143433 0.96528107
-8.813467 -0.33240235 -0.50143409 0.96528113
-8.8169527 -0.22163086 -0.50143391 0.96528113
-8.8190527 -0.11082031 -0.50143373 0.96528107
-8.3981838 0.42249998 -0.5014444 0.96686637
-8.3921871 0.52800781 -0.5014444 0.96686649
-8.384902 0.63340819 -0.50144452 0.96686643
-8.3663378 0.84392577 -0.50144482 0.96686643
-8.3550873 0.94898432 -0.50144494 0.96686637
-8.3133688 1.2632324 -0.50144577 0.96686643
-8.2968454 1.3675878 -0.50144613 0.96686637
-8.2790136 1.4717382 -0.50144643 0.96686637
-8.1946478 1.8858691 -0.50144827 0.9668662
-8.1703224 1.9886913 -0.50144881 0.96686614
-7.9641113 2.6988182 -0.50145352 0.96686578
-7.9295602 2.7986815 -0.50145435 0.96686578
-1.7894434 0.65697265 -0.1136758 0.99239063
-1.789541 0.68264645 -0.11421733 0.99235445
-1.6693066 0.70995116 -0.10817451 0.99275744
-1.612705 0.70995116 -0.1050782 0.99296409
-1.5087109 0.70994139 -0.0994334 0.99334079
-1.4152637 0.70994139 -0.094420619 0.99367547
-1.3719629 0.70994139 -0.092120357 0.99382907
-1.1504004 0.70994139 -0.080614395 0.99459773
-1.1187109 0.70995116 -0.079011723 0.99470478
-1.0589062 0.70994139 -0.076025121 0.99490446
-1.0306641 0.70994139 -0.07463222 0.99499762
-1.0287499 0.72785157 -0.075149722 0.99496299
-1.0286034 0.74733394 -0.075819932 0.99491823
-1.0283399 0.78735352 -0.077233925 0.99482363
-1.0281738 0.80793941 -0.077979162 0.99477386
-1.0277148 0.87217772 -0.080380477 0.99461329
-1.0275488 0.89447266 -0.081240006 0.99455589
-1.0273438 0.91727537 -0.082130887 0.99449641
-1.0271777 0.94056636 -0.08305458 0.99443465
-5.8387108 5.9125485 -0.49552757 0.96725094
-5.7562304 5.9774609 -0.49486569 0.96729404
-5.4281249 6.2355762 -0.49300316 0.96741509
-5.3463964 6.2998047 -0.4927299 0.9674328
-5.1475096 6.5507321 -0.49681744 0.96716708
-5.0235448 6.734736 -0.50103629 0.96689296
-4.9433885 6.8040137 -0.50152981 0.96686095
-4.8575292 6.865654 -0.50153208 0.96686065
-4.7708983 6.9261618 -0.50153428 0.96686059
-4.5953708 7.0439258 -0.50153887 0.96686029
-3.9589062 7.4206347 -0.50155544 0.96685928
-3.7712305 7.5178905 -0.50156039 0.9668588
-3.5811522 7.6103516 -0.50156534 0.96685851
-3.4852245 7.6547852 -0.50156784 0.96685845
-3.1942871 7.7808204 -0.50157547 0.96685791
-3.0963085 7.8204098 -0.50157809 0.96685761
-2.9977832 7.8587203 -0.50158066 0.96685755
-2.8987987 7.8958106 -0.50158328 0.96685743
-2.7993944 7.9316602 -0.5015859 0.96685719
-2.699502 7.9662304 -0.50158852 0.96685714
-2.5992382 7.9995995 -0.50159115 0.96685678
-2.1940429 8.1202536 -0.50160187 0.96685618
-1.7833203 8.2204199 -0.50161272 0.96685541
-1.6798828 8.2422361 -0.50161546 0.96685523
-1.4722461 8.2819042 -0.50162095 0.96685499
-1.1590821 8.3316498 -0.50162929 0.96685445
-1.0543066 8.3456049 -0.50163203 0.96685421
-0.94932616 8.3582516 -0.50163484 0.96685404
-0.31705078 8.4063082 -0.5016517 0.9668529
-0.21139649 8.4096775 -0.50165451 0.96685272
0 8.4124212 -0.50166017 0.96685237
0.10570312 8.4117966 -0.50166297 0.96685219
0.21141601 8.4098635 -0.50166577 0.96685201
0.42267576 8.4019728 -0.50167143 0.96685171
0.94943357 8.3591013 -0.50168556 0.9668507
1.1592284 8.3326759 -0.50169116 0.9668504
1.3682617 8.3010054 -0.50169683 0.96685004
1.6802245 8.2436914 -0.50170517 0.96684945
2.2964745 8.0939646 -0.5017218 0.96684837
2.3980079 8.0645313 -0.50172454 0.96684813
2.4991796 8.0337887 -0.50172728 0.96684802
2.599951 8.0018063 -0.50172997 0.96684778
2.7003026 7.9685349 -0.50173271 0.96684766
2.9987695 7.8612399 -0.50174081 0.96684712
3.0973339 7.8229685 -0.50174344 0.96684694
3.1954002 7.7834668 -0.50174612 0.96684682
3.2929981 7.7427535 -0.50174874 0.96684659
3.3900292 7.7007809 -0.50175136 0.96684653
3.4865625 7.6576266 -0.50175405 0.96684629
3.6779394 7.5676756 -0.50175923 0.96684587
3.8669822 7.4729295 -0.50176442 0.96684557
3.9605956 7.4237695 -0.50176698 0.96684551
4.0536036 7.3734665 -0.50176948 0.96684527
4.5086818 7.1045604 -0.50178188 0.9668445
4.5976562 7.0473828 -0.50178432 0.96684426
4.9460154 6.8075976 -0.50179392 0.96684372
5.0311813 6.7449217 -0.50179625 0.96684366
5.1155663 6.681211 -0.50179857 0.96684343
5.1991501 6.6164355 -0.50180089 0.96684325
5.2819238 6.5506248 -0.50180316 0.96684301
5.444912 6.4158688 -0.50180763 0.96684277
5.760498 6.1343064 -0.50181639 0.96684217
6.1344333 5.7606149 -0.50182676 0.96684152
6.3472657 5.5253711 -0.50183266 0.96684116
6.4162302 5.4451952 -0.50183463 0.96684098
6.5510936 5.2822752 -0.50183839 0.96684074
1.2569336 0.93756837 -0.093510054 0.99373621
1.2574219 0.8661328 -0.09105137 0.99390042
1.257871 0.7982617 -0.088839985 0.99404806
1.257998 0.77635741 -0.088153377 0.99409389
1.2583789 0.71251953 -0.086235769 0.9942221
1.2914063 0.70996094 -0.087880135 0.99411213
1.460791 0.70995116 -0.096854433 0.99351287
1.5087206 0.70993161 -0.099433251 0.99334079
1.8611425 0.70995116 -0.11878578 0.99204981
1.9337597 0.70994139 -0.12284225 0.99177951
2.0240037 0.71434569 -0.12799434 0.99143618
2.0240135 0.68587887 -0.12743957 0.99147308
2.0240037 0.6576367 -0.12690982 0.99150848
8.0362692 2.4999413 -0.501881 0.966838
8.0670509 2.3987596 -0.50188196 0.966838
8.1774511 1.9904296 -0.50188535 0.9668377
8.2249117 1.7843066 -0.50188679 0.96683758
8.2671576 1.577041 -0.50188816 0.96683758
8.2863379 1.4730469 -0.50188881 0.96683753
8.3041992 1.3688085 -0.50188935 0.96683753
8.3207521 1.2643456 -0.50188994 0.96683747
8.4156542 0.10575195 -0.5018937 0.96683729
8.4163475 9.7656248e-06 -0.50189382 0.96683717
8.4156733 -0.10575195 -0.50189394 0.96683717
8.413681 -0.21150391 -0.501894 0.96683717
8.4103613 -0.31721678 -0.501894 0.96683717
8.3924313 -0.63396484 -0.50189388 0.96683717
8.3837795 -0.73938477 -0.50189376 0.96683729
8.3738184 -0.84468746 -0.50189358 0.96683729
8.3360443 -1.1596875 -0.50189292 0.96683723
8.2864161 -1.4730469 -0.50189191 0.96683723
8.2672167 -1.5770605 -0.50189155 0.96683735
8.246767 -1.6808202 -0.50189108 0.96683729
8.2249899 -1.7843066 -0.5018906 0.96683735
8.2019043 -1.8875195 -0.50189012 0.96683735
8.1518259 -2.0930371 -0.50188899 0.96683758
8.0966311 -2.2972264 -0.50188774 0.96683764
1.9337499 -0.70995116 -0.1228418 0.99177951
1.861123 -0.70995116 -0.11878543 0.99204987
1.7293359 -0.70994139 -0.11147701 0.99253714
1.5592968 -0.70994139 -0.10216965 0.9931581
1.5087304 -0.70994139 -0.099433057 0.99334073
1.3719823 -0.70996094 -0.092120245 0.99382895
1.2914063 -0.70995116 -0.087879866 0.99411219
1.2583691 -0.71253902 -0.086235695 0.9942221
1.2582519 -0.73349607 -0.086852111 0.99418092
1.257998 -0.77634764 -0.088153571 0.99409395
1.2574121 -0.8661328 -0.091051444 0.99390042
1.2571094 -0.91333008 -0.092661284 0.99379283
1.2569238 -0.93757808 -0.093510248 0.99373621
5.3088574 -4.064785 -0.39872536 0.97356308
4.8884764 -4.0440822 -0.37834039 0.97489762
4.9874902 -4.4530468 -0.39871719 0.97356361
4.8739743 -4.5769529 -0.39871427 0.97356373
4.8160543 -4.6378126 -0.39871278 0.97356385
4.7573633 -4.6979489 -0.39871132 0.97356403
4.515244 -4.9309669 -0.3987051 0.97356439
4.45292 -4.9872851 -0.39870349 0.97356451
3.3975389 -4.003408 -0.31312054 0.97917944
3.3965235 -4.1056738 -0.31775609 0.97887444
4.1966114 -5.204658 -0.3986969 0.97356492
4.0644627 -5.3084178 -0.39869347 0.97356522
3.9974413 -5.3590426 -0.39869174 0.97356528
3.9297557 -5.4088278 -0.39868996 0.9735654
3.7925487 -5.5058298 -0.39868644 0.97356564
3.7230663 -5.5530272 -0.39868462 0.97356576
3.6529589 -5.5993457 -0.39868277 0.97356588
3.5823047 -5.6447849 -0.39868096 0.973566
3.5110447 -5.6893163 -0.39867911 0.97356617
3.3669629 -5.775713 -0.39867535 0.97356635
3.2940722 -5.8175488 -0.39867344 0.97356647
3.2207227 -5.8584275 -0.39867154 0.97356665
3.1468163 -5.8984179 -0.39866957 0.97356677
1.9778026 -3.9426854 -0.26303983 0.98248017
1.9233691 -3.9574902 -0.2623933 0.98252279
1.8866016 -4.0092282 -0.26423135 0.98240149
2.7701855 -6.0842185 -0.39865974 0.97356737
2.693496 -6.118535 -0.39865774 0.97356749
2.3826172 -6.245996 -0.39864954 0.97356808
2.2248731 -6.3038473 -0.3986454 0.97356832
2.1454785 -6.3312693 -0.39864334 0.97356844
2.0657518 -6.3576856 -0.3986412 0.97356862
1.9053026 -6.4075098 -0.39863697 0.97356892
1.8246093 -6.4309278 -0.39863485 0.97356904
1.7436719 -6.4533005 -0.39863274 0.97356921
1.6624316 -6.4746776 -0.39863056 0.97356927
1.580918 -6.4950194 -0.39862841 0.97356945
1.4991894 -6.5143552 -0.39862624 0.97356951
1.417207 -6.5326266 -0.39862406 0.97356969
1.2525586 -6.5661035 -0.39861971 0.97357005
1.1699317 -6.5812888 -0.39861754 0.97357017
1.0871484 -6.595459 -0.39861533 0.97357023
0.55080074 -3.9590917 -0.23836751 0.9841103
0.49560547 -3.9230077 -0.23580115 0.98427999
0.44614255 -3.9277246 -0.23572822 0.98428476
0.58721679 -6.6583591 -0.39860207 0.97357118
0.5035156 -6.665195 -0.3985998 0.9735713
0.41970703 -6.6709471 -0.3985976 0.97357148
0.25191405 -6.6793065 -0.39859313 0.97357178
0.16797851 -6.6819239 -0.39859089 0.97357184
9.7656248e-06 -6.6839352 -0.39858642 0.97357225
-0.083974607 -6.6833982 -0.39858416 0.97357231
-0.16796875 -6.6817675 -0.39858192 0.97357249
-0.33583006 -6.6753612 -0.39857742 0.97357279
-0.50345701 -6.6647263 -0.39857292 0.97357309
-0.67077148 -6.6499023 -0.39856845 0.97357339
-0.83767575 -6.6308689 -0.39856398 0.97357368
-0.9209277 -6.6197753 -0.39856175 0.97357386
-1.3347266 -6.5487108 -0.3985506 0.97357458
-1.4169042 -6.5313964 -0.39854839 0.97357464
-1.4988769 -6.5130367 -0.39854616 0.97357482
-0.95685548 -3.9311912 -0.2412734 0.98391813
-1.0023144 -3.9037695 -0.24034552 0.98397952
-1.056123 -3.90874 -0.24144976 0.98390651
-1.8241699 -6.4293551 -0.39853743 0.97357541
-1.9048241 -6.4058785 -0.39853522 0.97357559
-2.0651464 -6.3559375 -0.39853087 0.97357583
-2.1448631 -6.3294435 -0.39852872 0.97357595
-2.2242186 -6.3019629 -0.39852661 0.97357607
-2.6925292 -6.1163278 -0.39851391 0.97357684
-2.9210742 -6.0104003 -0.39850768 0.97357732
-3.1454883 -5.895947 -0.39850157 0.97357774
-3.2193162 -5.8558984 -0.39849955 0.97357792
-3.2926464 -5.8149805 -0.39849752 0.97357792
-3.4376855 -5.7303224 -0.39849356 0.97357827
-2.4353905 -3.9462891 -0.27653611 0.98158956
-2.4727929 -3.8964844 -0.27520126 0.98167753
-2.533076 -3.8827734 -0.27645633 0.98159456
-3.721211 -5.5502634 -0.39848581 0.97357869
-3.7906151 -5.5030274 -0.3984839 0.97357893
-3.859453 -5.4549513 -0.39848205 0.97357899
-3.9952831 -5.3561716 -0.39847827 0.97357929
-4.0622458 -5.3055272 -0.39847648 0.97357941
-4.1286035 -5.2540426 -0.39847463 0.97357947
-4.1942577 -5.2017283 -0.39847282 0.97357959
-4.3235936 -5.0946288 -0.39846924 0.97357994
-4.5124903 -4.9279881 -0.39846405 0.97358024
-4.5740528 -4.8708692 -0.39846233 0.9735803
-3.9487207 -3.8994141 -0.33094063 0.97800767
-4.0115919 -3.8631346 -0.33211365 0.97793055
-1.0271679 -0.94058591 -0.083054505 0.9944346
-1.0277148 -0.87217772 -0.080380477 0.99461329
-1.0278614 -0.85033202 -0.079551354 0.99466878
-1.0283203 -0.78735352 -0.077233694 0.99482369
-1.0287499 -0.72786129 -0.075149722 0.99496299
-1.0306641 -0.70994139 -0.074632376 0.99499762
-1.1503808 -0.70994139 -0.080614202 0.99459779
-1.1834277 -0.70994139 -0.08229652 0.99448526
-1.2178613 -0.70995116 -0.084063947 0.99436718
-1.2537891 -0.70994139 -0.085922815 0.99424309
-1.2913867 -0.70996094 -0.087880358 0.99411219
-1.3307226 -0.70994139 -0.089943081 0.99397451
-1.3719727 -0.70995116 -0.092120282 0.99382901
-1.4152734 -0.70995116 -0.094420582 0.99367541
-1.5592871 -0.70995116 -0.10216976 0.9931581
-1.6127148 -0.70996094 -0.10507824 0.99296409
-1.789541 -0.68265623 -0.11421711 0.99235445
-7.96416 -2.6988182 -0.5014593 0.9668656
-7.9974413 -2.5985253 -0.50145829 0.9668656
-8.0294533 -2.4978125 -0.50145733 0.96686566
-8.060215 -2.3967285 -0.50145638 0.9668656
-8.0896578 -2.295244 -0.50145555 0.96686578
-8.1447849 -2.0912206 -0.50145382 0.96686578
-8.2394924 -1.6793456 -0.5014509 0.96686608
-8.2325287 -1.5704395 -0.49978656 0.9669742
-8.2012987 -1.4579102 -0.49673793 0.96717221
-8.2969332 -1.3675976 -0.50144899 0.96686608
-8.3425293 -1.0539062 -0.50144744 0.96686625
-8.3663473 -0.84390622 -0.5014466 0.96686637
-8.3762789 -0.73873043 -0.50144619 0.96686643
-8.3849316 -0.63339841 -0.50144589 0.96686631
-8.4028416 -0.31691405 -0.50144506 0.96686631
-8.4061422 -0.21130858 -0.50144482 0.96686637
-8.4081249 -0.10564453 -0.5014447 0.96686643
-8.0343361 -0 -0.50145453 0.96831304
-8.0317774 0.2019043 -0.50145441 0.9683131
-8.0286131 0.30281249 -0.50145435 0.9683131
-8.0114746 0.60520506 -0.50145453 0.96831316
-7.9937596 0.80632812 -0.50145477 0.96831304
-7.9829688 0.90672851 -0.50145495 0.96831316
-7.9576755 1.1070606 -0.50145543 0.9683131
-7.9103122 1.4062011 -0.50145638 0.96831304
-7.8920312 1.5054981 -0.50145674 0.96831298
-7.8517184 1.7033496 -0.50145763 0.96831292
-7.8064647 1.9001367 -0.50145859 0.9683128
-7.7819629 1.9980761 -0.50145912 0.96831286
-7.7562695 2.0957129 -0.50145978 0.96831274
-7.6717868 2.3865721 -0.50146168 0.96831268
-7.6093946 2.5786133 -0.50146317 0.96831262
-7.576416 2.6740332 -0.50146389 0.96831256
-1.7903222 0.65729493 -0.11903369 0.99238563
-1.7904004 0.68297851 -0.11960121 0.99234951
-1.6693066 0.70995116 -0.11321861 0.99275625
-1.612705 0.70995116 -0.10997787 0.99296296
-1.5087109 0.70994139 -0.10406993 0.99333972
-1.4152637 0.70994139 -0.098823465 0.9936744
-1.3719629 0.70994139 -0.096416011 0.99382806
-1.3307323 0.70994139 -0.094137155 0.99397343
-1.2538086 0.70994139 -0.089929655 0.99424201
-1.1504004 0.70994139 -0.0843734 0.99459684
-1.0882226 0.70994139 -0.08109653 0.99480611
-1.0280664 0.727373 -0.078601412 0.99496549
-1.0277832 0.7666406 -0.080027997 0.99487436
-1.0274707 0.80738282 -0.081558645 0.99477655
-1.0269629 0.87155271 -0.084068641 0.99461627
-1.0268066 0.89382809 -0.084966771 0.99455887
-1.0266016 0.91661131 -0.085897937 0.99449944
-5.5737009 5.7878904 -0.50151408 0.96830934
-5.4265137 5.9261813 -0.50151783 0.9683091
-5.3516307 5.993906 -0.5015198 0.9683091
-5.275918 6.0607128 -0.50152177 0.96830893
-5.1993747 6.1265526 -0.50152373 0.96830875
-5.0437989 6.2553515 -0.50152773 0.96830851
-4.8850584 6.3801756 -0.50153184 0.96830821
-4.6411815 6.559834 -0.50153816 0.96830785
-4.5583982 6.6176562 -0.5015403 0.96830773
-4.1339645 6.8909664 -0.50155133 0.96830708
-4.04708 6.9424219 -0.50155365 0.96830684
-3.9595213 6.9927635 -0.50155592 0.96830672
-3.8713768 7.0419922 -0.50155824 0.9683066
-3.782578 7.090117 -0.50156057 0.96830648
-3.4216406 7.2713671 -0.50156999 0.96830583
-3.3299804 7.3138084 -0.50157237 0.96830577
-3.1451757 7.3952341 -0.5015772 0.96830553
-3.0520215 7.4342184 -0.50157964 0.96830529
-2.958369 7.4720116 -0.50158215 0.96830523
-2.7696874 7.5440917 -0.50158709 0.96830481
-2.6746972 7.5783591 -0.5015896 0.96830457
-2.579248 7.6113768 -0.5015921 0.96830457
-2.387207 7.6738768 -0.50159717 0.96830416
-2.0962987 7.7585154 -0.50160486 0.96830374
-1.9986719 7.7842965 -0.50160742 0.9683035
-1.8024316 7.8321481 -0.5016126 0.9683032
-1.6050586 7.8750391 -0.50161785 0.96830291
-1.4066699 7.9129686 -0.50162309 0.96830255
-1.3071191 7.9300585 -0.50162572 0.96830243
-1.2073828 7.9459081 -0.50162834 0.96830225
-1.1074317 7.9604979 -0.50163102 0.96830207
-0.80662107 7.9966893 -0.50163907 0.96830165
-0.40382811 8.0272951 -0.5016498 0.96830094
-0.30291992 8.0317774 -0.50165242 0.96830076
-0.20195311 8.0350094 -0.50165516 0.96830058
0.10100586 8.0370312 -0.50166321 0.9683001
0.50470704 8.0219917 -0.50167406 0.96829939
0.60547853 8.0150385 -0.50167674 0.96829927
0.70615232 8.0068455 -0.50167942 0.96829909
0.80670899 7.9973731 -0.5016821 0.96829897
0.90713865 7.9866695 -0.50168478 0.96829873
1.0074512 7.9746871 -0.50168747 0.96829849
1.3073144 7.9311523 -0.50169557 0.96829814
1.4068848 7.9141502 -0.5016982 0.9682979
1.6053613 7.8763766 -0.50170356 0.9682976
1.8027831 7.833652 -0.50170892 0.96829718
2.0968065 7.7602539 -0.50171685 0.96829671
2.3878319 7.6758399 -0.50172466 0.96829617
2.7705371 7.5463085 -0.50173503 0.96829563
2.8651366 7.5109472 -0.50173759 0.96829545
2.959326 7.4743943 -0.50174016 0.96829522
3.0530369 7.4366403 -0.50174272 0.9682951
3.4229002 7.2740035 -0.50175273 0.96829444
3.5140526 7.2304392 -0.50175518 0.96829438
3.6946678 7.1399217 -0.50176013 0.96829408
3.7841406 7.092988 -0.50176257 0.96829379
3.8729687 7.0448923 -0.50176501 0.96829373
3.9612012 6.9957027 -0.5017674 0.96829361
4.1358104 6.8940134 -0.50177217 0.96829325
4.2221289 6.8415332 -0.50177455 0.96829313
4.3077831 6.7879686 -0.50177687 0.96829301
4.5606251 6.6208787 -0.50178379 0.96829253
4.6434765 6.5630856 -0.50178611 0.96829242
4.8070021 6.444375 -0.50179058 0.96829206
4.8875875 6.3834863 -0.50179285 0.96829206
5.2022462 6.1299415 -0.50180149 0.96829152
5.2789063 6.0641308 -0.50180358 0.96829128
5.4296679 5.9295993 -0.50180775 0.9682911
5.5037794 5.860918 -0.50180984 0.96829093
5.5770211 5.791338 -0.50181186 0.96829075
5.6493649 5.7208104 -0.50181383 0.96829069
5.72082 5.6493945 -0.5018158 0.96829057
5.9297657 5.4298143 -0.50182164 0.96829021
6.0643749 5.2791209 -0.50182539 0.96829003
6.1302733 5.2025194 -0.50182724 0.96828985
6.3840036 4.8880076 -0.50183433 0.96828943
1.2560742 0.9369238 -0.097803876 0.99373943
1.2569042 0.81998044 -0.093665883 0.99400347
1.2571875 0.77584958 -0.092204928 0.99409676
1.257334 0.75428706 -0.091512449 0.99414086
1.2575879 0.71208984 -0.090200081 0.99422473
1.6692871 0.70995116 -0.11321865 0.99275631
1.7931347 0.70995116 -0.12036926 0.99230051
1.8611425 0.70995116 -0.12432464 0.99204844
1.9337597 0.70994139 -0.12857017 0.99177808
2.0239258 0.68583983 -0.13337722 0.99147207
2.0239258 0.65761715 -0.13282253 0.99150735
7.6780758 2.3885057 -0.50187153 0.96828711
7.7075195 2.2918553 -0.50187248 0.96828699
7.7626657 2.0974512 -0.50187415 0.96828699
7.7884178 1.9997363 -0.50187492 0.96828699
7.8129783 1.9017187 -0.5018757 0.96828681
7.8362694 1.8033886 -0.50187641 0.96828675
7.8791308 1.6058984 -0.50187778 0.96828669
7.9340916 1.3077929 -0.50187957 0.96828657
7.9777832 1.0078418 -0.50188106 0.9682864
7.9898143 0.90749997 -0.50188148 0.96828645
8.0005951 0.80703121 -0.50188184 0.9682864
8.0183296 0.60570312 -0.50188255 0.96828645
8.0310249 0.40402344 -0.50188309 0.96828645
8.0386419 0.20208007 -0.50188351 0.96828645
8.0412006 -0 -0.5018838 0.9682864
8.0386524 -0.20208985 -0.50188392 0.9682864
8.0354786 -0.3030664 -0.50188398 0.9682864
8.025342 -0.50491208 -0.50188392 0.96828634
8.010107 -0.7064355 -0.50188375 0.9682864
7.9898338 -0.90749997 -0.50188345 0.96828634
7.9644823 -1.107998 -0.50188297 0.96828645
7.9341111 -1.3077831 -0.50188237 0.96828651
7.9170604 -1.4073827 -0.50188202 0.96828645
7.8363376 -1.8033984 -0.50188023 0.96828651
7.8130274 -1.9017187 -0.50187975 0.96828663
7.788496 -1.9997363 -0.50187916 0.96828669
7.7075782 -2.2918651 -0.50187737 0.96828675
7.678164 -2.388535 -0.50187665 0.96828675
2.023916 -0.65761715 -0.1328226 0.99150741
2.0239258 -0.68584961 -0.13337715 0.99147201
2.0239356 -0.71432614 -0.13395801 0.99143499
1.7931347 -0.70996094 -0.1203688 0.99230051
1.7293359 -0.70994139 -0.11667499 0.99253589
1.5592773 -0.70995116 -0.10693382 0.99315703
1.460791 -0.70996094 -0.10137073 0.9935118
1.4152637 -0.70994139 -0.098823354 0.9936744
1.3719823 -0.70996094 -0.096415743 0.99382794
1.3307323 -0.70995116 -0.094137229 0.99397343
1.2575879 -0.71209961 -0.090200387 0.99422467
1.257461 -0.73303711 -0.090844728 0.99418354
1.2573144 -0.75428706 -0.091512643 0.99414098
1.2571875 -0.77584958 -0.092204966 0.99409676
1.2570312 -0.79775387 -0.092922553 0.99405098
1.256914 -0.81999022 -0.093665808 0.99400342
1.256748 -0.84258789 -0.094436035 0.9939543
1.2565918 -0.86557615 -0.095234104 0.99390334
1.2564257 -0.88894528 -0.096060447 0.99385059
1.25625 -0.91271484 -0.096916653 0.99379599
1.2560742 -0.93694335 -0.097804107 0.99373937
4.9450388 -3.9872754 -0.39647281 0.97486269
4.8882909 -4.0439453 -0.39596671 0.97489434
4.8706541 -4.1335254 -0.39871374 0.97472239
4.8183007 -4.1943846 -0.39871243 0.9747225
4.7113476 -4.3141308 -0.39870968 0.97472262
4.5453415 -4.488574 -0.39870542 0.97472298
4.4310837 -4.6013474 -0.3987025 0.9747231
4.3140135 -4.7112107 -0.39869949 0.97472334
3.3975389 -4.003408 -0.32772139 0.97917593
3.3965235 -4.1056738 -0.33257315 0.97887093
3.9467871 -5.0226755 -0.39869002 0.97472388
3.5571387 -5.3055663 -0.39867991 0.97472453
3.4226756 -5.3932419 -0.3986764 0.97472471
3.3545897 -5.435791 -0.39867464 0.97472489
3.2168944 -5.5183201 -0.39867106 0.97472513
3.1473045 -5.5583005 -0.39866924 0.97472513
3.0771875 -5.597363 -0.3986674 0.97472537
3.006582 -5.6355858 -0.39866558 0.97472543
1.9777832 -3.9426951 -0.27530742 0.98247719
1.9233691 -3.9574902 -0.27462882 0.98251987
1.8865918 -4.0092382 -0.27655283 0.98239851
2.6467187 -5.8130956 -0.39865616 0.97472608
2.351289 -5.938623 -0.39864838 0.9747265
2.2764452 -5.9676852 -0.39864641 0.97472662
2.125752 -6.0229492 -0.39864245 0.97472686
1.9737011 -6.0744042 -0.39863846 0.97472709
1.432373 -6.224082 -0.39862415 0.97472799
1.3540429 -6.2415333 -0.3986221 0.97472823
1.275498 -6.2580466 -0.39861998 0.97472829
1.1178223 -6.2880564 -0.39861584 0.97472852
0.55080074 -3.9590917 -0.24948278 0.98410761
0.44614255 -3.9277246 -0.24672036 0.98428214
0.39955077 -3.9608788 -0.24846958 0.98417169
0.48107421 -6.3682127 -0.39859888 0.97472966
0.40101561 -6.3737302 -0.39859679 0.97472972
0.16049804 -6.3842087 -0.39859039 0.97473013
0.080253907 -6.3856835 -0.39858821 0.97473031
-0.48104492 -6.3678122 -0.39857322 0.97473121
-0.80033201 -6.3354588 -0.39856467 0.9747318
-0.9593066 -6.3132811 -0.3985604 0.97473204
-1.0385449 -6.300703 -0.39855826 0.9747321
-1.1965528 -6.2725391 -0.398554 0.9747324
-1.2752637 -6.2569723 -0.39855188 0.97473258
-1.3537987 -6.2404199 -0.39854977 0.9747327
-1.4320703 -6.2228808 -0.39854765 0.97473288
-1.7429199 -6.1429391 -0.39853927 0.97473335
-1.8199414 -6.1205173 -0.39853722 0.97473353
-2.2006054 -5.9940038 -0.39852691 0.97473419
-2.3505371 -5.9367576 -0.39852282 0.97473437
-2.4249315 -5.9067283 -0.3985208 0.97473449
-2.4989452 -5.875742 -0.39851883 0.97473466
-2.5725586 -5.8438573 -0.39851683 0.97473478
-2.718574 -5.7773142 -0.39851284 0.97473502
-2.7909667 -5.7426462 -0.39851087 0.9747352
-3.0053711 -5.6333203 -0.39850506 0.97473544
-3.145957 -5.5559373 -0.39850119 0.9747358
-3.2155175 -5.5159473 -0.39849928 0.97473586
-3.2845604 -5.4750781 -0.39849737 0.97473598
