# .PCD v0.7 - Point Cloud Data file format
VERSION 0.7
FIELDS x y z intensity
SIZE 4 4 4 4
TYPE F F F F
COUNT 1 1 1 1
WIDTH 1082
HEIGHT 1
VIEWPOINT 0 0 0 1 0 0 0
POINTS 1082
DATA ascii
2.0166309 0.68337888 -0.085579261 0.99151224
11.941308 3.7147362 -0.5026291 0.95116907
11.987119 3.5644042 -0.50263304 0.95116878
12.031064 3.4135253 -0.50263685 0.95116836
12.113233 3.1101563 -0.50264388 0.95116764
12.187724 2.8047948 -0.50265032 0.95116705
12.222031 2.6514452 -0.50265336 0.95116693
12.285 2.3434961 -0.50265884 0.95116615
12.364746 1.878828 -0.50266588 0.95116562
12.387441 1.7233105 -0.5026679 0.95116538
12.408183 1.5675195 -0.50266975 0.95116514
12.44371 1.2552148 -0.50267309 0.9511649
12.458535 1.09875 -0.50267446 0.95116478
12.471387 0.94210935 -0.50267565 0.95116466
12.503057 0.31431639 -0.50267893 0.95116436
12.507051 9.7656248e-06 -0.50267959 0.95116419
12.498115 -0.47137696 -0.50267935 0.95116436
12.482314 -0.78531247 -0.50267839 0.95116436
12.471445 -0.94209957 -0.50267768 0.95116442
12.443769 -1.2551953 -0.50267571 0.95116466
12.387529 -1.7233202 -0.5026716 0.95116502
12.364882 -1.8788378 -0.50266987 0.95116508
12.313613 -2.1889453 -0.502666 0.95116568
12.222236 -2.6514549 -0.50265896 0.95116615
12.151591 -2.9577343 -0.50265348 0.95116675
12.073252 -3.2621386 -0.5026474 0.9511674
11.987314 -3.5644531 -0.50264066 0.951168
2.0166407 -0.6833691 -0.08557941 0.99151224
1.9337695 -0.70994139 -0.08279331 0.99178737
1.7931445 -0.70996094 -0.077512316 0.99230921
1.7293164 -0.70995116 -0.075133778 0.99254441
1.6693164 -0.70996094 -0.072907634 0.99276435
1.5592871 -0.70995116 -0.068860628 0.99316472
1.5087402 -0.70995116 -0.067016333 0.99334711
1.4608008 -0.70996094 -0.06527824 0.99351913
1.3719921 -0.70994139 -0.062087324 0.99383491
1.3307519 -0.70994139 -0.060620077 0.99398017
1.2914159 -0.70994139 -0.059229657 0.99411786
1.2638476 -0.73674804 -0.058796577 0.99416077
1.2636817 -0.77984375 -0.059681397 0.99407309
1.2632715 -0.870166 -0.061652526 0.99387801
1.2631738 -0.89369136 -0.062190436 0.99382472
1.2629395 -0.94204098 -0.063325077 0.99371243
7.8098826 -6.1369433 -0.39920998 0.96101773
7.6529784 -6.3310838 -0.39919725 0.9610188
4.6507616 -4.0485349 -0.24782477 0.975618
7.4085741 -6.614707 -0.39917746 0.96102065
7.2397165 -6.7985449 -0.39916378 0.96102208
7.0663671 -6.9780955 -0.39914969 0.96102333
6.8885155 -7.1532321 -0.39913523 0.9610247
6.7063279 -7.3237891 -0.39912048 0.96102619
6.6136327 -7.4073143 -0.39911291 0.96102697
6.5199022 -7.4897165 -0.39910528 0.96102768
6.4251757 -7.5709081 -0.39909759 0.96102834
3.2017968 -3.97083 -0.20501335 0.97978705
3.1561327 -4.0164647 -0.20530519 0.97975856
6.1315036 -8.2200384 -0.41216391 0.95977825
6.0275779 -8.2962255 -0.41215548 0.95977926
5.8169532 -8.4447412 -0.41213831 0.95978087
5.6026559 -8.5879002 -0.41212082 0.95978248
5.2746677 -8.7923775 -0.41209406 0.9597851
4.4573045 -7.8718357 -0.36358115 0.96443397
4.3392773 -7.8930664 -0.36201617 0.96458441
4.2396483 -7.9467869 -0.36200804 0.96458524
4.0087595 -8.2483301 -0.36859402 0.9639526
1.8088769 -3.9728613 -0.17544818 0.98267657
1.7356347 -3.9425781 -0.17313237 0.98290312
3.2618456 -8.2384081 -0.35612574 0.96515054
2.9060254 -8.2336912 -0.35093489 0.96564972
2.7896581 -8.2321386 -0.34934711 0.96580249
2.5599315 -8.2291012 -0.3463769 0.96608818
2.2222753 -8.2246094 -0.34241682 0.96646935
1.8917577 -8.2202196 -0.3390224 0.96679616
1.7829882 -8.2187843 -0.33801147 0.96689343
1.6748437 -8.2173386 -0.33705977 0.96698505
1.5672852 -8.2159128 -0.33616722 0.96707106
1.4602734 -8.2144966 -0.33533126 0.96715152
1.0370507 -8.2088528 -0.33255336 0.96741945
0.93224609 -8.2074652 -0.33199555 0.96747309
0.82779294 -8.2060785 -0.33149186 0.96752161
0.72361326 -8.2047024 -0.33104286 0.96756488
0.24682617 -3.9228027 -0.15797687 0.98438823
0.10302734 -8.1964598 -0.32945785 0.96771765
-0.10294922 -8.193716 -0.32934755 0.96772832
-0.41199219 -8.1896238 -0.32957283 0.96770656
-0.51513672 -8.1882467 -0.32975155 0.96768928
-0.61843747 -8.1868801 -0.32998365 0.96766692
-0.82552731 -8.1841259 -0.33060554 0.96760708
-0.92939448 -8.1827393 -0.33099481 0.96756953
-0.55592769 -3.9962304 -0.16216224 0.98397785
-1.5593359 -8.1743841 -0.33446887 0.96723479
-1.7727149 -8.1715622 -0.33607018 0.96708047
-1.9882812 -8.1686916 -0.33790138 0.96690416
-2.0969923 -8.1672459 -0.3389045 0.96680748
-2.2063673 -8.165801 -0.33996862 0.96670508
-2.3164062 -8.1643362 -0.34109232 0.9665969
-1.1759278 -3.954658 -0.16582257 0.98361915
-1.2171582 -3.9127343 -0.16469379 0.98372984
-2.9941211 -8.1553364 -0.34917122 0.96581942
-3.3461523 -8.1506586 -0.35412246 0.96534318
-3.4657812 -8.1490774 -0.35591751 0.96517056
-3.708828 -8.145854 -0.35973501 0.96480364
-4.7027636 -9.08813 -0.41127372 0.95986348
-5.0416212 -8.9038086 -0.41124564 0.95986617
-5.2635546 -8.7739162 -0.41122723 0.95986789
-5.3732615 -8.7068701 -0.41121814 0.95986885
-5.5900974 -8.568716 -0.41120017 0.95987058
-2.7472949 -3.8830371 -0.19117838 0.98113823
-6.0130563 -8.2763128 -0.41116503 0.95987397
-6.1164842 -8.1999464 -0.41115645 0.95987463
-6.2189159 -8.1222754 -0.41114795 0.95987546
-6.3203125 -8.0433006 -0.41113952 0.95987642
-6.3128905 -7.6309762 -0.39804989 0.96112865
-6.4081054 -7.550859 -0.39804199 0.96112967
-6.7788963 -7.2188087 -0.39801112 0.96113247
-6.9579101 -7.0458984 -0.39799622 0.96113396
-7.0457711 -6.9578123 -0.39798889 0.96113455
-7.1325192 -6.8685837 -0.39798164 0.96113527
-4.173779 -3.9194629 -0.23012382 0.97733974
-1.0331738 -0.81187499 -0.052812383 0.9947536
-1.0332617 -0.79114258 -0.052305069 0.99480391
-1.0333691 -0.77083004 -0.051815644 0.99485236
-1.0334668 -0.7508691 -0.051343039 0.99489915
-1.0335547 -0.73127925 -0.050886955 0.99494433
-1.0336425 -0.71201169 -0.050446969 0.99498796
-1.0882031 -0.70994139 -0.052222516 0.99481207
-1.1187011 -0.70995116 -0.05325241 0.99470991
-1.1834179 -0.70996094 -0.055466309 0.99449062
-1.217832 -0.70995116 -0.05665775 0.99437267
-1.2537988 -0.70996094 -0.057910535 0.99424857
-1.2913965 -0.70996094 -0.059229773 0.99411786
-1.3719434 -0.70995116 -0.062087629 0.99383509
-1.4152441 -0.70995116 -0.063637845 0.99368161
-1.4607812 -0.70995116 -0.065278284 0.99351919
-1.5087109 -0.70994139 -0.067016527 0.99334723
-1.5592577 -0.70994139 -0.068860739 0.99316484
-1.7292968 -0.70994139 -0.075133778 0.99254447
-1.7835058 -0.68033201 -0.076720387 0.99238753
-10.260556 -3.6213672 -0.43732432 0.95737642
-11.983896 -3.4001367 -0.50066876 0.9513551
-12.025644 -3.2492578 -0.50066513 0.95135522
-12.06541 -3.0978711 -0.50066167 0.9513557
-12.1033 -2.9459863 -0.50065839 0.95135599
-12.264072 -2.1801367 -0.50064439 0.95135731
-12.337363 -1.7163281 -0.50063783 0.9513579
-12.35792 -1.5611523 -0.50063604 0.95135808
-12.376562 -1.4057324 -0.50063431 0.95135808
-12.407851 -1.0942578 -0.50063139 0.95135856
-12.4471 -0.46946287 -0.50062752 0.9513588
-12.452022 -0.3130078 -0.50062692 0.95135874
-12.454931 -0.15651366 -0.5006265 0.95135891
-11.65292 -0 -0.50069231 0.95441693
-11.652001 0.1464453 -0.50069225 0.95441693
-11.649228 0.29284179 -0.50069231 0.95441693
-11.629961 0.73170894 -0.50069344 0.95441675
-11.619834 0.87779295 -0.5006941 0.95441681
-11.607929 1.0237402 -0.50069493 0.95441663
-11.578603 1.3151269 -0.50069708 0.95441639
-10.871494 1.6519336 -0.47247717 0.95692933
-10.849902 1.7884179 -0.47247881 0.95692927
-10.80162 2.0605273 -0.47248253 0.95692891
-10.774912 2.1961036 -0.47248453 0.95692879
-10.746533 2.3313477 -0.47248676 0.95692849
-10.651211 2.7347655 -0.47249416 0.95692778
-10.616015 2.868418 -0.4724969 0.95692772
-11.211171 3.1809082 -0.50072527 0.95441395
-11.127861 3.4616992 -0.50073183 0.95441329
-10.989677 3.8787107 -0.50074273 0.95441252
-1.6126952 0.70995116 -0.075710788 0.99297011
-1.5592773 0.70994139 -0.073615186 0.993164
-1.5087011 0.70993161 -0.07164371 0.99334651
-1.4607617 0.70996094 -0.069785766 0.99351847
-1.2913769 0.70994139 -0.063319206 0.99411732
-1.2537793 0.70995116 -0.061909217 0.99424797
-1.1834179 0.70995116 -0.059296187 0.99448997
-1.1503808 0.70996094 -0.058084141 0.99460232
-1.0882226 0.70995116 -0.055828437 0.99481142
-1.0328516 0.73077148 -0.054364279 0.9949472
-1.0325683 0.79060543 -0.055878371 0.99480683
-1.0324609 0.81129879 -0.056419715 0.99475664
-1.0323633 0.83241206 -0.056980591 0.99470454
-1.0319824 0.89836913 -0.05878929 0.994537
-1.0318652 0.92131835 -0.059436757 0.99447691
-1.0317187 0.94475585 -0.060108375 0.99441475
-6.749609 6.3383203 -0.39783797 0.96360803
-6.6695504 6.4227438 -0.39784449 0.96360737
-6.5062499 6.5885348 -0.39785773 0.96360624
-6.4230371 6.6698923 -0.39786452 0.96360564
-6.2536325 6.829443 -0.39787826 0.96360433
-6.1674218 6.907578 -0.39788526 0.96360379
-5.9921188 7.0606637 -0.39789954 0.96360236
-5.9030075 7.1355271 -0.39790678 0.96360183
-5.8129687 7.2092676 -0.39791411 0.96360123
-5.7220407 7.2818942 -0.3979215 0.96360046
-5.5374608 7.4236813 -0.39793655 0.96359903
-5.2540236 7.6275387 -0.39795962 0.96359706
-5.1578808 7.6931248 -0.39796746 0.96359628
-5.0608888 7.7574801 -0.39797539 0.96359557
-4.8645215 7.8825192 -0.39799139 0.9635942
-4.7652049 7.943193 -0.3979995 0.96359342
-4.5642676 8.0607519 -0.39801589 0.96359199
-4.3472462 8.401103 -0.40643632 0.96283633
-4.2372851 8.7186718 -0.41651359 0.96193248
-4.121572 9.0523825 -0.42737189 0.96095979
-4.061367 9.2258205 -0.43311703 0.96044552
-3.9251561 9.9138575 -0.4581407 0.95820856
-3.8628612 10.521669 -0.48158935 0.95611721
-3.7446971 11.050556 -0.50133103 0.95436007
-3.4659765 11.141669 -0.50135386 0.95435804
-2.7598338 11.338652 -0.50141174 0.9543528
-2.4741602 11.404951 -0.50143516 0.95435077
-2.3306932 11.43541 -0.50144696 0.9543497
-2.1868749 11.464063 -0.5014587 0.95434868
-2.0426953 11.490898 -0.50147057 0.95434767
-1.6082617 11.560566 -0.50150621 0.95434439
-1.4628808 11.580146 -0.50151819 0.95434332
-1.3173144 11.5979 -0.50153011 0.95434219
-1.1714648 11.613798 -0.50154209 0.95434123
-1.0254785 11.627891 -0.50155407 0.9543401
-0.87931639 11.640117 -0.50156611 0.95433909
-0.43996093 11.66582 -0.50160217 0.95433593
-0.29335937 11.670722 -0.50161427 0.9543348
0.73318356 11.653349 -0.50169873 0.95432723
0.87959957 11.643516 -0.50171077 0.95432609
1.1719531 11.618281 -0.50173485 0.95432401
1.3178711 11.60289 -0.50174689 0.95432299
1.7544043 11.545781 -0.50178283 0.95431989
1.8993847 11.523095 -0.50179482 0.95431882
2.1884766 11.472304 -0.5018186 0.95431656
2.3325195 11.44415 -0.50183052 0.9543156
2.4761913 11.414189 -0.50184232 0.95431459
2.7624023 11.348935 -0.50186592 0.95431232
2.9048533 11.313574 -0.50187773 0.95431137
3.0468457 11.276435 -0.50188947 0.95431036
3.3294237 11.196856 -0.50191277 0.95430815
3.4699512 11.154365 -0.50192434 0.9543072
3.749326 11.06414 -0.5019474 0.95430523
3.8881445 11.016406 -0.50195891 0.95430422
4.1639743 10.915742 -0.50198174 0.95430201
4.2242088 9.9323139 -0.46375403 0.95770746
4.3271971 9.1957712 -0.43667427 0.96012712
4.4198532 8.8108692 -0.42353901 0.961303
4.5391111 8.5081148 -0.41433939 0.96212739
4.596797 8.3615036 -0.40998 0.96251822
4.6532617 8.2178707 -0.40577376 0.96289563
4.7085643 8.0770998 -0.40171236 0.96326005
4.8763475 7.9015918 -0.39895371 0.96350765
4.9833984 7.852529 -0.39960742 0.963449
5.1709375 7.7125683 -0.39897266 0.96350592
5.2674899 7.6470504 -0.39897773 0.96350557
5.458076 7.512373 -0.39898318 0.96350509
5.5520115 7.4431443 -0.39898029 0.96350533
5.9187889 7.1545506 -0.39896804 0.96350646
6.1840429 6.9262109 -0.39895821 0.96350747
6.270576 6.8479295 -0.39895484 0.96350759
6.3560739 6.7685056 -0.39895138 0.96350801
6.5240426 6.6065426 -0.39894432 0.96350855
6.6064744 6.5239744 -0.39894065 0.9635089
6.6880078 6.4404783 -0.39894316 0.96350861
7.0043063 6.0973239 -0.3990097 0.96350271
7.2300682 5.8297558 -0.39906052 0.96349812
7.3030758 5.7386718 -0.39907727 0.96349657
1.2621973 0.91703123 -0.067035139 0.9937731
1.262334 0.89310545 -0.06644024 0.99382812
1.2624512 0.86958981 -0.065865785 0.99388129
1.2629688 0.75765622 -0.06328056 0.99412072
1.2631445 0.71522456 -0.062368963 0.99420518
1.2914063 0.70995116 -0.063319355 0.9941172
1.3720019 0.70995116 -0.066374354 0.9938342
1.4152832 0.70994139 -0.06803184 0.99368078
1.4608008 0.70995116 -0.069785647 0.99351835
1.5087304 0.70994139 -0.071643755 0.99334639
1.5593066 0.70995116 -0.073615342 0.99316388
1.6127441 0.70995116 -0.075710826 0.99296993
1.7931445 0.70994139 -0.082864456 0.99230832
1.861123 0.70997071 -0.085587576 0.99205661
1.9337792 0.70994139 -0.088510051 0.99178642
2.0189159 0.71254879 -0.091990694 0.99146485
11.168662 3.474375 -0.5025658 0.95425004
11.211514 3.3337696 -0.5025695 0.95424974
11.252587 3.1926465 -0.50257301 0.9542495
11.329424 2.9089062 -0.50257963 0.95424885
11.399053 2.6233008 -0.50258565 0.95424843
11.461493 2.336035 -0.50259107 0.95424801
11.490029 2.1918457 -0.50259358 0.95424765
11.564629 1.7572558 -0.50260019 0.95424706
11.605225 1.466084 -0.50260389 0.9542467
11.622773 1.3201464 -0.50260544 0.95424658
11.664316 0.88114256 -0.50260931 0.9542464
11.689326 0.44088867 -0.50261188 0.95424604
11.693935 0.29398435 -0.50261241 0.9542461
11.696709 0.14700195 -0.50261277 0.95424604
11.697666 -9.7656248e-06 -0.50261301 0.95424592
11.682861 -0.58773434 -0.50261241 0.95424604
11.674541 -0.73450196 -0.50261194 0.9542461
11.664413 -0.88113278 -0.50261122 0.95424604
11.638506 -1.1739746 -0.50260937 0.95424634
11.622831 -1.3201269 -0.50260824 0.95424634
11.605292 -1.466084 -0.50260699 0.95424646
11.585938 -1.6117871 -0.50260556 0.95424652
11.564736 -1.7572558 -0.50260395 0.95424664
11.516816 -2.0473046 -0.50260031 0.95424706
11.490156 -2.1918554 -0.50259829 0.95424718
11.46164 -2.3360546 -0.50259608 0.95424742
11.431328 -2.4798729 -0.50259376 0.95424765
11.399209 -2.6233203 -0.50259125 0.95424783
11.365293 -2.7663476 -0.50258863 0.95424801
11.329551 -2.9089258 -0.50258583 0.95424837
11.168808 -3.4744139 -0.50257325 0.95424944
2.0186424 -0.65588868 -0.091197848 0.99153805
2.0187695 -0.68410152 -0.091585159 0.99150234
2.0189257 -0.71253902 -0.091990694 0.99146485
1.8611425 -0.70994139 -0.085587196 0.99205655
1.7931445 -0.70996094 -0.082864262 0.99230832
1.6693164 -0.70996094 -0.077941589 0.99276352
1.4608203 -0.70996094 -0.069785535 0.99351829
1.3719921 -0.70994139 -0.066374511 0.9938342
1.2914159 -0.70994139 -0.063319318 0.99411714
1.2628613 -0.77932614 -0.063761406 0.99407625
1.2625586 -0.84646481 -0.065311432 0.99393266
1.2624414 -0.86958981 -0.065865897 0.99388134
1.2623242 -0.89311522 -0.066440277 0.99382812
1.2620898 -0.94140625 -0.067651823 0.99371594
7.3763671 -5.6478028 -0.39917377 0.96348804
7.157959 -5.9215722 -0.39915609 0.96348947
4.6507521 -4.0485253 -0.26493612 0.97561532
6.9293456 -6.1868358 -0.39913756 0.96349126
6.8509665 -6.2733297 -0.39913124 0.9634918
6.690918 -6.4433103 -0.39911821 0.96349299
6.5266895 -6.6091795 -0.39910492 0.96349412
6.3583202 -6.7708883 -0.39909121 0.96349537
6.0982909 -7.0053415 -0.39907011 0.96349728
6.0096679 -7.0813184 -0.39906287 0.96349782
3.2885644 -3.9751463 -0.22167078 0.97955638
3.2017968 -3.97083 -0.21916924 0.97978479
5.6458592 -7.3737693 -0.39903328 0.9635005
5.5526266 -7.4439745 -0.39902568 0.96350133
5.4585352 -7.5130272 -0.39901802 0.96350199
5.3636036 -7.5808787 -0.39901027 0.96350265
5.2678123 -7.6475487 -0.39900246 0.9635033
5.1712208 -7.7129784 -0.39899459 0.96350402
4.9755468 -7.8401952 -0.39897865 0.96350539
5.0366893 -8.1614256 -0.41207382 0.96233058
4.9336329 -8.2239351 -0.41206542 0.96233124
4.5742579 -7.8467188 -0.39025337 0.96428907
4.4436717 -7.8477244 -0.38749629 0.96453691
4.1877441 -7.8495212 -0.38226569 0.96500707
4.062295 -7.8503318 -0.37978989 0.96522981
1.7356347 -3.9425781 -0.18508819 0.98290116
1.6844238 -3.9605076 -0.18492301 0.98291641
3.1098144 -7.854404 -0.36296901 0.96674383
2.9028516 -7.9066796 -0.36189803 0.96684033
2.8031836 -7.9423437 -0.36188987 0.9668411
2.7031054 -7.976738 -0.36188167 0.96684194
2.6743066 -8.2306051 -0.37184441 0.96594477
2.5599315 -8.2291012 -0.37029284 0.96608436
2.4464941 -8.2275877 -0.36881331 0.96621764
2.0011914 -8.2216845 -0.36357513 0.96668929
1.8917577 -8.2202196 -0.36243057 0.9667924
1.6748437 -8.2173386 -0.36033446 0.96698135
1.5672852 -8.2159128 -0.35937941 0.96706736
1.3537891 -8.2130709 -0.3576538 0.96722287
1.0370312 -8.2088623 -0.35551482 0.96741575
0.82777339 -8.206089 -0.35438108 0.96751785
0.24682617 -3.9228027 -0.16888504 0.98438644
0.19786133 -3.932656 -0.16918845 0.98435855
0.20607421 -8.1978369 -0.35234863 0.96770114
1.953125e-05 -8.1950922 -0.35211849 0.96772182
-0.20591797 -8.1923676 -0.35211256 0.96772236
-0.30892578 -8.1910009 -0.3521933 0.96771508
-0.41201171 -8.1896334 -0.35232851 0.96770281
-1.2427343 -8.1785984 -0.35544428 0.96742207
-1.4533789 -8.1758108 -0.35679862 0.9673
-1.5593359 -8.1743841 -0.35756266 0.96723109
-1.6657617 -8.1729784 -0.35838875 0.96715665
-1.7727149 -8.1715622 -0.35927546 0.96707678
-1.9882812 -8.1686916 -0.36123201 0.96690041
-2.0969923 -8.1672459 -0.36230558 0.96680373
-2.2063477 -8.165801 -0.36344203 0.96670133
-2.3164062 -8.1643362 -0.36464444 0.96659309
-1.2171582 -3.9127343 -0.17606585 0.98372799
-1.2680566 -3.9026756 -0.17631708 0.98370498
-1.3351269 -3.939961 -0.17874476 0.98348248
-2.99791 -7.8590035 -0.36141261 0.96688414
-3.0963476 -7.8205566 -0.36140448 0.96688485
-3.3040624 -7.768867 -0.36274025 0.96676457
-3.5341015 -7.7620897 -0.36645561 0.96642983
-3.6508594 -7.7585449 -0.36842483 0.96625257
-4.0089645 -7.7473731 -0.3748087 0.96567798
-4.5056543 -8.4454975 -0.41128922 0.96240085
-4.6113281 -8.3880224 -0.41128051 0.96240169
-5.1283689 -8.0810843 -0.4112376 0.96240556
-5.229414 -8.0158491 -0.41122925 0.96240628
-2.6666405 -3.9773924 -0.20575124 0.98101056
-2.7472949 -3.8830371 -0.20437917 0.98113608
-5.5399218 -7.4269724 -0.39811325 0.96358317
-5.6326952 -7.3566308 -0.39810553 0.96358389
-6.2564063 -6.8324609 -0.39805371 0.96358854
-6.3416309 -6.7531638 -0.39804655 0.96358925
-6.5091114 -6.591445 -0.39803264 0.9635905
-6.672451 -6.4255371 -0.39801902 0.96359181
-1.0317187 -0.94475585 -0.060108069 0.99441475
-1.0319922 -0.89835936 -0.058789406 0.994537
-1.0320996 -0.87591797 -0.058164787 0.99459493
-1.0322363 -0.85395503 -0.057562027 0.99465066
-1.0323437 -0.83241206 -0.056980629 0.9947046
-1.0324414 -0.81129879 -0.056419831 0.9947567
-1.0326757 -0.77030271 -0.05535572 0.99485523
-1.0327734 -0.75035155 -0.054851227 0.99490201
-1.0328614 -0.73079097 -0.054364279 0.99494714
-1.0882031 -0.70994139 -0.055828474 0.99481148
-1.1834179 -0.70996094 -0.059296187 0.99448997
-1.2913965 -0.70996094 -0.063319586 0.9941172
-1.3719434 -0.70995116 -0.066374436 0.99383438
-1.5087109 -0.70994139 -0.071643829 0.99334645
-1.7292968 -0.70994139 -0.080321461 0.99254364
-1.7844141 -0.70650387 -0.082462311 0.99234563
-1.7843359 -0.68066406 -0.082057647 0.99238312
-1.7842675 -0.65506834 -0.081669882 0.992419
-10.260556 -3.6213574 -0.46751806 0.95737165
-10.66918 -3.6154785 -0.48403031 0.95589989
-11.083692 -3.6013184 -0.50074297 0.95441246
-11.170527 -3.3215916 -0.50073552 0.95441312
-11.356718 -2.6135645 -0.50071949 0.95441443
-11.388555 -2.4706151 -0.50071669 0.95441484
-11.418701 -2.3273144 -0.50071406 0.95441484
-11.473447 -2.0395997 -0.50070924 0.95441538
-11.542021 -1.6056836 -0.50070316 0.95441592
-11.578671 -1.3151269 -0.50069982 0.95441616
-11.619922 -0.8777734 -0.500696 0.95441651
-11.63001 -0.73169923 -0.50069499 0.95441657
-11.638242 -0.58548826 -0.50069416 0.95441675
-11.649248 -0.2928125 -0.5006929 0.95441687
-10.946181 0.13756835 -0.5007503 0.95711285
-10.939277 0.4126074 -0.5007506 0.95711279
-10.933251 0.55003905 -0.50075096 0.95711273
-10.916035 0.82462889 -0.50075203 0.95711249
-10.891846 1.0986913 -0.50075376 0.95711255
-10.877226 1.2354687 -0.50075477 0.95711237
-10.860868 1.3720508 -0.50075603 0.95711231
-10.254922 1.822998 -0.4764446 0.95915139
-10.212216 1.9480957 -0.47556055 0.95922565
-10.169706 2.0727637 -0.47475487 0.95929313
-10.126513 2.3304589 -0.47532293 0.95924544
-10.371552 2.8023534 -0.49143749 0.95789331
-10.493691 3.1203613 -0.50078434 0.95710999
-10.368837 3.513711 -0.50079423 0.95710915
-1.7852148 0.68099606 -0.08740101 0.99237841
-1.7293164 0.70994139 -0.085510291 0.99254262
-1.6126952 0.70995116 -0.080601841 0.99296927
-1.5592773 0.70994139 -0.078371122 0.99316317
-1.4607617 0.70996094 -0.074294053 0.9935177
-1.4152343 0.70994139 -0.072426908 0.99368012
-1.3307031 0.70994139 -0.068992652 0.99397892
-1.2913769 0.70994139 -0.067410238 0.99411654
-1.2537793 0.70995116 -0.065908775 0.99424726
-1.2178515 0.70994139 -0.064482875 0.99437129
-1.1834179 0.70995116 -0.063126907 0.99448931
-1.1503808 0.70996094 -0.061836585 0.99460167
-1.1186817 0.70995116 -0.060607299 0.99470872
-1.0882226 0.70995116 -0.059435233 0.99481076
-1.0588964 0.70994139 -0.058316536 0.99490821
-1.0322851 0.71106446 -0.057338256 0.99499339
-1.0321777 0.7302832 -0.057837751 0.99494994
-1.0318652 0.79005855 -0.05944721 0.99480969
-1.0317578 0.81075191 -0.06002285 0.99475956
-1.0316113 0.83182615 -0.060619392 0.9947077
-1.0312207 0.89772457 -0.062542073 0.99454033
-1.030957 0.94404292 -0.063944355 0.99441826
-6.2743258 6.0421677 -0.39844993 0.96572232
-6.1891112 6.1118455 -0.39788431 0.96577013
-5.7117186 6.5613475 -0.39792311 0.96576673
-5.5497265 6.7084861 -0.39826053 0.96573824
-5.4606152 6.7723241 -0.39794356 0.96576506
-5.3751755 6.8405075 -0.3979505 0.96576452
-5.0378318 7.1204782 -0.39899009 0.96567667
-4.904326 7.3149509 -0.40285102 0.96535021
-4.8365135 7.4135642 -0.40490431 0.96517688
-4.7679882 7.5131736 -0.40703928 0.96499652
-4.6987109 7.6138282 -0.40926117 0.96480882
-4.4416113 8.0792866 -0.4217338 0.96375579
-4.282588 8.5372944 -0.43689924 0.96247727
-4.1698241 8.8613377 -0.44797888 0.96154439
-4.113369 9.0343647 -0.45407614 0.96103126
-3.9956834 9.3950977 -0.46701026 0.95994377
-3.647666 10.335156 -0.50133979 0.95706332
-3.3869433 10.423994 -0.50136113 0.95706153
-3.2557616 10.465986 -0.50137186 0.95706052
-3.124043 10.506249 -0.50138265 0.9570598
-2.9918358 10.544912 -0.5013935 0.95705891
-2.8591602 10.581923 -0.50140435 0.95705789
-2.7260058 10.617227 -0.50141525 0.95705706
-2.458457 10.682861 -0.50143725 0.95705515
-2.1893358 10.741748 -0.5014593 0.9570533
-1.9187793 10.793847 -0.50148147 0.95705146
-1.7830077 10.817363 -0.50149262 0.95705044
-1.5106933 10.859238 -0.50151497 0.95704859
-1.3741406 10.877598 -0.50152624 0.9570477
-1.1004101 10.90918 -0.50154871 0.95704579
-0.55093747 10.95167 -0.50159383 0.95704204
-0.41328123 10.957988 -0.50160515 0.95704108
-0.27554688 10.962548 -0.50161648 0.95704019
-0.1377832 10.96541 -0.50162786 0.95703918
0.13783203 10.965918 -0.50165051 0.95703721
0.68869138 10.946103 -0.50169581 0.95703351
0.82620114 10.936865 -0.50170714 0.95703244
1.1008399 10.913076 -0.50172979 0.95703077
1.5114844 10.864619 -0.50176358 0.95702773
1.6479101 10.84498 -0.50177479 0.9570269
2.1909375 10.749443 -0.50181961 0.95702314
2.5946777 10.659961 -0.50185293 0.95702028
2.7284863 10.626719 -0.5018639 0.95701951
2.8618846 10.591855 -0.50187492 0.95701844
3.127285 10.517051 -0.50189686 0.95701659
3.2592676 10.477148 -0.50190777 0.95701569
4.0397558 10.203193 -0.50197226 0.95701021
4.4099803 8.7911615 -0.44989166 0.96138322
4.4680662 8.6344728 -0.44471186 0.96181923
4.5831738 8.3367577 -0.43517497 0.96262258
4.6948829 8.0536814 -0.42642438 0.96336025
4.7489939 7.9161425 -0.42226785 0.96371073
4.8019724 7.7810936 -0.4182519 0.9640497
4.8538961 7.6484861 -0.41436884 0.96437734
5.0859179 7.1883883 -0.40279451 0.96535492
5.3020897 6.9248142 -0.39894745 0.96568012
5.3886619 6.8575974 -0.39894524 0.9656803
5.4743943 6.7893066 -0.39894295 0.96568048
5.7262988 6.5780368 -0.39893621 0.96568102
5.9792676 6.3672657 -0.39954674 0.96562952
6.0494041 6.2818551 -0.39892554 0.96568197
6.1278124 6.2052832 -0.39892223 0.96568227
6.2052636 6.1277442 -0.39891884 0.96568251
6.2817087 6.0492086 -0.39891535 0.96568286
6.4321094 5.8897848 -0.39893687 0.96568096
6.6503024 5.6438475 -0.39898497 0.96567696
6.7209668 5.560039 -0.39900085 0.96567565
6.790586 5.4753904 -0.3990165 0.96567422
6.8590918 5.3897948 -0.39903063 0.96567309
6.93332 5.3085742 -0.39943656 0.96563876
1.2614942 0.89250976 -0.070685007 0.99383146
1.2616016 0.86902344 -0.070074312 0.99388462
1.2618262 0.82319331 -0.068916015 0.99398547
1.2619238 0.80083984 -0.06836693 0.99403328
1.2620507 0.77883786 -0.067837067 0.99407929
1.2621582 0.75717771 -0.067325823 0.99412376
1.262246 0.73582029 -0.066832386 0.99416673
1.3720019 0.70995116 -0.070662305 0.99383342
1.4608008 0.70995116 -0.074293859 0.99351758
1.5087304 0.70994139 -0.076272048 0.99334562
1.6693066 0.70995116 -0.082977407 0.99276268
1.7293261 0.70995116 -0.085510366 0.99254256
1.7931347 0.70995116 -0.088217311 0.99230742
1.861123 0.70997071 -0.091116749 0.99205559
2.0210645 0.71331054 -0.098037638 0.99145478
2.0207617 0.65659177 -0.097191885 0.99152815
10.489746 3.2631836 -0.50251019 0.95696515
10.568555 2.9985743 -0.50251698 0.95696467
10.605508 2.8655663 -0.50252014 0.95696425
10.640703 2.7320702 -0.50252318 0.95696419
10.706094 2.4638379 -0.50252885 0.95696378
10.736308 2.3291211 -0.50253147 0.95696342
10.764775 2.1940429 -0.50253391 0.95696324
10.816621 1.9228418 -0.5025385 0.95696282
10.861582 1.6504296 -0.5025425 0.95696259
10.899726 1.3769629 -0.50254589 0.95696223
10.943984 0.96517575 -0.50255001 0.95696181
10.972617 0.55201173 -0.50255281 0.95696169
10.978691 0.41408202 -0.5025534 0.95696169
10.985644 0.13805664 -0.5025543 0.95696163
10.985674 -0.13805664 -0.5025546 0.95696151
10.983056 -0.27608398 -0.50255454 0.95696157
10.978711 -0.41407225 -0.5025543 0.95696157
10.955263 -0.82756835 -0.50255281 0.95696175
10.943984 -0.96515626 -0.50255203 0.95696181
10.931005 -1.1026171 -0.50255114 0.95696175
10.916288 -1.2398828 -0.50255007 0.95696175
10.899755 -1.3769531 -0.50254887 0.95696211
10.840049 -1.7867675 -0.5025444 0.95696235
10.816679 -1.9228516 -0.50254261 0.95696259
10.736425 -2.3291309 -0.50253642 0.95696294
10.674365 -2.5981836 -0.50253159 0.95696348
10.605605 -2.8655858 -0.50252622 0.9569639
10.489843 -3.2632031 -0.50251716 0.95696479
2.0207715 -0.65657222 -0.097191729 0.99152815
2.0210741 -0.71330076 -0.098037869 0.99145472
1.9337695 -0.70994139 -0.094228245 0.99178541
1.8611425 -0.70994139 -0.0911166 0.99205559
1.6693164 -0.70996094 -0.082976989 0.99276268
1.6127343 -0.70995116 -0.080602147 0.9929691
1.415293 -0.70994139 -0.072426908 0.99367994
1.3307519 -0.70994139 -0.068992577 0.99397874
1.2914159 -0.70994139 -0.06740997 0.99411643
1.2623438 -0.71477538 -0.066356584 0.99420816
1.2622558 -0.73581052 -0.066832423 0.99416673
1.2620507 -0.77883786 -0.067837104 0.99407929
1.2618359 -0.82319331 -0.068916127 0.99398541
1.2616113 -0.86901367 -0.070074387 0.99388462
1.2613574 -0.91641599 -0.071317904 0.99377644
6.7924414 -5.4768653 -0.39912555 0.96566504
6.7229881 -5.5617089 -0.39911994 0.96566552
6.5083008 -5.8108983 -0.39910254 0.96566701
5.8100977 -6.5073633 -0.39904585 0.96567178
5.7277832 -6.5797362 -0.39903915 0.96567231
3.2885644 -3.9751463 -0.23599175 0.97955388
3.1561327 -4.0164647 -0.23366031 0.97975379
5.3028708 -6.9257908 -0.39900458 0.96567529
4.6733203 -7.3639355 -0.39895329 0.96567965
4.5803123 -7.4219432 -0.39894569 0.9656803
4.3921876 -7.5344138 -0.39893031 0.96568155
4.2012987 -7.6421189 -0.39891472 0.96568286
3.9100389 -7.7945409 -0.39889094 0.96568501
3.8047264 -7.8285055 -0.39815071 0.96574754
3.6841991 -7.8292675 -0.3958014 0.96594602
1.6483301 -4.0149903 -0.19853178 0.98277128
3.1008983 -7.831953 -0.38531342 0.96683329
2.9877636 -7.8322949 -0.38345286 0.96699077
2.8756347 -7.8325782 -0.38166741 0.96714193
2.6543846 -7.8329782 -0.37831637 0.9674257
2.5451562 -7.833076 -0.3767468 0.96755868
2.3292382 -7.8331246 -0.3738153 0.96780699
2.2224708 -7.8330564 -0.37244973 0.96792269
2.1164551 -7.8329391 -0.37114891 0.96803284
2.0111523 -7.8327732 -0.36991459 0.96813744
1.8024805 -7.8322654 -0.36763471 0.96833074
1.6990722 -7.8319235 -0.36658826 0.96841949
1.596211 -7.8315525 -0.36560181 0.968503
1.4938867 -7.8311133 -0.36467648 0.9685815
1.3920312 -7.8306055 -0.36380944 0.96865499
1.2906739 -7.8300486 -0.36300221 0.96872354
0.89248043 -7.857451 -0.36173263 0.96883112
0.69469726 -7.8770409 -0.36171639 0.96883249
0.19786133 -3.932656 -0.1801188 0.98435664
0.15052734 -3.9902732 -0.1826565 0.98413801
0.19872069 -7.9042282 -0.36167559 0.96883595
-0.19865234 -7.9034958 -0.3616429 0.96883881
-0.3971875 -7.8956637 -0.36162657 0.96884012
-0.59545898 -7.8828321 -0.36161026 0.96884149
-0.69447261 -7.8745508 -0.3616021 0.96884221
-0.79333007 -7.8650193 -0.36159393 0.96884292
-0.89208984 -7.8542676 -0.36158583 0.96884358
-1.0891601 -7.8290234 -0.36156958 0.96884489
-1.1874024 -7.8145308 -0.36156151 0.96884567
-1.3856835 -7.7950974 -0.36215988 0.96879494
-1.486582 -7.7930174 -0.3629024 0.96873194
-1.5878906 -7.7908492 -0.36370298 0.96866411
-1.6896484 -7.7886329 -0.36456233 0.96859127
-1.7918848 -7.7863474 -0.36547923 0.96851343
-2.1018555 -7.7791014 -0.36859787 0.96824908
-1.2171582 -3.9127343 -0.18744053 0.98372602
-1.2680566 -3.9026756 -0.18770899 0.98370302
-2.7397265 -7.7626071 -0.37654966 0.96757531
-2.8488183 -7.7595801 -0.37811077 0.96744317
-3.18167 -7.7500291 -0.38322055 0.96701056
-3.2946289 -7.7466698 -0.38507023 0.96685392
-3.4086914 -7.7432127 -0.38699737 0.96669084
-3.8768554 -7.7284374 -0.39550716 0.96597105
-3.9971483 -7.7244921 -0.39784378 0.9657734
-4.0979004 -7.6811328 -0.3982321 0.96574062
-4.1940036 -7.6288671 -0.39822417 0.96574134
-4.57166 -7.4079394 -0.39819288 0.96574396
-4.6642966 -7.3497558 -0.39818519 0.96574461
-2.6666405 -3.9773924 -0.2190439 0.98100823
-2.7472949 -3.8830371 -0.21758258 0.98113382
-5.1161132 -7.0417285 -0.3981477 0.96574771
-5.204072 -6.976748 -0.3981404 0.96574843
-5.2912302 -6.9106641 -0.39813316 0.96574908
-5.463027 -6.7752929 -0.39811888 0.96575022
-5.547627 -6.7059665 -0.39811182 0.96575093
-5.7142282 -6.5642285 -0.39809799 0.96575195
-5.7961717 -6.4917965 -0.39809117 0.96575254
-5.9572849 -6.3438768 -0.39807776 0.96575361
-6.036406 -6.2683787 -0.39807117 0.96575433
-6.1918359 -6.114531 -0.39805824 0.96575534
-6.2680564 -6.0361133 -0.39805186 0.96575606
-4.173779 -3.9194531 -0.2619068 0.97733444
-1.0310839 -0.92063475 -0.063230395 0.99448037
-1.0312304 -0.89771485 -0.062541842 0.99454033
-1.0314941 -0.85333985 -0.061237562 0.99465388
-1.0318555 -0.79005855 -0.05944721 0.99480975
-1.0319726 -0.76976562 -0.058891676 0.99485809
-1.0322851 -0.71107417 -0.057337951 0.99499339
-1.0588964 -0.70996094 -0.058316574 0.99490815
-1.0882031 -0.70994139 -0.059435271 0.99481082
-1.1504004 -0.70995116 -0.06183666 0.99460167
-1.2537988 -0.70996094 -0.065908737 0.9942472
-1.3307323 -0.70995116 -0.068992615 0.9939788
-1.3719434 -0.70995116 -0.070662685 0.9938336
-1.4607812 -0.70995116 -0.074294239 0.99351764
-1.6126952 -0.70995116 -0.080602035 0.99296927
-1.7851562 -0.65539062 -0.086987339 0.9924143
-10.493857 -3.1203711 -0.50079101 0.95710933
-10.568818 -2.8556445 -0.50078458 0.95710993
-10.66874 -2.4552343 -0.50077587 0.9571107
-10.698691 -2.3209569 -0.50077331 0.95711094
-10.823076 -1.6445605 -0.50076234 0.95711184
-10.842861 -1.508418 -0.50076056 0.95711195
-10.860957 -1.372041 -0.50075895 0.95711195
-10.877265 -1.2354492 -0.50075746 0.95711225
-10.925517 -0.68736327 -0.50075287 0.95711255
-10.943613 -0.27507812 -0.50075096 0.95711273
-10.946191 -0.13754882 -0.5007506 0.95711279
-10.32084 0.1297168 -0.50080174 0.95950747
-10.308633 0.51861328 -0.50080234 0.95950741
-10.292373 0.77750975 -0.50080341 0.95950729
-10.269629 1.035918 -0.50080502 0.95950711
-10.255811 1.1648926 -0.50080597 0.95950705
-10.204687 1.5506152 -0.50080979 0.95950681
-10.162568 1.806582 -0.50081295 0.95950651
-10.139121 1.9341406 -0.5008148 0.95950633
-10.114042 2.0614061 -0.5008167 0.95950621
-10.087373 2.1883593 -0.50081879 0.95950609
-9.9303217 2.8174999 -0.50083101 0.95950502
-9.8941793 2.9420702 -0.50083387 0.95950484
-9.8564644 3.0661914 -0.50083679 0.95950472
-9.7764549 3.312959 -0.50084317 0.95950407
-9.7341108 3.4355762 -0.50084651 0.95950383
-1.7860059 0.65572262 -0.092311971 0.99240971
-1.7860742 0.68132812 -0.092750773 0.99237376
-1.7861426 0.70720702 -0.093208805 0.99233627
-1.7293164 0.70994139 -0.090700798 0.99254167
-1.6692871 0.70995116 -0.08801353 0.99276185
-1.4152539 0.70994139 -0.076823272 0.99367929
-1.3719531 0.70995116 -0.074951515 0.99383277
-1.2537793 0.70995116 -0.069909327 0.99424648
-1.1186817 0.70995116 -0.064286269 0.99470806
-1.0882226 0.70995116 -0.06304279 0.9948101
-1.0588964 0.70994139 -0.061856344 0.99490756
-1.0314844 0.72980469 -0.061307561 0.99495262
-1.0312696 0.76925778 -0.062423933 0.99486089
-1.0310254 0.81017578 -0.063622132 0.99476254
-1.0307617 0.8527441 -0.064908601 0.99465692
-1.0306445 0.87466794 -0.065586813 0.99460119
-1.0304883 0.89707029 -0.066290244 0.99454349
-1.030205 0.94335938 -0.067775346 0.99442154
-6.2110057 5.8325391 -0.41340011 0.96645439
-5.9579978 6.0333786 -0.41141382 0.96661276
-5.8741112 6.0998731 -0.41088098 0.96665519
-5.7903905 6.1661325 -0.41041219 0.96669269
-5.7068067 6.2322459 -0.41000602 0.96672499
-5.6233397 6.2982321 -0.40966475 0.96675223
-5.5399804 6.3640723 -0.40938652 0.96677446
-5.4145312 6.5450583 -0.41214371 0.96655452
-5.2880664 6.7296386 -0.41526401 0.96630561
-5.2240624 6.8229589 -0.41693926 0.96617204
-5.1595216 6.9170313 -0.41869074 0.96603221
-5.0944042 7.0118551 -0.42052349 0.96588618
-5.0286622 7.1075096 -0.42243549 0.96573365
-4.6899314 7.5995994 -0.43328956 0.9648689
-4.5491114 7.8036327 -0.43826452 0.96447283
-4.4313183 8.0605469 -0.44629595 0.96383369
-4.3299899 8.3677435 -0.45713314 0.96297193
-4.2778025 8.5277243 -0.46290004 0.96251369
-4.1128612 9.0332422 -0.48157623 0.96103102
-4.0548339 9.2110348 -0.48830187 0.96049786
-3.9952049 9.3939352 -0.49529558 0.95994347
-3.8036425 9.6069622 -0.50132775 0.95946562
-3.6826854 9.6541796 -0.50133765 0.95946491
-3.5611424 9.6999025 -0.50134754 0.95946407
-3.4390428 9.7440624 -0.50135756 0.95946336
-3.1932421 9.8277931 -0.5013777 0.95946175
-2.9453709 9.9053612 -0.50139803 0.95946008
-2.8207226 9.9417963 -0.50140822 0.95945925
-2.4441795 10.04166 -0.50143909 0.9594568
-2.3178418 10.071787 -0.50144947 0.95945597
-2.1911426 10.100303 -0.50145984 0.95945525
-2.0640721 10.127265 -0.50147027 0.95945436
-1.9366992 10.152607 -0.5014807 0.95945358
-1.5527734 10.219023 -0.50151223 0.95945108
-1.4242675 10.237968 -0.50152278 0.95945019
-1.166582 10.270937 -0.50154394 0.95944858
-1.0374511 10.285029 -0.50155455 0.95944762
1.953125e-05 10.338925 -0.50163978 0.95944113
0.12993164 10.338388 -0.50165051 0.95944005
0.38971677 10.332294 -0.50167191 0.95943832
0.51952147 10.326787 -0.50168258 0.95943755
0.6492871 10.319648 -0.50169325 0.95943677
1.037832 10.288526 -0.5017252 0.95943415
1.2961133 10.259609 -0.50174654 0.95943254
1.4249706 10.242734 -0.50175709 0.95943165
2.192744 10.107578 -0.50182045 0.95942664
2.4461522 10.049706 -0.50184137 0.95942497
2.5723243 10.018398 -0.50185174 0.95942402
2.6980469 9.9854975 -0.50186211 0.95942324
3.0726659 9.877285 -0.50189304 0.95942092
3.1966014 9.8380861 -0.5019033 0.95942014
3.3200488 9.7973433 -0.50191349 0.95941931
3.5653613 9.7112207 -0.50193375 0.95941764
4.0491114 9.520586 -0.50197375 0.95941442
4.1685252 9.4691401 -0.50198364 0.95941365
4.2872462 9.4161615 -0.50199342 0.95941299
4.3203321 9.1811428 -0.49231783 0.96017939
4.3502731 8.9510937 -0.48287478 0.96092802
4.5248241 8.4813471 -0.46640977 0.96223485
4.5803418 8.3316011 -0.4613032 0.96264046
4.8410935 7.6283202 -0.43836036 0.96446508
4.8902149 7.49582 -0.43424544 0.96479285
4.9974899 7.2550879 -0.42744094 0.96533477
5.2824998 6.8992381 -0.42159998 0.96580034
5.3531933 6.8124413 -0.4203735 0.96589798
5.423418 6.7261133 -0.41922033 0.96599013
5.4933004 6.640234 -0.41813645 0.96607643
5.5627928 6.5547361 -0.41712233 0.96615726
5.7007322 6.3848634 -0.4153004 0.96630263
5.9054685 6.1323829 -0.41307047 0.96648037
6.0407224 5.9652929 -0.41191399 0.9665727
6.1080661 5.8820114 -0.41143385 0.96661115
6.2715039 5.7427244 -0.41258675 0.96651906
6.4539938 5.6182809 -0.41517168 0.96631294
6.8262205 5.3639941 -0.42122313 0.96583027
6.9210839 5.2992086 -0.42293298 0.96569395
1.2605176 0.91579098 -0.075595476 0.99377984
1.2606542 0.89191407 -0.074925534 0.99383473
1.260752 0.86843747 -0.074278638 0.9938879
1.2608887 0.84536129 -0.073654212 0.9939391
1.2611231 0.80031246 -0.07246998 0.99403632
1.2614355 0.73535156 -0.070844308 0.99416971
1.2914063 0.70995116 -0.071501806 0.99411571
1.3307421 0.70995116 -0.073180161 0.99397796
1.5087304 0.70994139 -0.080901563 0.99334472
1.5593066 0.70995116 -0.083127901 0.99316216
1.6127343 0.70996094 -0.085494459 0.9929682
1.6693066 0.70996094 -0.088013723 0.99276173
1.7293457 0.70996094 -0.090701021 0.99254155
1.7931347 0.70995116 -0.093572311 0.99230641
2.0232227 0.71407223 -0.10409912 0.99144459
2.0229003 0.65727538 -0.10320018 0.99151814
10.03079 2.5754786 -0.50247318 0.9593749
10.062451 2.4492383 -0.50247592 0.95937455
10.147734 2.0682714 -0.50248331 0.95937413
10.218594 1.6843457 -0.50248957 0.95937365
10.239014 1.55583 -0.50249135 0.95937341
10.257773 1.4270409 -0.50249302 0.95937335
10.290459 1.1688086 -0.502496 0.95937312
10.304365 1.039414 -0.50249732 0.959373
10.327275 0.78015625 -0.50249946 0.95937282
10.336279 0.65031248 -0.50250036 0.95937276
10.343672 0.52038085 -0.50250107 0.95937258
10.353486 0.26027343 -0.50250214 0.95937258
10.355947 0.13014649 -0.5025025 0.95937258
10.356777 -0 -0.50250274 0.95937252
10.353496 -0.26025391 -0.50250274 0.95937252
10.336288 -0.65030271 -0.50250173 0.9593727
10.327314 -0.78012693 -0.50250113 0.95937264
10.290527 -1.1688086 -0.50249851 0.95937282
10.257861 -1.4270409 -0.50249612 0.959373
10.218672 -1.6843554 -0.50249314 0.95937335
10.196709 -1.8126172 -0.50249147 0.9593733
10.147822 -2.0682714 -0.50248772 0.95937377
10.121016 -2.1956346 -0.50248569 0.95937383
10.092539 -2.3226268 -0.50248349 0.95937419
10.062558 -2.4492579 -0.50248116 0.95937419
10.030898 -2.5754786 -0.50247866 0.95937449
9.9629297 -2.8267283 -0.50247329 0.95937485
9.9265528 -2.9516797 -0.50247043 0.95937508
9.8886032 -3.0761719 -0.50246751 0.95937538
1.9337695 -0.70994139 -0.099947624 0.99178433
1.7931347 -0.70995116 -0.093572423 0.99230641
1.7293261 -0.70993161 -0.090700798 0.99254167
1.6693066 -0.70995116 -0.088013835 0.99276179
1.6127245 -0.70995116 -0.085494421 0.99296826
1.5592871 -0.70995116 -0.083128281 0.99316221
1.3719921 -0.70994139 -0.074951783 0.99383265
1.2608984 -0.84535152 -0.073654056 0.9939391
1.2607715 -0.86843747 -0.074278601 0.99388784
1.2606542 -0.89189452 -0.074925572 0.99383479
6.5311131 -5.0006151 -0.39910358 0.96759528
4.7021971 -3.9905369 -0.29923043 0.97560447
4.6507521 -4.0485253 -0.29917258 0.97560918
6.0659666 -5.5545411 -0.39906588 0.96759826
5.9956055 -5.6302342 -0.39906019 0.96759874
5.9242969 -5.705039 -0.39905441 0.96759927
5.8520799 -5.7789745 -0.39904854 0.96759957
5.7788672 -5.851943 -0.39904258 0.96760023
5.7048144 -5.9240136 -0.39903656 0.96760064
5.4772363 -6.1345215 -0.39901808 0.96760213
5.3211522 -6.2700391 -0.39900538 0.96760321
3.2885644 -3.9751561 -0.25031599 0.9795512
3.2017968 -3.97083 -0.24749102 0.97977972
3.1561327 -4.0164647 -0.24784267 0.97975117
4.9990916 -6.5290527 -0.39897919 0.96760523
4.8332419 -6.6523829 -0.39896569 0.96760643
4.6643944 -6.7715235 -0.39895192 0.96760744
4.578877 -6.8294625 -0.39894491 0.96760798
4.4056444 -6.9421387 -0.39893082 0.96760911
4.3179688 -6.9968066 -0.39892364 0.96760976
3.8697655 -7.2534957 -0.39888707 0.96761256
3.6861131 -7.3481836 -0.39887202 0.96761376
1.6844238 -3.9605076 -0.20881881 0.98291212
2.110625 -7.8114257 -0.39259583 0.96811515
1.9012988 -7.811162 -0.39005762 0.96831799
1.4898535 -7.8099508 -0.38576582 0.96866101
1.3883106 -7.8095117 -0.38485214 0.96873409
1.287207 -7.8090038 -0.38400045 0.96880227
1.1865039 -7.8084569 -0.38321006 0.96886545
0.98630857 -7.8071775 -0.38180992 0.96897745
0.88667965 -7.8064451 -0.38119996 0.96902627
0.78738278 -7.8056736 -0.38064909 0.96907037
0.24682617 -3.9228027 -0.19070838 0.98438251
0.19786133 -3.932656 -0.1910519 0.98435462
0.15052734 -3.9902732 -0.19374365 0.98413593
0.19609375 -7.7998533 -0.37856254 0.96923715
-0.097939454 -7.7961912 -0.3782959 0.96925849
-0.1959375 -7.7948632 -0.37832111 0.96925652
-0.29392576 -7.793457 -0.37840235 0.96925002
-0.39197266 -7.7920017 -0.37854156 0.96923894
-0.49013671 -7.7905078 -0.37873778 0.9692232
-0.78533202 -7.785615 -0.37966979 0.96914864
-0.88407224 -7.7838769 -0.38009673 0.96911448
-0.98308593 -7.7820702 -0.38058197 0.96907568
-1.0823437 -7.7801952 -0.38112593 0.96903217
-1.1819043 -7.7782712 -0.38172725 0.96898395
-1.2817676 -7.7762594 -0.38239077 0.96893102
-1.4825684 -7.7720604 -0.38389608 0.96881068
-1.6850976 -7.7675977 -0.38564536 0.96867073
-1.8895117 -7.7628708 -0.387647 0.96851075
-1.9925195 -7.7604003 -0.38874277 0.96842313
-1.2680566 -3.9026756 -0.19910227 0.98370093
-1.3351269 -3.939961 -0.20184271 0.98347831
-2.7320898 -7.7409568 -0.3982926 0.96766007
-2.8294334 -7.7068648 -0.39833647 0.96765661
-3.2128515 -7.5543652 -0.39830479 0.96765912
-3.3074608 -7.5132322 -0.39829695 0.96765983
-3.6805077 -7.3370214 -0.39826611 0.96766216
-3.7723241 -7.2900391 -0.39825848 0.96766281
-3.863574 -7.2419138 -0.39825097 0.96766347
-4.1335545 -7.0907617 -0.39822856 0.9676652
-4.2222462 -7.0381346 -0.39822119 0.96766579
-4.3102732 -6.9843845 -0.39821392 0.96766639
-4.3976169 -6.9295406 -0.39820665 0.96766698
-4.4842482 -6.8736134 -0.3981995 0.96766758
-2.6934569 -3.9102733 -0.23037824 0.98116469
-2.7472949 -3.8830371 -0.23078975 0.98113137
-4.8236227 -6.6391501 -0.39817131 0.96766979
-4.9065723 -6.5779099 -0.39816442 0.96767032
-4.98875 -6.5156054 -0.3981576 0.96767092
-5.0701561 -6.4523144 -0.39815086 0.96767139
-5.2305274 -6.3226562 -0.39813751 0.96767247
-5.3094821 -6.2562985 -0.39813095 0.96767306
-5.387578 -6.1889744 -0.39812446 0.9676736
-5.4648438 -6.1207032 -0.39811805 0.96767408
-5.5412498 -6.051455 -0.39811164 0.96767455
-5.6167674 -5.9812303 -0.39810538 0.96767509
-5.6913767 -5.9100976 -0.39809915 0.96767563
-5.7650876 -5.838037 -0.39809301 0.9676761
-5.8379197 -5.7650194 -0.39808697 0.96767664
-5.9098144 -5.691123 -0.39808097 0.96767706
-4.173779 -3.9194531 -0.27780381 0.97733152
-1.030205 -0.94335938 -0.067775227 0.99442154
-1.0306445 -0.87466794 -0.065587007 0.99460119
-1.0308887 -0.83123046 -0.064253688 0.99471074
-1.0313672 -0.74934566 -0.061855659 0.99490762
-1.0315918 -0.71058589 -0.060778122 0.99499607
-1.0588964 -0.70996094 -0.061856229 0.9949075
-1.0882031 -0.70994139 -0.063042827 0.99481016
-1.1504004 -0.70995116 -0.065590091 0.99460095
-1.1834179 -0.70996094 -0.066958919 0.9944886
-1.217832 -0.70995116 -0.068396874 0.99437064
-1.2913965 -0.70996094 -0.071501806 0.99411571
-1.3719434 -0.70995116 -0.074951701 0.99383283
-1.4607812 -0.70995116 -0.078803517 0.9935168
-1.5087109 -0.70994139 -0.080901869 0.99334478
-1.7861426 -0.7071777 -0.093208618 0.99233633
-1.7860937 -0.68132812 -0.092750929 0.9923737
-9.7342482 -3.4355955 -0.50085378 0.95950329
-9.7765818 -3.3129883 -0.5008502 0.95950359
-9.8173733 -3.1898534 -0.50084668 0.95950383
-9.8943062 -2.9421093 -0.50084013 0.95950437
-9.9304104 -2.8175097 -0.50083703 0.95950472
-10.029424 -2.4412012 -0.50082844 0.9595052
-10.204765 -1.5506152 -0.50081307 0.95950651
-10.223408 -1.4222461 -0.5008114 0.95950669
-10.255869 -1.164873 -0.50080848 0.95950687
-10.281875 -0.90677732 -0.50080609 0.95950699
-10.301348 -0.64809567 -0.50080419 0.95950723
-10.320849 -0.1296875 -0.50080204 0.95950741
-9.7637501 -0 -0.50084776 0.9616484
-9.7260351 0.85777342 -0.5008499 0.96164829
-9.7145014 0.9799121 -0.50085074 0.96164823
-9.6868553 1.2237304 -0.5008527 0.96164805
-9.670742 1.3453808 -0.50085396 0.96164793
-9.6338959 1.5879883 -0.5008567 0.96164787
-9.4871483 2.3092284 -0.50086802 0.96164691
-9.4574213 2.4282813 -0.50087035 0.96164674
-9.4262104 2.5469337 -0.50087279 0.96164656
-9.3592968 2.7830174 -0.50087804 0.96164632
-9.3236914 2.9004588 -0.50088084 0.96164584
-9.207881 3.2498436 -0.50089002 0.96164531
-1.7869335 0.68166012 -0.098107144 0.99236906
-1.6692871 0.70996094 -0.093051754 0.99276084
-1.612705 0.70996094 -0.090388298 0.99296731
-1.5592773 0.70996094 -0.08788643 0.99316126
-1.5087109 0.70994139 -0.085532412 0.99334389
-1.3307031 0.70994139 -0.077369191 0.99397731
-1.2913769 0.70994139 -0.07559444 0.994115
-1.1834179 0.70995116 -0.070791475 0.99448782
-1.1186817 0.70995116 -0.067965925 0.99470729
-1.0882226 0.70995116 -0.066651419 0.99480939
-1.0308985 0.71011716 -0.064214513 0.99499875
-1.0308105 0.72930664 -0.064773403 0.99495524
-1.0304297 0.78899413 -0.066573255 0.99481547
-1.0303028 0.80960935 -0.067217216 0.99476552
-1.0300488 0.85212886 -0.068575323 0.99465996
-1.0298926 0.8740527 -0.069291532 0.99460435
-5.9480567 6.0232811 -0.43423563 0.96666312
-5.8642869 6.0896482 -0.43367267 0.96670556
-5.7807226 6.1558399 -0.43317953 0.96674281
-5.6139646 6.2877245 -0.432392 0.96680224
-5.5307517 6.3534665 -0.43209785 0.96682441
-5.4678221 6.4429002 -0.4334729 0.96672058
-5.0856347 6.9998045 -0.44383043 0.96593916
-4.9536524 7.191494 -0.44794667 0.96562874
-4.7529492 7.4894528 -0.45501766 0.96509582
-4.6845994 7.5909472 -0.45756921 0.96490341
-4.6154394 7.693584 -0.46022376 0.9647035
-4.5454783 7.7974315 -0.46298194 0.96449578
-4.4786716 7.9095898 -0.46626368 0.96424866
-4.4301171 8.0583591 -0.47171488 0.9638384
-4.3804102 8.2106934 -0.47737151 0.96341276
-4.2237401 8.6907911 -0.49566999 0.96203732
-3.9375486 8.9445601 -0.50131744 0.96161324
-3.5978417 9.0871286 -0.50134522 0.96161103
-3.4834278 9.1318159 -0.50135458 0.96161026
-3.3684568 9.1750002 -0.50136399 0.96160972
-3.0204394 9.2959862 -0.50139248 0.96160752
-2.9034374 9.3333883 -0.50140208 0.9616068
-2.668076 9.40376 -0.50142133 0.96160537
-2.3118846 9.4981928 -0.50145054 0.96160316
-2.1923926 9.526679 -0.50146037 0.96160245
-2.0725489 9.5536718 -0.50147015 0.96160167
-1.8318652 9.6031055 -0.50148994 0.96160024
-1.7110937 9.625576 -0.50149983 0.96159941
-1.590039 9.646513 -0.50150979 0.96159863
-1.4687402 9.6659174 -0.50151974 0.96159792
-1.3471777 9.6837692 -0.50152969 0.96159726
-1.2253808 9.7001362 -0.50153971 0.96159649
-1.1034278 9.7149897 -0.50154972 0.96159565
-0.98127925 9.7282906 -0.50155973 0.96159488
-0.85898435 9.7400579 -0.50156981 0.9615941
-0.49130857 9.7660646 -0.50160003 0.96159196
-0.36854491 9.7716694 -0.5016101 0.96159118
-0.24572265 9.775713 -0.50162023 0.96159047
0.12290039 9.7786427 -0.50165051 0.96158808
0.24577148 9.7765522 -0.50166065 0.96158725
0.36863279 9.7728415 -0.50167078 0.96158665
0.49139649 9.7676363 -0.50168085 0.96158588
0.85925782 9.7427731 -0.50171113 0.96158355
0.98164058 9.7313967 -0.5017212 0.96158284
1.1038574 9.7185154 -0.50173128 0.96158201
1.3477832 9.6880856 -0.50175136 0.96158051
1.4694629 9.6705666 -0.50176138 0.9615798
1.8330176 9.6089058 -0.50179136 0.96157748
2.1940136 9.5335541 -0.5018211 0.96157521
2.3136914 9.5054102 -0.501831 0.96157449
2.4329784 9.4757519 -0.50184083 0.96157384
2.5519335 9.4446383 -0.50185066 0.961573
2.6704395 9.4119825 -0.50186044 0.96157241
2.9062402 9.3422756 -0.50187993 0.96157092
3.1402245 9.2666597 -0.50189924 0.96156937
3.3722167 9.1851654 -0.50191844 0.961568
3.4874413 9.1422653 -0.50192791 0.96156716
3.8297558 9.0048046 -0.50195622 0.96156514
3.9426658 8.9561329 -0.50196558 0.96156448
4.0549998 8.9060841 -0.50197488 0.96156359
4.1666503 8.8545704 -0.50198412 0.96156299
4.3880272 8.7473726 -0.50200242 0.96156168
4.7910352 7.7633591 -0.46796203 0.96412069
4.9384179 7.3657713 -0.45490047 0.96510452
4.9974704 7.2550778 -0.45190695 0.96533012
5.2107325 6.9856153 -0.44704702 0.96569651
5.2808104 6.8970313 -0.4455899 0.96580642
5.3504782 6.8090134 -0.44421199 0.96591032
5.5570312 6.5479879 -0.44054416 0.966187
5.6251659 6.4618845 -0.43947256 0.96626782
5.6929879 6.3762012 -0.43847525 0.96634299
6.032207 5.9568748 -0.43487775 0.96661454
6.099463 5.8737302 -0.43436971 0.96665281
6.4444237 5.6099706 -0.43828505 0.96635741
6.536377 5.5471778 -0.43976244 0.96624595
6.6289158 5.4839258 -0.44131774 0.96612865
6.8159766 5.3559375 -0.44466555 0.96587604
6.9105368 5.291152 -0.44646281 0.96574062
1.2598046 0.89130855 -0.079161108 0.99383807
