# .PCD v0.7 - Point Cloud Data file format
VERSION 0.7
FIELDS x y z intensity
SIZE 4 4 4 4
TYPE F F F F
COUNT 1 1 1 1
WIDTH 1074
HEIGHT 1
VIEWPOINT 0 0 0 1 0 0 0
POINTS 1074
DATA ascii
0.049423829 -3.9336717 0.081750982 0.98438388
-0.1506836 -3.994453 0.083066478 0.98413455
-3.4364257 -22.615297 0.47535691 0.91254371
-3.5957129 -21.814234 0.45943138 0.91534573
-3.8804295 -21.828432 0.46072257 0.91511846
-1.4888281 -3.9028904 0.086805262 0.98342639
-1.5531836 -3.9228613 0.087676845 0.98326141
-1.6331249 -3.9779785 0.089360505 0.98294276
-3.7448828 -8.2250242 0.18780418 0.96448833
-3.8696094 -8.2233543 0.188861 0.96429205
-3.9870899 -8.2038136 0.18954803 0.9641645
-2.9736912 -3.8837891 0.10164829 0.98062009
-1.0590234 -0.94553709 0.029502792 0.99433607
-1.0588086 -0.92168945 0.029171409 0.99439943
-1.0586035 -0.89838862 0.02885231 0.99446046
-1.0584081 -0.87556636 0.028544463 0.99451941
-1.0582129 -0.85324216 0.028247757 0.99457616
-1.0580078 -0.83135742 0.027961463 0.99463105
-1.0573046 -0.74804688 0.026914291 0.99483162
-1.1187109 -0.70995116 0.027533608 0.99471301
-1.1834277 -0.70995116 0.028678359 0.99449384
-1.3307421 -0.70995116 0.031342886 0.99398375
-1.4152637 -0.70993161 0.032903098 0.99368531
-1.5593066 -0.70994139 0.035603639 0.99316871
-1.6127441 -0.70995116 0.036617089 0.99297488
-1.7648437 -0.67320311 0.039252318 0.99247134
-1.7648535 -0.64793944 0.039068986 0.99250644
-1.7657129 0.64826173 0.033874243 0.99250323
-1.7656933 0.67353517 0.03403366 0.99246812
-1.7656446 0.69907224 0.034199752 0.99243158
-1.6127245 0.70994139 0.03173374 0.99297535
-1.4608105 0.70995116 0.029250374 0.99352324
-1.3719727 0.70995116 0.027820472 0.99383897
-1.2913867 0.70995116 0.026539916 0.99412167
-1.2538378 0.70995116 0.025948714 0.99425215
-1.1834277 0.70995116 0.024853744 0.99449414
-1.1504296 0.70995116 0.024345703 0.99460632
-1.1187109 0.70994139 0.023861656 0.99471331
-1.0882324 0.70995116 0.023399962 0.99481529
-1.0589257 0.70995116 0.022959746 0.99491256
-1.0547363 0.72650391 0.023064995 0.99488932
-1.0548632 0.74632812 0.023271255 0.99484378
-1.0550097 0.76650387 0.023485068 0.99479651
-1.0553027 0.80800778 0.023936385 0.9946968
-1.0554785 0.82937497 0.024174308 0.99464411
-1.0556543 0.85118163 0.024421271 0.99458957
-1.0558106 0.87342769 0.024677237 0.99453306
-1.0559765 0.89616209 0.024942817 0.99447447
-1.0561621 0.91940427 0.025217818 0.99441361
-1.0563574 0.94315428 0.025503464 0.99435055
-13.750019 15.400166 0.37180519 0.92072433
-13.518779 15.529619 0.37080336 0.92092997
-13.288731 15.658398 0.36985779 0.92112267
-12.831914 15.914111 0.36816338 0.92146975
-12.379004 16.167627 0.36671555 0.92176658
-12.177675 16.761103 0.373115 0.92045707
-12.194062 17.702696 0.38713279 0.91759592
-12.1525 18.125742 0.39300802 0.91639799
-10.531064 16.142294 0.34710562 0.92579037
-10.24498 16.143467 0.34433502 0.92636025
-9.4014349 16.127266 0.33618757 0.92803842
-10.386699 18.343437 0.37963471 0.9191246
-10.082207 18.339394 0.37689871 0.91968334
-10.378096 19.452803 0.39707068 0.91557181
-10.063993 19.448633 0.39437133 0.91612065
-9.7316113 19.399706 0.39084885 0.91683376
-9.8018456 20.168144 0.40383613 0.91419619
-4.4503417 12.609297 0.24081367 0.94791055
8.1563568 23.109726 0.44134933 0.90660965
8.1328907 21.320312 0.41095069 0.91275281
4.2983689 10.856474 0.21028335 0.95436096
8.0776758 16.620586 0.33281127 0.92873663
8.0640917 15.583847 0.31600401 0.93220913
8.0341311 13.781904 0.28729782 0.93817282
8.0256348 12.646347 0.26974213 0.9418382
8.0145311 12.284853 0.26415962 0.94300705
8.1255274 9.3341799 0.22287215 0.95169592
8.9967775 8.4485254 0.22226539 0.95182401
9.500761 8.2705469 0.22684601 0.95085537
1.2903222 0.93748045 0.028723983 0.99363959
1.2899804 0.88858396 0.028210258 0.99375296
1.2896484 0.84136719 0.027731933 0.99385858
1.2895117 0.81833982 0.02750515 0.99390858
1.2892284 0.77342772 0.027075805 0.99400336
1.2890918 0.75147462 0.026872672 0.99404824
1.2913867 0.70995116 0.02653984 0.99412167
1.3307323 0.70995116 0.027163085 0.9939841
1.4152539 0.70994139 0.028515242 0.99368566
1.5592773 0.70996094 0.030855522 0.99316913
1.6692773 0.70994139 0.032668646 0.99276918
1.7931347 0.70995116 0.034732282 0.99231416
1.861123 0.70995116 0.035873529 0.99206263
1.9729491 0.66857421 0.03751621 0.99170065
1.9729394 -0.66858399 0.037516098 0.99170071
1.9728613 -0.69631833 0.037678413 0.99166501
1.9337401 -0.70995116 0.037098501 0.99179274
1.8610938 -0.70995116 0.035873376 0.99206275
1.7293066 -0.70994139 0.033666227 0.99254924
1.6692773 -0.70995116 0.032668799 0.99276918
1.6127148 -0.70995116 0.031733666 0.99297535
1.5592773 -0.70995116 0.030855369 0.99316913
1.4607617 -0.70996094 0.029250221 0.99352342
1.4152637 -0.70995116 0.028515091 0.9936856
1.3307226 -0.70995116 0.027163161 0.99398416
1.2913769 -0.70995116 0.026539726 0.99412173
1.2889649 -0.72986329 0.026676673 0.99409151
1.2891113 -0.75148433 0.026872635 0.99404818
1.2892187 -0.77342772 0.027075768 0.99400342
1.2893749 -0.79571289 0.027286949 0.9939568
1.2898242 -0.86476558 0.027966766 0.99380672
1.2899902 -0.88859373 0.028209953 0.9937529
9.5491991 -7.8998241 0.22319442 0.95162779
4.4685545 -3.9897656 0.10788486 0.97631896
7.5823436 -9.4036522 0.21754798 0.95282227
3.0390429 -3.9691894 0.090028726 0.98019934
2.8539453 -4.0337987 0.088989981 0.98042566
4.2969337 -8.3038473 0.16838127 0.96328592
4.1646094 -8.3020897 0.16727257 0.96352351
3.7858593 -8.3150482 0.16453888 0.96410865
3.527246 -8.293623 0.16230842 0.96458632
1.5727637 -3.9723339 0.076942787 0.98305303
1.5039648 -3.9426465 0.075994946 0.98325992
1.4526563 -3.9567676 0.075909272 0.98327863
1.4150878 -4.0094433 0.076572947 0.98313373
7.4053025 -22.791279 0.43157476 0.90858012
3.5751073 -16.479799 0.30369338 0.93476188
0.049423829 -3.9336717 0.070848577 0.98438472
-1.953125e-05 -3.9226658 0.070644304 0.9844293
-3.4364159 -22.615351 0.41196081 0.91254795
-3.8804295 -21.828442 0.39927733 0.91512275
-4.1598926 -21.806744 0.39980355 0.91501546
-1.4031543 -3.9756248 0.075926743 0.98327482
-1.4391992 -3.9199803 0.07520359 0.98343277
-1.4888085 -3.9028904 0.07522884 0.98342729
-1.5531836 -3.9228613 0.075983658 0.9832623
-1.6350683 -3.9827342 0.077534787 0.98292351
-3.6215234 -8.2266645 0.16187713 0.964679
-3.7448828 -8.2250242 0.16275619 0.96449023
-3.8696094 -8.2233639 0.16367409 0.9642939
-3.9870899 -8.2038136 0.16426955 0.9641664
-2.9025195 -3.9949412 0.088929668 0.98043853
-2.9221094 -3.9174316 0.088015251 0.98063785
-3.1334374 -3.9875975 0.091332853 0.97991544
-1.0563574 -0.94315428 0.025503311 0.99435055
-1.0559667 -0.89616209 0.024942551 0.99447447
-1.0554687 -0.82937497 0.024174498 0.99464417
-1.0549999 -0.7664941 0.023485031 0.99479657
-1.0548632 -0.74633789 0.023271332 0.99484372
-1.0882422 -0.70995116 0.023400115 0.99481523
-1.1504102 -0.70995116 0.024345664 0.99460638
-1.1834277 -0.70995116 0.024853667 0.99449414
-1.2538183 -0.70994139 0.025948791 0.9942522
-1.3307421 -0.70995116 0.027163047 0.9939841
-1.3720019 -0.70994139 0.027820472 0.99383885
-1.460791 -0.70994139 0.029250145 0.99352336
-1.5593066 -0.70994139 0.030855255 0.99316907
-1.6693066 -0.70995116 0.032668799 0.99276906
-1.765625 -0.72484374 0.0343729 0.99239337
-1.7656835 -0.67354488 0.034033623 0.99246812
-1.7657226 -0.64824218 0.033874474 0.99250323
-1.7665429 0.64855468 0.028675688 0.99250007
-1.7665331 0.67386717 0.028810425 0.99246484
-1.7665136 0.69939452 0.028951339 0.99242824
-1.6692871 0.70995116 0.027642021 0.99276948
-1.5087304 0.70994139 0.025408363 0.99335176
-1.4152734 0.70994139 0.024127312 0.99368584
-1.3307519 0.70993161 0.022983359 0.99398434
-1.2913867 0.70995116 0.02245613 0.99412197
-1.2538378 0.70995116 0.021956023 0.99425238
-1.1834277 0.70995116 0.021029433 0.99449438
-1.1187109 0.70994139 0.020190163 0.99471354
-1.0882324 0.70995116 0.019799575 0.99481553
-1.0523242 0.72487301 0.019471398 0.99490118
-1.0525683 0.76472652 0.019825211 0.99480873
-1.0526757 0.78521484 0.020011863 0.9947601
-1.0528125 0.80609375 0.020205459 0.99470955
-1.052959 0.82739258 0.020406075 0.99465716
-1.0530957 0.84912109 0.020613823 0.99460286
-1.0532422 0.87128901 0.020829162 0.99454659
-1.0533984 0.89394528 0.021052819 0.99448824
-1.0535449 0.9170996 0.021284293 0.99442774
-15.167831 14.606524 0.3208721 0.91921121
-8.5384569 8.6464252 0.18517028 0.95254987
-8.5275974 8.8552732 0.18733414 0.95200914
-14.216503 15.139043 0.3164621 0.92027694
-13.750019 15.400175 0.31459555 0.92072785
-13.518779 15.529619 0.31374624 0.92093349
-13.288701 15.658398 0.31295013 0.92112625
-12.831914 15.914111 0.3115145 0.92147321
-12.60499 16.041122 0.31087378 0.92162788
-12.378984 16.167637 0.31028694 0.92177004
-12.218457 16.380381 0.3113955 0.9215011
-12.20248 17.246914 0.32194313 0.91895473
-12.15249 18.125751 0.33253959 0.91640162
-10.56165 16.189159 0.29452515 0.9255864
-10.24498 16.143467 0.2913501 0.92636353
-9.9602928 16.139687 0.28900239 0.92693532
-10.378096 19.452803 0.33597252 0.9155755
-10.063993 19.448633 0.33369246 0.91612434
-9.7316113 19.399706 0.33072501 0.91683745
-9.8018551 20.168144 0.34169799 0.91420001
-9.4884567 20.163984 0.33958015 0.91470838
-4.4503417 12.609297 0.20375846 0.94791293
4.4414158 10.818564 0.17820618 0.95429301
8.0145311 12.284853 0.22351348 0.94300961
7.9401169 10.370244 0.1990245 0.94909185
7.9222555 10.081875 0.19538254 0.94999897
8.6942577 8.5857124 0.18619621 0.95229369
1.2873437 0.93531245 0.02424797 0.99365449
1.2871972 0.9107129 0.024027556 0.99371195
1.286914 0.86283201 0.023610039 0.99382085
1.2863965 0.77173829 0.02285984 0.99401677
1.2862988 0.74985349 0.022688368 0.99406141
1.2913867 0.70995116 0.022456283 0.99412197
1.4152539 0.70994139 0.024127426 0.9936859
1.460791 0.70994139 0.024749488 0.99352366
1.5592773 0.70996094 0.026107596 0.99316943
1.861123 0.70995116 0.03035366 0.99206299
1.9337305 0.70995116 0.031390306 0.99179316
1.974912 0.69702148 0.031913985 0.99165678
1.9749902 0.66926754 0.031776238 0.99169248
1.9337401 -0.70995116 0.031390037 0.9917931
1.8610938 -0.70995116 0.030353507 0.99206311
1.7931249 -0.70995116 0.02938797 0.99231458
1.5592773 -0.70995116 0.026107749 0.99316949
1.5087206 -0.70994139 0.0254084 0.99335176
1.4152637 -0.70995116 0.024127655 0.9936859
1.3719629 -0.70994139 0.02353981 0.99383926
1.3307226 -0.70995116 0.022983322 0.9939844
1.2866504 -0.8165527 0.023221282 0.99392229
1.2869238 -0.86283201 0.023609923 0.99382085
1.2871875 -0.91070312 0.024027403 0.99371201
1.2873437 -0.93532223 0.024247894 0.99365449
4.4685545 -3.9897559 0.091283984 0.97632009
4.4168749 -4.0445018 0.091260411 0.97632641
7.5960445 -7.8879685 0.16686997 0.95713747
2.9629004 -3.9721484 0.075512201 0.980371
2.9196191 -4.0185056 0.075690344 0.98032522
2.859453 -4.0415525 0.075440288 0.98038924
4.2969337 -8.3038473 0.14247257 0.96328759
4.1645899 -8.3020897 0.14153336 0.96352518
4.0697069 -8.3738279 0.14187336 0.96343917
3.8133397 -8.3754101 0.14023224 0.96385449
3.527246 -8.293623 0.13733509 0.96458793
3.4217968 -8.3349953 0.13729732 0.96459752
1.5727637 -3.9723339 0.065102652 0.9830538
1.4526563 -3.9567676 0.064228818 0.98327941
1.3066602 -4.021543 0.064434931 0.9832263
3.6127539 -21.917973 0.33849731 0.91496891
3.3271191 -21.896191 0.33748436 0.9152112
0.049423829 -3.9336717 0.059947204 0.98438543
-0.049501952 -3.9390819 0.060028952 0.98436415
-3.4364257 -22.615366 0.34857246 0.91255176
-4.1598926 -21.806744 0.33828589 0.91501921
-1.4031543 -3.9756248 0.064243965 0.98327559
-3.6437304 -8.2770748 0.13780743 0.964468
-3.7691698 -8.2783546 0.13860705 0.96426576
-1.0537109 -0.94079101 0.021524848 0.99436492
-1.0533886 -0.89396483 0.021052703 0.99448824
-1.0532227 -0.87130857 0.020829314 0.99454665
-1.0530761 -0.84912109 0.020613631 0.99460292
-1.0529492 -0.8273828 0.020406036 0.99465722
-1.0525683 -0.7647168 0.019825364 0.99480879
-1.052334 -0.72485352 0.019471588 0.99490118
-1.0589062 -0.70994139 0.019426994 0.99491292
-1.1504102 -0.70995116 0.020599632 0.99460661
-1.2178808 -0.70996094 0.021481132 0.99437636
-1.2538183 -0.70994139 0.021956099 0.99425244
-1.3307421 -0.70995116 0.022983283 0.99398434
-1.3720019 -0.70994139 0.023539696 0.99383914
-1.460791 -0.70994139 0.024749335 0.99352366
-1.5087402 -0.70995116 0.025408247 0.9933517
-1.5593066 -0.70994139 0.026107559 0.99316937
-1.6127441 -0.70995116 0.0268507 0.99297559
-1.7664648 -0.72520506 0.029097976 0.9923901
-1.7665331 -0.67386717 0.028810615 0.99246484
-11.890342 -4.0292869 0.19130737 0.95101655
-17.577793 -4.0452247 0.27485412 0.93038446
-1.7673632 0.67417967 0.023582915 0.99246162
-1.6692871 0.70995116 0.02261547 0.99276978
-1.6127245 0.70994139 0.021968117 0.99297595
-1.5087304 0.70994139 0.020788306 0.993352
-1.4152734 0.70994139 0.019740105 0.99368608
-1.3720117 0.70994139 0.019259224 0.99383932
-1.2913867 0.70995116 0.018372726 0.99412221
-1.2178613 0.70995116 0.017574919 0.99437666
-1.1834277 0.70995116 0.017205428 0.99449462
-1.1504296 0.70995116 0.016853638 0.99460673
-1.0499512 0.7232129 0.015894737 0.99491286
-1.0500391 0.74291015 0.016036186 0.99486774
-1.0501367 0.76295894 0.01618286 0.99482089
-1.0503515 0.80419922 0.016492348 0.99472213
-1.0504493 0.82542968 0.016655616 0.99467003
-1.0506836 0.86918944 0.017000275 0.99456
-1.0509375 0.91482419 0.017370949 0.99444175
-15.167831 14.606524 0.262528 0.91921419
-8.5276365 8.8553514 0.15326957 0.95201063
-14.216503 15.139043 0.25891548 0.92027986
-13.750019 15.400175 0.25738838 0.92073077
-13.51876 15.529629 0.25669602 0.92093641
-13.28872 15.658398 0.25603989 0.92112911
-13.059785 15.786543 0.25543487 0.92130899
-12.831914 15.914102 0.25486761 0.92147613
-12.605009 16.041122 0.25434577 0.92163074
-12.177675 16.761103 0.258293 0.9204635
-12.20248 17.246914 0.26339483 0.91895771
-12.194043 17.702705 0.26800185 0.9176026
-12.1525 18.125761 0.27207252 0.91640466
-10.56166 16.189159 0.24099243 0.92558914
-9.6801662 16.135956 0.23459411 0.92748994
-9.4122362 16.145887 0.23300277 0.92796439
-10.544287 19.179941 0.27287459 0.91616774
-10.063993 19.448622 0.27300972 0.91612744
-9.8018456 20.168144 0.27956513 0.91420317
8.1664839 23.138447 0.30591172 0.90650672
8.1439257 21.349218 0.28487602 0.91264689
4.2923632 10.841318 0.14537063 0.954427
4.4400291 10.815195 0.14575653 0.95430869
8.1023731 17.218428 0.23724639 0.92670131
8.008213 11.318769 0.1728611 0.94604474
8.0167084 10.747421 0.16716239 0.94777685
7.9289942 10.355693 0.16260421 0.94916326
7.9327636 10.095254 0.16007011 0.94993621
9.1427927 8.3719721 0.15455322 0.95161849
10.616494 8.1286621 0.16670021 0.94791698
1.2842382 0.90863281 0.01961319 0.99372655
1.2839062 0.83760738 0.019112166 0.99388641
1.2836914 0.79221678 0.018806839 0.99398386
1.2835156 0.74823242 0.018522415 0.9940744
1.2913867 0.70995116 0.018372649 0.99412221
1.4152539 0.70994139 0.019740218 0.9936862
1.4607714 0.70994139 0.020248909 0.99352396
1.5592773 0.70996094 0.021360282 0.99316972
1.6126952 0.70994139 0.021968344 0.99297607
1.6692773 0.70994139 0.022615775 0.99276978
1.7292968 0.70994139 0.023305969 0.9925499
1.9770312 0.66996092 0.026024818 0.99168426
1.9769628 -0.69776368 0.026137771 0.9916485
1.9337401 -0.70995116 0.025682334 0.99179345
1.8610938 -0.70995116 0.024834022 0.9920634
1.7931055 -0.70996094 0.024043884 0.99231493
1.5592773 -0.70995116 0.021360205 0.99316972
1.5087206 -0.70994139 0.020788193 0.99335206
1.4607617 -0.70996094 0.020249061 0.99352396
1.4152637 -0.70995116 0.019740218 0.99368614
1.3307226 -0.70995116 0.018804168 0.99398464
1.2913769 -0.70995116 0.018372841 0.99412221
1.2835058 -0.74822265 0.018522605 0.99407446
1.2837012 -0.79221678 0.018806839 0.99398381
1.2838086 -0.81472653 0.018956603 0.99393594
1.2840234 -0.86087888 0.019273262 0.99383497
1.2841308 -0.88456053 0.019440345 0.99378169
9.5491009 -7.8997068 0.15450974 0.95163232
4.4685545 -3.9897559 0.074685246 0.97632098
7.6004882 -8.5126314 0.14227757 0.95537502
7.582334 -9.4036427 0.15060149 0.9528262
3.0390429 -3.9691894 0.062323987 0.98020095
2.9629004 -3.9721484 0.061781425 0.98037177
2.9196191 -4.0185056 0.061927147 0.980326
2.7939746 -4.0561914 0.061406173 0.98048991
4.2969337 -8.3038473 0.11656597 0.96328896
4.1645899 -8.3020897 0.11579757 0.96352655
4.0427732 -8.3184662 0.1153072 0.96367788
3.9135351 -8.3167477 0.11459281 0.96389884
3.7858593 -8.3150482 0.11390503 0.96411163
3.527246 -8.293623 0.11236171 0.96458924
1.5727539 -3.9723535 0.053264692 0.9830544
1.4150878 -4.0094433 0.053009108 0.98313516
1.3050488 -4.0165915 0.052653119 0.98324746
3.5751758 -16.480181 0.21024215 0.93476576
-1.953125e-05 -3.9226658 0.048904762 0.98443061
-0.049501952 -3.9390819 0.049113501 0.98436475
-0.20112304 -3.9974706 0.049900398 0.98411614
-3.5957129 -21.814243 0.27563438 0.91535687
-3.8803906 -21.828442 0.27640694 0.9151296
-1.4031543 -3.9756248 0.052561682 0.98327619
-1.4391992 -3.9199803 0.052061081 0.98343414
-1.4888085 -3.9028904 0.052078016 0.98342872
-3.6215234 -8.2266645 0.11206142 0.96468192
-3.8696094 -8.2233639 0.11330631 0.96429682
-2.973701 -3.8837891 0.060983658 0.98062271
-3.1944628 -3.9617479 0.063447952 0.97984743
-1.0506641 -0.86918944 0.017000388 0.99456006
-1.0504493 -0.8254199 0.016655577 0.99467003
-1.0882422 -0.70995116 0.016199265 0.99481571
-1.1187109 -0.70995116 0.016518746 0.99471372
-1.2178808 -0.70996094 0.017574959 0.9943766
-1.2914063 -0.70994139 0.018372573 0.99412215
-1.3307421 -0.70995116 0.018804129 0.99398458
-1.4152637 -0.70993161 0.019740181 0.99368614
-1.460791 -0.70994139 0.020249061 0.9935239
-1.5593066 -0.70994139 0.021360168 0.99316961
-1.7673242 -0.72554684 0.023818282 0.9923867
-1.7673535 -0.67417967 0.02358284 0.99246168
-17.568613 -4.0431247 0.22475822 0.93042207
-17.596025 -3.8172557 0.22447936 0.93050587
-1.7682031 0.70006835 0.018440437 0.99242151
-1.7681836 0.72589844 0.018533707 0.99238324
-1.5592871 0.70996094 0.016613083 0.9931699
-1.3719727 0.70995116 0.014978981 0.99383962
-1.3307519 0.70993161 0.014625129 0.99398476
-1.2913867 0.70995116 0.014289627 0.99412239
-1.2538378 0.70995116 0.013971405 0.9942528
-1.1834277 0.70995116 0.013381729 0.99449474
-1.0882324 0.70995116 0.012598953 0.99481589
-1.0589257 0.70995116 0.012361907 0.99491316
-1.0475585 0.72157222 0.012334365 0.9949246
-1.047627 0.74120116 0.012443809 0.99487966
-1.0477246 0.76119137 0.012557449 0.99483299
-1.0478516 0.80231446 0.01279705 0.9947347
-1.0483301 0.91256833 0.01347702 0.99445564
-1.0484082 0.9360742 0.013628616 0.99439359
-15.654131 14.334316 0.20581505 0.91859841
-15.167831 14.606524 0.20418541 0.91921657
-8.6205854 8.5129194 0.11747852 0.95269156
-8.5277052 8.8553905 0.11920886 0.95201176
-13.982597 15.26998 0.200765 0.92051429
-13.51876 15.529629 0.19964722 0.92093873
-13.059785 15.786543 0.19866416 0.92131132
-12.378984 16.167637 0.19744629 0.92177522
-12.1525 18.125761 0.21159889 0.91640711
-10.56166 16.189159 0.18739517 0.92559135
-10.213935 16.094511 0.18483306 0.92658323
-9.9301271 16.090742 0.18334442 0.92715335
-10.544287 19.17996 0.21222854 0.91617012
-9.7316113 19.399706 0.21044257 0.91684294
-9.4817963 20.149815 0.21593674 0.91477132
-4.4503417 12.609297 0.12965816 0.94791639
8.1439447 21.349218 0.22156464 0.91264939
4.4386716 10.811835 0.11332794 0.95432383
8.0341406 13.781895 0.15468436 0.93817973
8.0330658 13.016787 0.14832015 0.94064754
8.0145311 12.284853 0.14222918 0.94301343
8.2828999 9.0455561 0.11892506 0.95212209
8.6942577 8.5857124 0.11848312 0.95229691
10.896885 8.1281929 0.13183056 0.94707173
1.2812988 0.90654296 0.015219612 0.9937411
1.2811328 0.85894531 0.014956474 0.99384898
1.2810448 0.83575195 0.014831733 0.99390012
1.2809668 0.81293941 0.01471138 0.99394947
1.2808789 0.79047853 0.01459526 0.99399716
1.2808105 0.76836914 0.01448307 0.99404311
1.2806737 0.72515625 0.014270782 0.99413013
1.2913867 0.70995116 0.014289627 0.99412239
1.3719531 0.70994139 0.014979095 0.99383974
1.4152539 0.70994139 0.015353088 0.99368638
1.460791 0.70994139 0.015748939 0.99352407
1.5087109 0.70995116 0.016168099 0.99335223
1.5592773 0.70996094 0.016613197 0.9931699
1.6126952 0.70994139 0.017086219 0.99297625
1.7931347 0.70995116 0.018700561 0.99231505
1.861123 0.70995116 0.019315148 0.99206352
1.9337305 0.70995116 0.019974746 0.99179369
1.9790137 0.69848633 0.020350112 0.99164009
1.9790624 -0.67064452 0.020261917 0.99167603
1.9790233 -0.69847655 0.020350151 0.99164009
1.8610938 -0.70995116 0.019314995 0.99206364
1.7931249 -0.70995116 0.018700331 0.99231511
1.6692773 -0.70995116 0.01758953 0.99277002
1.4607617 -0.70996094 0.015749015 0.99352413
1.3719629 -0.70994139 0.014979172 0.99383968
1.2913769 -0.70995116 0.014289512 0.99412239
1.2806835 -0.72517574 0.014270782 0.99413002
1.2808105 -0.76838863 0.014482994 0.99404305
1.2808985 -0.79047853 0.01459507 0.9939971
1.2809765 -0.81292969 0.014711189 0.99394947
1.2813085 -0.90654296 0.015219727 0.9937411
10.623047 -7.923945 0.12851033 0.94836682
9.5490236 -7.8996778 0.12017044 0.95163405
4.4168749 -4.0445018 0.058071554 0.97632802
7.5959473 -7.8878613 0.10620426 0.95714092
7.582334 -9.4036427 0.11712238 0.95282763
3.0390625 -3.9691796 0.048473548 0.98020154
2.9629004 -3.9721484 0.04805088 0.98037237
2.9196191 -4.0185056 0.048164178 0.98032659
2.7837012 -4.0412402 0.047583237 0.98056167
7.5598044 -11.587919 0.13416423 0.94615775
7.5370212 -13.31083 0.14832176 0.94064534
4.2969337 -8.303833 0.09066017 0.9632901
4.1645899 -8.3020849 0.090063512 0.96352768
4.0427732 -8.3184614 0.089681931 0.96367896
3.7858593 -8.3150434 0.088591456 0.9641127
3.6596875 -8.313364 0.088076815 0.9643175
3.527246 -8.2936182 0.08739017 0.96459031
1.5727539 -3.9723535 0.041427422 0.98305494
1.4526563 -3.9567676 0.040870972 0.98328054
3.8026757 -16.523895 0.16441093 0.93442267
0.049423829 -3.9336717 0.038146589 0.9843865
-1.953125e-05 -3.9226658 0.038036499 0.98443109
-0.20125 -4.0001268 0.038836632 0.98410618
-3.4364355 -22.61537 0.22181343 0.91255748
-3.5956933 -21.814234 0.21437675 0.91535938
-3.8804295 -21.828442 0.21497726 0.91513211
-4.1598926 -21.806744 0.21526268 0.91502482
-1.4031543 -3.9756248 0.040880661 0.98327672
-1.4391992 -3.9199803 0.040490799 0.98343462
-1.6933789 -3.9815722 0.041954078 0.98284125
-3.6215429 -8.226655 0.087158546 0.964683
-2.9221094 -3.9174316 0.047389336 0.98064005
-3.1919725 -3.9586816 0.049309805 0.97986352
-1.0482324 -0.88958007 0.01333107 0.99451554
-1.0480371 -0.84505856 0.01305439 0.99462903
-1.047959 -0.82346678 0.012923355 0.99468279
-1.0476953 -0.76119137 0.012557334 0.99483305
-1.0476367 -0.74121094 0.012443847 0.9948796
-1.1187109 -0.70995116 0.012847633 0.9947139
-1.1504102 -0.70995116 0.013108024 0.99460697
-1.1834277 -0.70995116 0.013381653 0.99449474
-1.2178808 -0.70996094 0.013669014 0.99437678
-1.3307421 -0.70995116 0.014625053 0.99398476
-1.4152637 -0.70993161 0.015353203 0.99368632
-1.460791 -0.70994139 0.015748786 0.99352407
-1.5087402 -0.70995116 0.016168365 0.99335217
-1.6127441 -0.70995116 0.017085914 0.99297607
-1.6693066 -0.70995116 0.017589606 0.9927699
-1.7682226 -0.67450196 0.018350448 0.99245822
-11.890351 -4.0292969 0.12173397 0.95101982
-17.561737 -4.041543 0.17473908 0.93045038
-1.7690625 0.64947265 0.013052139 0.99249011
-1.7690332 0.70040035 0.013177986 0.99241817
-1.6127245 0.70994139 0.012204475 0.99297631
-1.5592871 0.70996094 0.011866379 0.99317002
-1.5087304 0.70994139 0.011548576 0.99335235
-1.4152734 0.70994139 0.010966454 0.99368644
-1.3719727 0.70995116 0.010699196 0.9938398
-1.2913867 0.70995116 0.010206756 0.99412251
-1.2538378 0.70995116 0.0099794008 0.99425292
-1.1834277 0.70996094 0.0095582576 0.99449486
-1.1504102 0.70995116 0.0093629453 0.99460709
-1.1187109 0.70994139 0.0091769025 0.99471402
-1.0882324 0.70995116 0.0089991754 0.99481601
-1.0454491 0.72011715 0.0087923044 0.99493492
-1.0455176 0.80049801 0.0091201402 0.99474663
-1.0455371 0.84304684 0.0093022538 0.99464196
-1.0455956 0.86498046 0.0093986131 0.99458659
-1.0456738 0.8874023 0.0094986726 0.99452901
-1.0458202 0.9337402 0.0097101973 0.99440753
-15.167831 14.606524 0.14584358 0.91921836
-8.620615 8.5129395 0.083911397 0.95269245
-8.5277634 8.8554487 0.085147664 0.95201254
-14.216503 15.139043 0.14383842 0.92028397
-13.982597 15.26998 0.14340073 0.92051601
-13.518749 15.529629 0.14260192 0.92094052
-13.288701 15.658398 0.14224055 0.92113322
-12.831914 15.914102 0.14158779 0.92148018
-12.177666 16.761112 0.14348923 0.92046756
-12.20248 17.246914 0.14632668 0.91896188
-12.194043 17.702705 0.14888214 0.91760683
-10.214218 16.09498 0.13202582 0.92658287
-9.9310446 16.092276 0.13096966 0.92714834
-9.6523237 16.08959 0.12995028 0.92769438
-9.4122458 16.145908 0.1294397 0.92796803
-10.11916 17.870966 0.1422385 0.92113376
-10.05501 19.431221 0.15153022 0.91620356
-9.7780952 20.119297 0.15493232 0.91440618
-9.4654589 20.115147 0.15397187 0.91491342
-4.4503512 12.609306 0.092610508 0.94791752
4.4372754 10.808476 0.080922581 0.95433879
8.1143847 19.079277 0.14360145 0.92041147
8.0793161 16.105947 0.12479919 0.93045932
8.051816 14.646201 0.1157571 0.93533003
8.0145311 12.284853 0.10158962 0.94301468
8.0166988 10.747421 0.092863351 0.9477796
1.2785254 0.95367187 0.01104744 0.99364007
1.2783301 0.88055664 0.010750847 0.99381006
1.2782617 0.85702145 0.010659065 0.99386287
1.2782031 0.83388668 0.010570106 0.99391383
1.2781445 0.81113279 0.010484657 0.99396294
1.2780859 0.78874999 0.01040203 0.99401039
1.2779882 0.745 0.010245628 0.99410021
1.2779394 0.72361326 0.010171356 0.99414271
1.3719531 0.70994139 0.010699234 0.99383986
1.5592773 0.70996094 0.011866493 0.99317008
1.6126952 0.70994139 0.012204094 0.99297643
1.6692773 0.70994139 0.012563895 0.9927702
1.7292968 0.70994139 0.012947616 0.99255031
1.861123 0.70995116 0.013796043 0.9920637
1.9337305 0.70995116 0.014267654 0.99179393
1.9811132 0.67134762 0.014487533 0.99166763
1.9810938 -0.6991992 0.01455059 0.99163157
1.9337401 -0.70995116 0.014267158 0.99179387
1.8610938 -0.70995116 0.013796424 0.99206382
1.7931055 -0.70996094 0.013357467 0.99231535
1.7293066 -0.70994139 0.012947235 0.99255025
1.6127148 -0.70995116 0.012204323 0.99297637
1.2913769 -0.70995116 0.010206947 0.99412256
1.2779297 -0.72363281 0.010171432 0.99414271
1.2779882 -0.7450195 0.010245552 0.99410015
1.2780273 -0.76670897 0.010322685 0.99405611
1.2780762 -0.78875977 0.010402068 0.99401039
1.2782617 -0.85702145 0.010659027 0.99386287
1.2783691 -0.90449214 0.010846214 0.99375546
1.2784473 -0.92885739 0.010945129 0.99369878
1.2785058 -0.95368165 0.011047211 0.99364007
9.5489845 -7.8996091 0.085834652 0.95163542
4.4168749 -4.0445018 0.041479263 0.97632855
7.5958982 -7.8878222 0.07587757 0.95714211
7.5976367 -8.7277489 0.080144003 0.95476812
2.7801464 -4.0360937 0.033944357 0.98058665
7.5620313 -11.591337 0.09585724 0.94614351
4.0427732 -8.3184614 0.064056925 0.96367979
3.7858593 -8.3150434 0.063278124 0.96411353
3.8028514 -16.524546 0.11743934 0.9344216
3.5752733 -16.480547 0.11679962 0.93476772
3.6144433 -21.928057 0.15392272 0.91493899
3.3271191 -21.896191 0.15339462 0.91521871
3.1485546 -22.63246 0.15826157 0.91264904
0.10067382 -4.005127 0.027749175 0.98410177
0.049423829 -3.9336717 0.027246932 0.98438686
-1.953125e-05 -3.9226658 0.027168235 0.98443145
-3.4364257 -22.615381 0.15843558 0.91255939
-3.5957129 -21.814243 0.15312217 0.91536123
-3.8824511 -21.840023 0.15363754 0.91509092
-1.4031543 -3.9756248 0.029200325 0.98327708
-1.5531836 -3.9228516 0.029222107 0.98326463
-3.3713574 -8.2119875 0.061482582 0.96511382
-1.7008691 -3.9991894 0.030098381 0.98276639
-3.6215429 -8.226655 0.062254827 0.96468377
-3.7449024 -8.2250147 0.062593952 0.96449506
-2.9025195 -3.9949412 0.034200363 0.98044121
-2.9221094 -3.9174316 0.033849295 0.98064047
-2.973701 -3.8837891 0.033878591 0.98062372
-1.0457324 -0.91032225 0.0096025085 0.9944694
-1.0456445 -0.88739258 0.0094987489 0.99452913
-1.0455859 -0.86497068 0.0093986513 0.99458659
-1.0455469 -0.84304684 0.0093022538 0.9946419
-1.0455273 -0.80050778 0.0091200257 0.99474657
-1.0455176 -0.77985352 0.009033775 0.99479616
-1.0454687 -0.75958008 0.008950348 0.99484414
-1.1187109 -0.70995116 0.0091768261 0.99471402
-1.3720019 -0.70994139 0.010699196 0.99383968
-1.460791 -0.70994139 0.011249046 0.99352425
-1.5087402 -0.70995116 0.011548538 0.99335229
-1.6127441 -0.70995116 0.01220417 0.99297625
-1.7690625 -0.67482418 0.013113708 0.99245483
-11.890351 -4.0292773 0.086951867 0.9510209
-17.555107 -4.0400195 0.12476528 0.93047726
-17.576122 -3.812959 0.12456184 0.93058527
-1.7698926 0.67514646 0.0078718187 0.99245143
-1.7698828 0.72659177 0.0079508973 0.99237627
-1.6692871 0.70995116 0.0075382614 0.99277025
-1.6127245 0.70994139 0.0073223496 0.99297643
-1.5592871 0.70996094 0.0071196747 0.99317014
-1.3719727 0.70995116 0.0064195632 0.99383986
-1.2913867 0.70995116 0.006123886 0.99412262
-1.2538378 0.70995116 0.0059877774 0.99425298
-1.1834277 0.70995116 0.0057348632 0.99449497
-1.1504296 0.70995116 0.0056178281 0.99460709
-1.0882324 0.70995116 0.0053996276 0.99481606
-1.0589257 0.70995116 0.0052979277 0.99491334
-1.0447558 0.71963865 0.0052717589 0.99493831
-1.044746 0.73917967 0.0053184126 0.99489385
-1.0448047 0.82098633 0.0055218125 0.99469894
-1.0448047 0.84245116 0.0055774688 0.99464577
-1.0448534 0.93289059 0.0058207703 0.99441278
-15.654131 14.334316 0.088204302 0.91860139
-13.750029 15.400166 0.085792117 0.92073601
-12.831923 15.914111 0.084952578 0.92148131
-12.605 16.041132 0.084776804 0.92163593
-12.218476 16.3804 0.084920689 0.92150909
-12.177675 16.761122 0.0860992 0.92046869
-12.194053 17.702715 0.089327201 0.91760796
-12.15251 18.125792 0.090684511 0.91641009
-10.56165 16.189178 0.080316961 0.92559403
-10.012295 17.682255 0.084441796 0.92193437
-10.007031 18.202705 0.08631973 0.92026919
-10.001533 18.746943 0.088297382 0.91851884
-9.995801 19.316845 0.090382613 0.91667688
-9.7315912 19.399727 0.090207711 0.91684598
-10.509678 22.334198 0.10257431 0.90598327
-9.2060452 20.21953 0.092323795 0.91496682
-9.9626465 22.631161 0.10275516 0.90582532
-4.4503512 12.609306 0.055565909 0.9479183
8.1508198 22.201151 0.098280601 0.90973568
4.2847462 10.822089 0.04837162 0.95450902
8.0341501 13.781884 0.066292264 0.93818206
8.0145111 12.284853 0.060953446 0.94301558
8.1966791 9.1803904 0.051139869 0.95196319
9.3087301 8.3112888 0.051858138 0.95130825
1.2768359 0.95241207 0.0066196439 0.99364853
1.2768164 0.92766601 0.0065585705 0.99370688
1.2768066 0.9033789 0.0064996337 0.99376321
1.2767968 0.8560254 0.0063881683 0.99387002
1.2767773 0.81027341 0.0062841796 0.99396944
1.2767481 0.74428707 0.0061413571 0.99410599
1.2913867 0.70995116 0.006124191 0.99412262
1.3307323 0.70995116 0.0062680054 0.99398506
1.460791 0.70994139 0.0067493818 0.99352431
1.7292968 0.70994139 0.0077684782 0.99255043
1.7931347 0.70995116 0.0080143735 0.99231535
1.861123 0.70995116 0.0082775494 0.99206382
1.9337305 0.70995116 0.0085605616 0.99179405
1.9831543 0.6999414 0.0087394333 0.99162298
1.9831543 0.67203122 0.0087015536 0.99165922
1.9831543 -0.672041 0.0087015918 0.99165916
1.9831347 -0.6999414 0.0087394714 0.9916231
1.9337401 -0.70995116 0.0085601425 0.99179399
1.7931055 -0.70996094 0.0080142207 0.99231547
1.5087206 -0.70994139 0.0069290157 0.99335247
1.4607617 -0.70996094 0.0067495345 0.99352437
1.4152637 -0.70995116 0.0065798187 0.99368656
1.3719629 -0.70994139 0.0064196014 0.99383992
1.3307226 -0.70995116 0.0062676999 0.99398506
1.2767383 -0.72294921 0.0060971831 0.99414825
1.2767578 -0.76593751 0.0061872099 0.99406213
1.2767675 -0.81027341 0.0062841414 0.9939695
1.2767773 -0.83297849 0.0063350676 0.99392062
1.2768261 -0.90336913 0.0064996337 0.99376315
1.2768164 -0.95243162 0.0066194534 0.99364853
9.5489454 -7.89957 0.051499367 0.95163637
4.4168749 -4.0445018 0.024886969 0.97632891
7.5958395 -7.8877635 0.045491446 0.95714307
7.6082225 -8.5213079 0.047471426 0.95533365
7.5976367 -8.7277441 0.048086204 0.95476884
7.5597849 -11.587895 0.057487752 0.9461599
4.2969337 -8.3038425 0.03885315 0.96329147
4.1646094 -8.3020849 0.038598172 0.96352899
4.0428123 -8.3184519 0.038434066 0.96368033
3.4217968 -8.3349752 0.037443273 0.96460134
1.4526563 -3.9567676 0.017515641 0.9832812
1.4150878 -4.0094433 0.017669333 0.9831363
1.2496094 -4.0170116 0.017482147 0.98331308
3.7793748 -15.527158 0.06640926 0.93807763
3.8029687 -16.525156 0.070463672 0.93442023
3.3271093 -21.896181 0.092034832 0.91521996
0.049423829 -3.9336717 0.016348228 0.9843871
-0.049501952 -3.9390819 0.016370658 0.98436582
-0.25147459 -3.9969921 0.016642876 0.98410791
-3.5957227 -21.814234 0.091875456 0.91536248
-4.1599021 -21.806732 0.092252538 0.91502798
-1.4888085 -3.9028904 0.017359009 0.98342985
-1.5531836 -3.9228516 0.017532997 0.98326492
-3.3713574 -8.2119875 0.036889609 0.96511436
-3.4994726 -8.2282667 0.03715767 0.96486568
-3.8696289 -8.2233543 0.037767485 0.96429926
-3.9870994 -8.2038031 0.037905045 0.96417183
-2.8822167 -3.9670019 0.020376701 0.98057693
-2.9221094 -3.9174316 0.020309104 0.98064077
-1.0448437 -0.90955079 0.005756645 0.99447417
-1.0448145 -0.86433589 0.0056349179 0.99459064
-1.0448145 -0.84244138 0.0055773542 0.99464577
-1.044746 -0.73917967 0.0053184507 0.99489385
-1.0589062 -0.70994139 0.0052977372 0.99491346
-1.1187109 -0.70995116 0.0055059432 0.99471408
-1.2914063 -0.70994139 0.0061239623 0.99412256
-1.3307421 -0.70995116 0.0062678908 0.993985
-1.3720019 -0.70994139 0.0064193341 0.9938398
-1.4152637 -0.70993161 0.0065798569 0.99368662
-1.5087402 -0.70995116 0.0069289398 0.99335241
-1.6127441 -0.70995116 0.0073225782 0.99297637
-1.7699023 -0.64979494 0.0078348536 0.99248666
-11.890351 -4.0292773 0.052172508 0.95102167
-1.7707422 0.65009767 0.0026129531 0.99248314
-1.7707324 0.67546874 0.0026253127 0.99244791
-1.7707324 0.70107418 0.0026381302 0.99241108
-1.6692871 0.70995116 0.0025126266 0.99277031
-1.5087304 0.70994139 0.0023096085 0.99335253
-1.4608105 0.70995116 0.0022498702 0.99352431
-1.3719727 0.70995116 0.0021398545 0.99383992
-1.3307519 0.70993161 0.0020891188 0.99398506
-1.2913867 0.70995116 0.0020413208 0.99412262
-1.2538378 0.70995116 0.0019960022 0.99425304
-1.1504102 0.70995116 0.0018726349 0.99460721
-1.0882324 0.70995116 0.001800003 0.99481612
-1.0440527 0.73867184 0.0017716216 0.99489731
-1.0440527 0.79940426 0.0018215179 0.99475402
-1.0440918 0.82041013 0.0018394851 0.99470264
-1.0440625 0.84184569 0.0018577956 0.99464965
-1.044082 0.86371094 0.001877098 0.99459451
-1.0441016 0.93219727 0.0019388199 0.99441689
-8.6206541 8.5129786 0.016781501 0.95269334
-8.5387106 8.6466694 0.016831817 0.95255387
-13.750029 15.400166 0.028597679 0.92073661
-13.51876 15.529638 0.028519133 0.92094219
-13.288711 15.658408 0.028447608 0.92113489
-12.605 16.041122 0.028258972 0.92163652
-12.202471 17.246943 0.02926464 0.91896361
-12.194062 17.702715 0.029775962 0.91760856
-12.15251 18.125792 0.030228691 0.91641068
-10.295439 17.660927 0.028315658 0.92148304
-10.282089 18.703056 0.029562645 0.91817039
-10.27499 19.259512 0.030235557 0.9163875
-9.7316113 19.399715 0.030065613 0.91684657
-4.4503512 12.609316 0.018522223 0.94791865
8.1554976 22.213877 0.032778013 0.90968698
8.1439447 21.349237 0.031645164 0.91265321
4.2826076 10.81665 0.016125184 0.95453167
8.0738277 16.09498 0.024938926 0.93050653
8.0532026 14.648749 0.023152847 0.93532062
8.0341501 13.781884 0.022098197 0.93818253
8.6942577 8.5857124 0.016926497 0.95229906
9.9063473 8.1952639 0.017806739 0.94987261
10.61582 8.1281738 0.018520888 0.94792402
1.275957 0.87891603 0.002146225 0.99382168
1.275957 0.85546875 0.0021279145 0.99387407
1.2759277 0.83242184 0.0021103285 0.99392468
1.2759374 0.80974609 0.0020933151 0.99397343
1.2759277 0.74380857 0.0020458603 0.99410981
1.2759179 0.72248048 0.0020312117 0.99415207
1.2913867 0.70995116 0.0020413972 0.99412262
1.3307323 0.70995116 0.0020892334 0.99398506
1.3719531 0.70994139 0.0021398924 0.99384004
1.4152539 0.70994139 0.0021932982 0.99368668
1.460791 0.70994139 0.0022497938 0.99352437
1.5087109 0.70995116 0.002309761 0.99335259
1.6126952 0.70994139 0.002440834 0.99297661
1.6692773 0.70994139 0.0025128555 0.99277037
1.7292968 0.70994139 0.0025896453 0.99255049
1.9337305 0.70995116 0.0028536986 0.99179411
1.9337401 -0.70995116 0.0028534317 0.99179405
1.8610938 -0.70995116 0.0027595137 0.992064
1.7931055 -0.70996094 0.002671585 0.99231553
1.6692773 -0.70995116 0.0025126266 0.99277031
1.6127148 -0.70995116 0.0024409867 0.99297649
1.5087206 -0.70994139 0.0023096465 0.99335253
1.4607617 -0.70996094 0.002250023 0.99352443
1.4152637 -0.70995116 0.0021933746 0.99368662
1.2913769 -0.70995116 0.002041359 0.99412268
1.2759277 -0.74380857 0.0020459746 0.99410981
1.2759179 -0.76545894 0.0020612716 0.994066
1.2759374 -0.83242184 0.0021104049 0.99392468
1.2759374 -0.85546875 0.0021279145 0.99387413
1.2759374 -0.87890625 0.002146225 0.99382174
1.2759374 -0.92705077 0.0021848679 0.99371123
1.2759472 -0.95176756 0.0022051239 0.99365294
10.350283 -7.9248633 0.018056564 0.94919294
4.4685545 -3.9897559 0.008297882 0.97632277
4.4168749 -4.0445018 0.0082957074 0.97632909
8.4018555 -7.889873 0.015964355 0.95494384
7.582324 -9.4036379 0.016730994 0.95282978
3.0390625 -3.9691796 0.0069242856 0.98020244
2.9629004 -3.9721484 0.0068643186 0.98037326
3.9135351 -8.3167429 0.012732544 0.96390158
3.527246 -8.2936182 0.012482948 0.96459192
3.4217968 -8.3349752 0.012482834 0.96460158
1.5727539 -3.9723632 0.0059182737 0.98305565
1.5039648 -3.9426465 0.0058451081 0.9832626
1.4526563 -3.9567676 0.0058386228 0.98328131
1.4150878 -4.0094433 0.0058898162 0.98313648
3.8031054 -16.525791 0.023490753 0.93441832
3.5753124 -16.480825 0.023359947 0.93476814
3.89375 -21.903711 0.030817069 0.91485608
3.6127539 -21.917973 0.030769348 0.91497827
3.1485741 -22.632446 0.031651113 0.912651
-1.953125e-05 -3.9226658 0.0054338453 0.9844318
-0.25163084 -3.9995701 0.0055512618 0.98409784
-3.4364257 -22.615381 0.031695783 0.9125613
-3.8803906 -21.828438 0.030709457 0.91513586
-4.1599021 -21.806732 0.030751342 0.91502863
-1.3531543 -3.9930859 0.0058402251 0.98327684
-1.4031543 -3.9756248 0.005839691 0.9832775
-1.4391992 -3.9199803 0.0057842634 0.98343539
-1.5531836 -3.9228516 0.005844078 0.98326504
-3.3713574 -8.2119875 0.012296066 0.96511459
-3.4994726 -8.2282763 0.012385673 0.96486592
-3.8696289 -8.2233543 0.012588806 0.9642995
-2.973701 -3.8837891 0.0067755887 0.9806242
-1.044082 -0.90887696 0.0019174194 0.99447829
-1.0440625 -0.88605469 0.0018969345 0.99453753
-1.0440527 -0.84183592 0.0018577576 0.99464971
-1.0440723 -0.82041013 0.0018393325 0.9947027
-1.0440527 -0.71915036 0.0017562866 0.99494177
-1.0589062 -0.70994139 0.001766014 0.99491346
-1.0882422 -0.70995116 0.0017998504 0.99481606
-1.1187109 -0.70995116 0.0018352889 0.99471414
-1.2178808 -0.70996094 0.0019526291 0.99437702
-1.2538183 -0.70994139 0.0019960022 0.99425316
-1.2914063 -0.70994139 0.0020413972 0.99412262
-1.5087402 -0.70995116 0.0023097228 0.99335247
-1.5593066 -0.70994139 0.0023731994 0.99317014
-1.6127441 -0.70995116 0.002440834 0.99297643
-1.6693066 -0.70995116 0.002512703 0.99277025
-1.770752 -0.67546874 0.0026254654 0.99244779
-1.770752 -0.65008789 0.0026129913 0.99248314
-1.771582 0.65041012 -0.0026138686 0.99247962
-1.771582 0.67579103 -0.0026264573 0.99244428
-1.7293164 0.70995116 -0.0025893019 0.99255037
-1.4608105 0.70995116 -0.0022497938 0.99352431
-1.4152734 0.70994139 -0.0021931839 0.99368656
-1.2538378 0.70995116 -0.0019956969 0.99425304
-1.2178613 0.70995116 -0.0019525146 0.99437714
-1.0589257 0.70995116 -0.0017658233 0.9949134
-1.0433692 0.71867186 -0.0017549514 0.99494511
-1.0433398 0.79884762 -0.0018201446 0.99475759
-1.0433301 0.84124023 -0.001856346 0.9946534
-1.0433398 0.90821284 -0.0019160461 0.99448222
-1.0433203 0.93150389 -0.0019372177 0.99442101
-15.654131 14.334316 -0.029401129 0.91860199
-15.410009 14.470957 -0.029280204 0.91891843
-8.6206732 8.5130177 -0.016780814 0.95269316
-8.5387592 8.6467285 -0.016853485 0.95255357
-14.216514 15.139052 -0.028768081 0.92028564
-13.982607 15.26999 -0.028679542 0.92051774
-13.288711 15.658408 -0.028449135 0.92113489
-12.218476 16.3804 -0.028307075 0.92150968
-12.15251 18.125792 -0.030226631 0.91641068
-12.134151 19.120312 -0.031364057 0.91339892
-10.613809 17.198593 -0.02800598 0.92234117
-12.113652 21.39333 -0.034054603 0.90634114
-10.480391 20.253309 -0.031588554 0.91281945
-10.509667 22.334208 -0.034203298 0.90598398
-9.2060642 20.21953 -0.030775871 0.91496742
-4.4503512 12.609316 -0.018522987 0.94791865
8.1439352 21.349247 -0.031645127 0.91265315
4.2804589 10.81122 -0.016095314 0.95455396
4.4331446 10.798408 -0.016168747 0.95438135
8.1008005 17.79208 -0.027078513 0.92478138
8.0145111 12.284853 -0.020316619 0.94301599
8.008213 11.31876 -0.019205932 0.9460488
8.0167284 10.747421 -0.018572731 0.94778073
7.9305468 10.357734 -0.018068809 0.94915736
7.92207 10.081621 -0.017760735 0.95000577
8.6942577 8.5857124 -0.016925393 0.95229906
9.9063473 8.1952639 -0.017810553 0.94987261
1.2750781 0.95111328 -0.002203369 0.99365723
1.2750781 0.92641598 -0.0021831894 0.99371547
1.2751074 0.87832028 -0.002144699 0.99382579
1.2750976 0.78691405 -0.002075386 0.99402446
1.2751172 0.76496094 -0.0020596313 0.99406976
1.2751269 0.74333006 -0.0020443343 0.9941135
1.3307323 0.70995116 -0.0020890809 0.99398506
1.3719531 0.70994139 -0.0021398163 0.99384004
1.5087109 0.70995116 -0.0023095321 0.99335259
1.5592773 0.70996094 -0.0023730088 0.9931702
1.7931347 0.70995116 -0.0026712799 0.99231541
1.9337305 0.70995116 -0.0028533936 0.99179411
1.9872851 0.67343748 -0.0029063416 0.99164194
1.9873047 -0.70139647 -0.0029191589 0.99160564
1.7931249 -0.70995116 -0.0026712799 0.99231547
1.6692773 -0.70995116 -0.0025124741 0.99277031
1.5592773 -0.70995116 -0.0023733138 0.99317026
1.5087206 -0.70994139 -0.002309494 0.99335253
1.4607617 -0.70996094 -0.002249565 0.99352443
1.4152637 -0.70995116 -0.0021929932 0.99368662
1.2751172 -0.74333984 -0.0020442961 0.9941135
1.2751074 -0.76496094 -0.002059822 0.99406981
1.2751172 -0.80920899 -0.0020916748 0.99397737
1.2750976 -0.87833005 -0.0021446228 0.99382579
1.2750976 -0.90214843 -0.0021634293 0.99377161
1.2750878 -0.92641598 -0.002183113 0.99371541
1.2750878 -0.951123 -0.002203369 0.99365717
4.4685545 -3.9897559 -0.0082977293 0.97632277
4.2112403 -4.0554099 -0.0080988314 0.97688556
7.582324 -9.4036379 -0.016719017 0.95282978
3.0390625 -3.9691796 -0.0069245528 0.98020244
2.9629004 -3.9721484 -0.0068643568 0.98037326
2.7068944 -4.0374513 -0.0067331693 0.98074418
4.1646094 -8.3020849 -0.012865944 0.96352929
4.0428123 -8.3184519 -0.012811432 0.96368057
3.7858789 -8.3150339 -0.012655258 0.96411431
3.6596875 -8.3133736 -0.01258152 0.96431905
1.652373 -4.024951 -0.0060269162 0.98274684
1.4526563 -3.9567773 -0.0058386992 0.98328125
3.5753319 -16.480869 -0.02336113 0.93476796
3.3271093 -21.896181 -0.03067646 0.91522062
3.1485741 -22.632446 -0.031651497 0.912651
0.15103516 -4.0047655 -0.0055510327 0.98409736
-1.953125e-05 -3.9226658 -0.0054335403 0.9844318
-0.049501952 -3.9390819 -0.0054569244 0.98436594
-0.30224609 -4.0008788 -0.0055576325 0.98407894
-3.4364257 -22.615381 -0.031675603 0.9125613
-4.1599021 -21.806732 -0.030751914 0.91502863
-1.3501562 -3.9842479 -0.005827446 0.98331356
-1.4031738 -3.9756346 -0.005839386 0.98327744
-1.4888085 -3.9028904 -0.0057862853 0.98342997
-1.756914 -3.9910057 -0.0060402295 0.98270881
-3.7449024 -8.2250147 -0.012518425 0.96449584
-3.8696289 -8.2233543 -0.012589683 0.9642995
-2.8828614 -3.9679003 -0.006793594 0.98057276
-2.9221094 -3.9174316 -0.0067698667 0.98064089
-2.973701 -3.8837891 -0.0067752074 0.9806242
-3.2748144 -3.9585545 -0.00711647 0.97965944
-1.0433301 -0.93150389 -0.0019372177 0.99442101
-1.0433007 -0.90821284 -0.0019157409 0.99448234
-1.0433398 -0.88541991 -0.0018952942 0.99454135
-1.0433203 -0.86310548 -0.0018753433 0.99459839
-1.0433301 -0.84126949 -0.0018564224 0.99465334
-1.0433496 -0.81984371 -0.0018377685 0.99470639
-1.0433398 -0.77824217 -0.0018027496 0.99480706
-1.0433301 -0.73818356 -0.0017702102 0.99490076
-1.1504102 -0.70995116 -0.0018721389 0.99460721
-1.2178808 -0.70996094 -0.0019526291 0.99437702
-1.3307421 -0.70995116 -0.0020890427 0.99398506
-1.3720019 -0.70994139 -0.0021397017 0.99383986
-1.460791 -0.70994139 -0.002249565 0.99352437
-1.5593066 -0.70994139 -0.0023731231 0.99317014
-11.890351 -4.0292773 -0.017390175 0.95102203
-17.549423 -3.8071582 -0.024867591 0.9306885
-1.7724316 0.70175779 -0.0079215234 0.99240375
-1.6127245 0.70994139 -0.0073223496 0.99297643
-1.5592871 0.70996094 -0.0071195983 0.99317014
-1.4608105 0.70995116 -0.0067492295 0.99352425
-1.4152734 0.70994139 -0.0065795514 0.99368656
-1.2913867 0.70995116 -0.0061238096 0.99412262
-1.2538378 0.70995116 -0.0059874724 0.99425298
-1.1504102 0.70995116 -0.0056175231 0.99460721
-1.0589257 0.70995116 -0.0052976226 0.99491334
-1.0426464 0.75749999 -0.0053554536 0.99485815
-1.0426368 0.77770507 -0.0054050446 0.99481052
-1.0426172 0.79828125 -0.005456619 0.99476123
-1.0425977 0.8406738 -0.0055652997 0.99465704
-1.0425586 0.90755856 -0.0057437895 0.99448627
-1.042539 0.95461911 -0.0058739088 0.99436164
-15.410039 14.470957 -0.087845989 0.91891772
-8.6206932 8.5130272 -0.050346527 0.95269275
-8.5388088 8.6467772 -0.050484616 0.95255297
-8.527998 8.8557034 -0.051088981 0.95201194
-14.216514 15.139043 -0.086301573 0.92028511
-13.750049 15.400166 -0.08579281 0.92073596
-13.059785 15.786552 -0.085142709 0.92131418
-12.831944 15.914091 -0.084950902 0.92148131
-12.379013 16.167616 -0.084617458 0.92177814
-12.218476 16.38039 -0.084920004 0.92150915
-12.177705 16.761122 -0.086094894 0.92046863
-12.152519 18.125761 -0.09068504 0.91641015
-10.561669 16.189178 -0.08027225 0.92559397
-10.554922 17.594091 -0.08525978 0.92120767
-10.549024 18.09585 -0.087044522 0.91962862
-10.544473 18.622099 -0.088928796 0.91795993
-10.541992 19.175703 -0.090932809 0.91619092
-9.2060642 20.219521 -0.09232334 0.91496682
8.1439352 21.349228 -0.094978906 0.91265261
4.4317675 10.795058 -0.048493117 0.95439482
4.5980272 10.811367 -0.048822515 0.95409268
8.0341501 13.781884 -0.066293523 0.93818206
8.6942577 8.5857124 -0.050776288 0.9522987
9.5007715 8.2705564 -0.052343979 0.95086265
9.9063473 8.1952534 -0.05343128 0.94987231
1.2742089 0.95045894 -0.0066057965 0.99366152
1.2742285 0.92577147 -0.0065450668 0.99371964
1.274248 0.85432613 -0.0063750455 0.99388218
1.2742578 0.83131832 -0.0063225171 0.9939326
1.2742676 0.80867183 -0.0062714387 0.9939813
1.2742773 0.78641599 -0.0062225722 0.99402821
1.2913867 0.70995116 -0.006123886 0.99412262
1.3307323 0.70995116 -0.0062676999 0.99398506
1.4152539 0.70994139 -0.0065797423 0.99368662
1.460791 0.70994139 -0.0067493818 0.99352431
1.5087109 0.70995116 -0.0069287489 0.99335253
1.6126952 0.70994139 -0.0073224255 0.99297655
1.6692773 0.70994139 -0.0075379559 0.99277031
1.7292968 0.70994139 -0.0077680205 0.99255043
1.7931347 0.70995116 -0.0080143735 0.99231535
1.861123 0.70995116 -0.0082773967 0.99206382
1.9893457 0.67414063 -0.0087289046 0.99163324
1.9893652 -0.70213866 -0.0087667843 0.99159688
1.9337401 -0.70995116 -0.0085600661 0.99179399
1.8610938 -0.70995116 -0.0082773203 0.99206394
1.7293066 -0.70994139 -0.0077682491 0.99255037
1.6127148 -0.70995116 -0.0073221968 0.99297643
1.5592773 -0.70995116 -0.0071194838 0.9931702
1.5087206 -0.70994139 -0.0069290921 0.99335247
1.4152637 -0.70995116 -0.0065795896 0.99368656
1.3719629 -0.70994139 -0.0064193723 0.99383992
1.2743067 -0.7215625 -0.0060855481 0.9941594
1.2743067 -0.76446289 -0.0061750794 0.99407351
1.2742578 -0.80869138 -0.0062715528 0.9939813
1.2742578 -0.8543359 -0.0063753128 0.99388212
1.2742382 -0.87773436 -0.0064296341 0.99382991
1.2742382 -0.90154296 -0.0064864731 0.99377573
1.2742187 -0.95045894 -0.006606102 0.99366152
9.548769 -7.8994236 -0.051498871 0.95163721
4.4685545 -3.9897559 -0.024893416 0.97632259
4.4168749 -4.0445018 -0.024887199 0.97632891
8.1903124 -7.8872361 -0.047250364 0.95553619
7.5957031 -7.8876266 -0.045511056 0.95714378
7.594707 -8.9490328 -0.048775557 0.95413536
7.582334 -9.4036226 -0.050201796 0.95282948
3.1781836 -4.0445895 -0.021375427 0.97963452
3.0390625 -3.9691796 -0.020773506 0.98020232
2.9629004 -3.9721484 -0.020592613 0.98037308
4.2969337 -8.3038425 -0.038853303 0.96329147
4.1646094 -8.3020849 -0.038597029 0.96352899
4.0428123 -8.3184519 -0.03843483 0.96368033
