# .PCD v0.7 - Point Cloud Data file format
VERSION 0.7
FIELDS x y z intensity
SIZE 4 4 4 4
TYPE F F F F
COUNT 1 1 1 1
WIDTH 1094
HEIGHT 1
VIEWPOINT 0 0 0 1 0 0 0
POINTS 1094
DATA ascii
-1.1026171 0.75951171 0.09474197 0.99464542
-1.1032031 0.78053707 0.095628008 0.99459553
-1.1044629 0.82384765 0.097500838 0.99448991
-1.1050977 0.84615231 0.098490141 0.9944343
-1.1058105 0.86892575 0.099516675 0.99437636
-1.1072656 0.91599607 0.10168709 0.99425405
-1.1080273 0.94034177 0.10283478 0.99418938
-15.944795 14.236269 1.5125656 0.91785538
-15.697959 14.374453 1.5061685 0.91818821
-15.453144 14.511484 1.5000589 0.91850621
-8.680068 8.57166 0.86322987 0.952259
-14.492373 15.049287 1.4784182 0.91963333
-13.325908 15.702246 1.4573202 0.92073351
-12.640283 16.086044 1.447662 0.92123753
-10.510342 16.110498 1.3612863 0.92576432
-9.6792479 16.134434 1.3313931 0.92732739
-9.377861 16.086924 1.3176559 0.92805028
-10.063212 19.4471 1.5494391 0.91593933
-9.7772169 19.490664 1.5430181 0.91627377
-9.8011036 20.166611 1.5866369 0.91401076
4.3099804 10.885791 0.82847786 0.95413613
1.3485644 0.92893553 0.11587646 0.99345493
1.3471973 0.87890625 0.11382411 0.99357051
1.3465527 0.85455078 0.11285312 0.99362516
1.3459179 0.830625 0.11191715 0.99367785
1.3447363 0.78392577 0.11014507 0.99377763
1.3441992 0.761123 0.10930721 0.99382478
1.3436524 0.73868161 0.10849998 0.99387026
1.3431348 0.71656251 0.10772213 0.99391407
1.4152734 0.70995116 0.11204135 0.99367082
1.460791 0.70995116 0.11492954 0.99350822
1.5592773 0.70994139 0.12123668 0.99315327
1.6692773 0.70995116 0.12836204 0.99275231
1.8924804 0.69479489 0.14265709 0.99194849
1.8930273 0.66812497 0.14205329 0.99198234
1.8930469 -0.66812497 0.14205292 0.99198228
1.8924901 -0.69480467 0.14265679 0.99194843
1.7293164 -0.70995116 0.13228081 0.99253184
1.6693066 -0.70994139 0.12836173 0.99275225
1.6127245 -0.70994139 0.12468754 0.99295902
1.4152637 -0.70994139 0.11204117 0.99367088
1.3719629 -0.70995116 0.10931145 0.9938246
1.3436524 -0.73867184 0.10849956 0.99387032
1.3447363 -0.783916 0.11014511 0.99377769
1.3453223 -0.80708003 0.11101482 0.9937287
1.3459179 -0.83061522 0.11191696 0.99367791
1.347207 -0.87889647 0.11382427 0.99357051
1.3485839 -0.92892575 0.1158762 0.99345493
1.3492968 -0.95464844 0.1169601 0.99339396
4.1572361 -8.2873535 0.65607846 0.96350348
4.1194434 -9.0476217 0.70346463 0.96091956
4.0030174 -9.0932665 0.70304626 0.96094233
3.2970214 -8.3273535 0.633766 0.96472251
3.3138378 -9.0261526 0.68039274 0.96217668
3.7735643 -15.503276 1.1290734 0.93802071
3.4126172 -22.459019 1.6074884 0.91293144
-3.3056347 -9.003828 0.67871201 0.96226847
-3.4124022 -8.9455519 0.6774987 0.96233469
-3.3697557 -8.2081594 0.62786794 0.96504503
-3.827373 -8.6941843 0.67219692 0.96262395
-3.9175291 -8.6041107 0.66898704 0.96279913
-3.9838769 -8.1971874 0.644925 0.96411258
-1.1080176 -0.9403125 0.10283478 0.9941895
-1.1072656 -0.91599607 0.10168727 0.99425405
-1.1064941 -0.89219725 0.10058174 0.99431646
-1.1014941 -0.71860349 0.093063928 0.99474001
-1.1187109 -0.70995116 0.09375675 0.99470097
-1.1834277 -0.70995116 0.097654611 0.99448127
-1.2178515 -0.70995116 0.099752046 0.99436313
-1.2913867 -0.70994139 0.10428017 0.99410802
-1.5087402 -0.70994139 0.11798985 0.9933359
-1.685498 -0.6919629 0.1289297 0.99272037
-1.6860449 -0.66754884 0.12831967 0.9927547
-16.110508 4.7905078 1.1425573 0.93483448
-16.107588 5.0107908 1.1467249 0.9346047
-1.6903027 0.66923827 0.12358315 0.99273783
-1.6892285 0.71842772 0.12478516 0.99266744
-1.6127441 0.70996094 0.11978301 0.99296021
-1.4152539 0.70995116 0.10763431 0.99367213
-1.3719629 0.70995116 0.10501167 0.99382579
-1.2914063 0.70994139 0.10017814 0.99410909
-1.2538086 0.70994139 0.097947158 0.99423993
-1.2178417 0.70995116 0.095828094 0.99436426
-1.1834277 0.70995116 0.093813248 0.99448234
-1.1504004 0.70994139 0.091895632 0.99459487
-1.1187109 0.70995116 0.090068735 0.99470198
-1.0989063 0.71691406 0.089193039 0.99475336
-1.0994335 0.73711914 0.089980617 0.99470717
-1.0999707 0.75768554 0.090797387 0.9946593
-1.1017284 0.82180661 0.093434826 0.99450457
-1.1023535 0.84405273 0.094380379 0.99444914
-1.1037207 0.88995117 0.096379697 0.99433178
-1.1044043 0.9136523 0.097436562 0.99426991
-1.1051562 0.93790036 0.098533131 0.99420547
-16.193798 14.096885 1.4594964 0.91752243
-15.944785 14.236279 1.4530612 0.91787052
-15.697959 14.374453 1.4469159 0.91820329
-15.453174 14.511464 1.4410473 0.91852117
-8.8421192 8.5149021 0.83446312 0.9519763
-8.680234 8.5718164 0.82928658 0.95226705
-14.256318 15.181425 1.4157101 0.91989487
-14.021748 15.312734 1.4114138 0.92012805
-13.788535 15.443271 1.4073598 0.92034793
-13.096367 15.830751 1.3966641 0.92092872
-12.413662 16.21291 1.3880866 0.92139482
-14.058437 19.349775 1.6258804 0.90856272
-10.243975 16.141953 1.2996157 0.92621499
-9.9593458 16.138153 1.289132 0.92678785
-9.6792479 16.134434 1.2790188 0.92734087
-9.3778811 16.086924 1.2657967 0.92806357
-10.671123 19.410683 1.5057776 0.91502237
-10.063212 19.4471 1.4884888 0.91595483
-9.8010836 20.16662 1.5242214 0.91402656
-9.4747658 20.134932 1.5127084 0.91464746
4.3099217 10.885634 0.7958768 0.95414537
1.345332 0.92669922 0.11105175 0.99347186
1.3446581 0.90154296 0.11005268 0.99353039
1.3440527 0.87683594 0.10908958 0.99358672
1.3434374 0.85256833 0.10816112 0.99364108
1.3428124 0.82869136 0.10726578 0.99369365
1.3422363 0.80523437 0.10640305 0.99374419
1.3406249 0.73703122 0.10399799 0.99388516
1.3401366 0.71497071 0.10325436 0.99392879
1.4152734 0.70995116 0.10763378 0.99367207
1.460791 0.70995116 0.11040828 0.99350947
1.5087206 0.70994139 0.11334804 0.99333727
1.6127245 0.70995116 0.11978279 0.99296033
1.6692773 0.70995116 0.12331253 0.99275374
1.7293261 0.70994139 0.12707733 0.99253321
1.7931347 0.70995116 0.13110065 0.99229777
1.8976855 0.66977537 0.13680103 0.99196422
1.8976855 -0.66976559 0.13680103 0.99196422
1.8971679 -0.69651365 0.13738388 0.99193013
1.7293164 -0.70995116 0.12707672 0.99253327
1.6127245 -0.70994139 0.1197826 0.99296033
1.5087109 -0.70995116 0.11334789 0.99333727
1.460791 -0.70995116 0.11040821 0.99350947
1.4152637 -0.70994139 0.1076339 0.99367207
1.3719629 -0.70995116 0.10501137 0.99382579
1.3422363 -0.80521482 0.10640319 0.99374425
1.3440429 -0.87683594 0.10908958 0.99358678
1.3453418 -0.92670894 0.11105186 0.9934718
1.3460351 -0.95235348 0.11208812 0.99341106
4.0324707 -8.2971869 0.62711251 0.96368968
3.9932323 -8.4860201 0.63754278 0.9630971
3.4047949 -8.2935009 0.60943931 0.96469474
-3.9890039 -22.439335 1.5493027 0.91267544
-3.6401756 -8.2690086 0.61417067 0.96442562
-4.0005174 -8.2314253 0.62214339 0.96397221
-4.1140137 -8.2012205 0.62371862 0.96388268
-1.1037011 -0.88993162 0.096379735 0.9943319
-1.1023828 -0.84404296 0.094380565 0.99444902
-1.1005273 -0.77864254 0.091644511 0.99460965
-1.0999805 -0.75768554 0.090797231 0.99465925
-1.0994238 -0.73711914 0.089980394 0.99470717
-1.0989159 -0.71691406 0.089192964 0.99475336
-1.1187109 -0.70995116 0.090068623 0.99470198
-1.1504102 -0.70995116 0.091895521 0.99459481
-1.1834277 -0.70995116 0.09381298 0.99448234
-1.2178515 -0.70995116 0.095827714 0.9943642
-1.2913867 -0.70994139 0.10017807 0.99410915
-1.3307421 -0.70994139 0.10252994 0.99397123
-1.5087402 -0.70994139 0.11334827 0.99333721
-1.5592871 -0.70994139 0.11646762 0.99315453
-1.6127245 -0.70995116 0.11978294 0.99296033
-1.6892382 -0.71841794 0.12478512 0.99266744
-1.6903125 -0.66923827 0.1235831 0.99273783
-16.110508 4.7905078 1.0957859 0.9348461
-16.104151 5.0097265 1.0995504 0.9346298
-1.6945899 0.67094725 0.11882431 0.99272084
-1.612705 0.70996094 0.11487983 0.99296165
-1.5593066 0.70994139 0.11170017 0.99315572
-1.4152539 0.70995116 0.10322796 0.99367326
-1.3307323 0.70995116 0.098333016 0.99397236
-1.1187109 0.70996094 0.086381838 0.99470294
-1.0963184 0.71524411 0.08534164 0.99476659
-1.096836 0.73537105 0.086093403 0.99472064
-1.0973535 0.75587887 0.086873055 0.99467295
-1.0978906 0.77677733 0.087681651 0.99462348
-1.098457 0.79807615 0.08852043 0.99457216
-1.0996289 0.84196287 0.090293005 0.9944638
-1.1009082 0.88769531 0.092200659 0.99434716
-1.1015918 0.91131836 0.093208961 0.99428552
-1.1022851 0.93546873 0.094255254 0.99422157
-16.193769 14.096894 1.3997488 0.91753709
-8.6803513 8.5719624 0.79535347 0.95227498
-14.256357 15.181425 1.3577576 0.91990894
-13.788535 15.443271 1.3497522 0.920362
-13.325908 15.702246 1.3426858 0.92076212
-13.096348 15.830761 1.339494 0.92094272
-12.867832 15.958681 1.3365277 0.92111063
-12.640273 16.086054 1.3337845 0.92126596
-10.243975 16.141953 1.2464162 0.92622811
-9.9593458 16.138153 1.236361 0.92680085
-9.6792479 16.134434 1.226662 0.9273538
-9.377861 16.086924 1.213981 0.92807639
-10.664385 18.833876 1.4110675 0.91689891
-10.671123 19.410683 1.4441437 0.91503739
-10.063193 19.4471 1.4275546 0.91596967
-9.7772264 19.490644 1.4216489 0.91630393
-9.8011036 20.166611 1.4618295 0.9140417
-9.4747658 20.134932 1.4507855 0.91466248
1.3391601 0.80337888 0.10181454 0.99375969
1.3386328 0.78036129 0.10102066 0.99380815
1.338125 0.75769532 0.10025539 0.99385488
1.3376465 0.73537105 0.099518396 0.99389988
1.337168 0.71337891 0.098808207 0.99394327
1.4152734 0.70995116 0.10322788 0.99367321
1.5087206 0.70994139 0.10870815 0.99333847
1.6127245 0.70995116 0.11487945 0.99296165
1.6692773 0.70995116 0.11826469 0.99275506
1.7293261 0.70994139 0.12187523 0.99253458
1.7931347 0.70995116 0.12573367 0.99229914
1.9018652 0.69824219 0.13208641 0.99191171
1.9023632 0.67141598 0.13152473 0.99194598
1.9018945 -0.69824219 0.13208649 0.99191159
1.6693066 -0.70994139 0.11826446 0.99275494
1.5592871 -0.70994139 0.11169967 0.99315578
1.4152637 -0.70994139 0.10322784 0.99367326
1.3719629 -0.70995116 0.10071274 0.99382693
1.3371582 -0.71336913 0.098808207 0.99394333
1.3376465 -0.73538083 0.099518277 0.99389988
1.3381348 -0.75769532 0.1002555 0.99385488
1.3386426 -0.78038085 0.10102054 0.99380809
1.3415136 -0.89941406 0.10529846 0.99354672
1.3421484 -0.92450196 0.10625228 0.99348849
4.0347557 -8.3018703 0.60178304 0.96367615
3.9192479 -8.3288136 0.60011715 0.9637748
3.7895994 -8.3232031 0.59623539 0.96400487
3.4047949 -8.2935104 0.58449167 0.96470112
3.4430957 -9.0260744 0.629821 0.96201622
3.4124706 -22.458017 1.4809695 0.91296649
-3.9888768 -22.438623 1.4858379 0.9126935
-3.307373 -9.008584 0.62565219 0.96226287
-3.3023143 -8.3406439 0.58484501 0.96468025
-3.9999902 -8.2303314 0.59659606 0.96398342
-1.1015918 -0.91130859 0.09320911 0.99428552
-1.0996387 -0.84194332 0.090293005 0.99446386
-1.098457 -0.79806638 0.088520356 0.99457222
-1.0979102 -0.77677733 0.087681651 0.99462342
-1.0968262 -0.73535156 0.086093366 0.9947207
-1.0963379 -0.71523434 0.08534164 0.99476659
-1.1187109 -0.70995116 0.086381644 0.99470294
-1.1504102 -0.70995116 0.088133693 0.99459583
-1.2913867 -0.70994139 0.096077271 0.99411023
-1.3719727 -0.70995116 0.10071304 0.99382693
-1.4152734 -0.70995116 0.10322796 0.99367321
-1.4608105 -0.70995116 0.10588905 0.9935106
-1.5087402 -0.70994139 0.10870838 0.99333841
-1.5592871 -0.70994139 0.11169994 0.99315578
-1.6127245 -0.70995116 0.11487976 0.99296165
-1.6983886 0.69726562 0.11458965 0.99266893
-1.6979003 0.72210938 0.11515839 0.99263263
-1.6127441 0.70996094 0.10997841 0.99296278
-1.5593066 0.70994139 0.10693447 0.99315691
-1.460791 0.70995116 0.10137103 0.9935118
-1.2914063 0.70994139 0.091978222 0.99411118
-1.2178417 0.70995116 0.087984234 0.99436629
-1.0942383 0.73365235 0.082225837 0.99473399
-1.0947363 0.7540918 0.082968593 0.99468654
-1.0952538 0.77491212 0.083739161 0.99463731
-1.0963477 0.81778318 0.085367166 0.99453336
-1.0975391 0.8624121 0.087118872 0.99442142
-1.0981445 0.88543946 0.088044167 0.99436241
-1.0987891 0.90898436 0.089004628 0.99430102
-16.193789 14.096894 1.340028 0.91755098
-15.697959 14.374453 1.3284802 0.91823161
-15.453174 14.511464 1.3230941 0.91854936
-8.6805267 8.5721188 0.76143247 0.95228231
-8.753027 8.8637304 0.77750218 0.95130014
-14.492373 15.049296 1.3040069 0.91967595
-13.788515 15.443291 1.2921649 0.92037547
-13.096348 15.830751 1.2823416 0.92095613
-12.867832 15.958681 1.2795017 0.92112404
-12.640283 16.086063 1.2768781 0.92127925
-12.413662 16.212929 1.2744615 0.921422
-10.510332 16.110508 1.2005429 0.92580384
-9.9593649 16.138165 1.183612 0.92681324
-10.671123 19.410683 1.3825144 0.91505176
-9.4747658 20.134922 1.3888845 0.91467696
1.3395801 0.9477734 0.10241924 0.99344498
1.3389453 0.92230469 0.10147659 0.99350506
1.3361132 0.80157226 0.097248383 0.99377489
1.3356347 0.77860349 0.096491851 0.99382311
1.3346777 0.73374021 0.095060267 0.99391448
1.334209 0.7118066 0.094383508 0.9939577
1.3719727 0.70994139 0.096416093 0.993828
1.5087206 0.70994139 0.10407002 0.99333966
1.5592773 0.70994139 0.10693386 0.99315703
1.6692773 0.70995116 0.11321876 0.99275631
1.7293261 0.70994139 0.11667549 0.99253595
1.8611425 0.70996094 0.12432457 0.99204844
1.9065918 0.69998044 0.12676464 0.99189311
1.9070605 0.67310548 0.12622428 0.99192756
1.861123 -0.70994139 0.12432487 0.99204856
1.7930957 -0.70994139 0.12036907 0.99230069
1.7293164 -0.70995116 0.11667511 0.99253595
1.5592871 -0.70994139 0.1069339 0.99315697
1.5087109 -0.70995116 0.10406978 0.99333966
1.4152637 -0.70994139 0.098823547 0.9936744
1.3346581 -0.73373044 0.095060118 0.99391454
1.3356249 -0.77860349 0.096491851 0.99382311
1.336123 -0.80154294 0.097248495 0.99377489
1.3366308 -0.82488281 0.098033406 0.99372488
1.3371972 -0.84860349 0.098847844 0.99367285
1.3377832 -0.87273437 0.099692307 0.99361885
1.33833 -0.89729488 0.1005685 0.99356312
1.3395605 -0.94778317 0.10241905 0.99344498
3.6603711 -8.3148975 0.56702644 0.96424448
3.306123 -8.3503323 0.56053627 0.96464616
3.7735643 -15.503276 0.99587226 0.93805391
-3.3328514 -8.7370167 0.58364064 0.9632163
-3.3719432 -8.2134962 0.55415726 0.9650417
-3.6221972 -8.2281637 0.56111145 0.96461076
-3.9965136 -8.2231932 0.57064736 0.96402037
-1.0994433 -0.93305659 0.090001069 0.99423742
-1.0987891 -0.90898436 0.089004554 0.99430102
-1.0981348 -0.88543946 0.088044085 0.99436241
-1.0975195 -0.86243165 0.087118722 0.99442142
-1.0969238 -0.83987302 0.086226843 0.9944784
-1.0963379 -0.81778318 0.085367009 0.99453336
-1.0952442 -0.77492183 0.083739124 0.99463731
-1.0942383 -0.73364258 0.082225837 0.99473399
-1.1504102 -0.70995116 0.084373698 0.99459678
-1.2178515 -0.70995116 0.087984234 0.99436623
-1.3307421 -0.70993161 0.094137378 0.99397343
-1.3719727 -0.70995116 0.096415937 0.993828
-1.4152734 -0.70995116 0.098823659 0.99367434
-1.4607714 -0.70995116 0.10137108 0.99351186
-1.5592871 -0.70994139 0.10693401 0.99315697
-1.6127245 -0.70995116 0.1099781 0.99296284
-1.6978906 -0.72210938 0.11515823 0.99263263
-1.6984179 -0.69726562 0.11458969 0.99266881
-1.7027344 0.69905269 0.10976444 0.99265146
-1.7022461 0.72396481 0.11031055 0.99261504
-1.5087109 0.70995116 0.099433705 0.99334079
-1.3719629 0.70995116 0.092120357 0.99382907
-1.2914063 0.70994139 0.087880403 0.99411219
-1.2178417 0.70995116 0.084064178 0.99436724
-1.1504004 0.70995116 0.080614358 0.99459773
-1.1187109 0.70996094 0.079011917 0.99470478
-1.0926465 0.7730664 0.079816855 0.99465096
-1.0936913 0.81578124 0.081364855 0.99454755
-1.094209 0.83780271 0.082182236 0.99449295
-1.0947949 0.86027342 0.083030276 0.9944362
-1.0966308 0.93064451 0.085770182 0.99425316
-16.193789 14.096894 1.280328 0.91756433
-15.944785 14.236279 1.2746857 0.91791224
-8.8263569 8.4997559 0.73072356 0.95208454
-8.6811037 8.5727148 0.72755891 0.95228696
-14.256318 15.181445 1.2419171 0.91993552
-14.021729 15.312754 1.2381485 0.92016864
-13.556611 15.573125 1.231257 0.92059487
-13.325908 15.702255 1.228129 0.92078835
-13.096348 15.830751 1.2252096 0.92096901
-12.867832 15.958681 1.2224957 0.9211368
-12.413662 16.212929 1.2176857 0.92143476
-12.930898 17.335497 1.289693 0.91698724
-14.058456 19.349794 1.4262891 0.90860879
-10.510322 16.110498 1.1471236 0.92581594
-9.9593649 16.138153 1.1308804 0.92682523
-9.377861 16.086924 1.1104184 0.92810035
-10.664374 18.833876 1.2906759 0.91692644
-10.671123 19.410702 1.3209317 0.91506541
-10.377295 19.451279 1.3146932 0.91544777
-10.063193 19.447109 1.3057644 0.91599745
-9.7772169 19.490673 1.3003268 0.91633159
4.3097653 10.885205 0.69814682 0.95417082
1.3363769 0.94550776 0.097621836 0.99346167
1.3346288 0.87071288 0.095028915 0.99363488
1.3326172 0.77685547 0.091985166 0.99383801
1.3321484 0.75430661 0.091291577 0.99388438
1.3316895 0.73210937 0.090623394 0.99392903
1.3312695 0.71023434 0.089979589 0.993972
1.3719727 0.70994139 0.092120357 0.99382907
1.4152734 0.70995116 0.094420888 0.99367541
1.460791 0.70995116 0.096854821 0.99351287
1.5087206 0.70994139 0.099433325 0.99334079
1.5592773 0.70994139 0.10216983 0.99315816
1.6127245 0.70995116 0.10507827 0.99296403
1.6692773 0.70995116 0.10817474 0.99275756
1.7293261 0.70994139 0.11147728 0.9925372
1.7931347 0.70995116 0.11500667 0.99230182
1.8611425 0.70996094 0.11878563 0.99204981
1.9118066 0.67475587 0.12089935 0.99190897
1.9122266 -0.64800781 0.12040306 0.99194211
1.9113476 -0.70170897 0.12141872 0.9918744
1.7931347 -0.70994139 0.11500622 0.99230182
1.7293164 -0.70995116 0.1114769 0.9925372
1.5592871 -0.70994139 0.10216965 0.99315816
1.5087109 -0.70995116 0.099433325 0.99334079
1.460791 -0.70995116 0.096854515 0.99351287
1.4152637 -0.70994139 0.094420619 0.99367547
1.3719629 -0.70995116 0.092120208 0.99382907
1.3312793 -0.71022457 0.089979626 0.993972
1.3316991 -0.73209959 0.090623513 0.99392903
1.3321484 -0.75430661 0.091291696 0.99388438
1.3326074 -0.77683592 0.091985054 0.99383807
1.3330859 -0.7997461 0.092704579 0.99379003
1.333584 -0.82299805 0.093451194 0.9937402
1.3341113 -0.84665036 0.09422569 0.9936884
1.3346386 -0.8707031 0.095028721 0.99363482
1.3352051 -0.89519531 0.095862158 0.99357915
1.3363867 -0.94550776 0.097622029 0.99346167
4.1654005 -8.3036079 0.55398118 0.96345913
4.0347557 -8.3018703 0.55043942 0.96368849
3.9142773 -8.3182764 0.54822165 0.96383208
3.7865624 -8.3165674 0.54493093 0.96404529
3.6603711 -8.3148975 0.54176462 0.96425039
3.5355859 -8.3132467 0.53871822 0.9644478
3.4047949 -8.2935009 0.5346244 0.9647131
3.306123 -8.3503218 0.53556418 0.96465206
3.326494 -8.7203903 0.55657643 0.96329117
3.412334 -22.45701 1.3545587 0.91299897
-0.049599607 -3.9460838 0.2353363 0.98431075
-0.098603517 -3.9229198 0.2340107 0.98439848
-0.14825195 -3.9309666 0.23458342 0.98436058
-3.9886327 -22.437235 1.3589834 0.91272748
-3.3113086 -9.0192871 0.57295364 0.9622317
-3.3328416 -8.7370214 0.55763799 0.96322244
-3.3022947 -8.3406391 0.53494614 0.96469229
-3.4925096 -8.211894 0.53215116 0.96487349
-3.6221972 -8.2281637 0.53611332 0.96461666
-3.9964941 -8.2231932 0.5452233 0.96402639
-4.1152244 -8.2036228 0.54731125 0.96389109
-1.096621 -0.93065429 0.085770339 0.99425316
-1.0959862 -0.90667969 0.084822878 0.99431646
-1.0953808 -0.88322264 0.083909914 0.99437743
-1.0947949 -0.86026365 0.083030052 0.99443626
-1.0936524 -0.81578124 0.081364781 0.99454767
-1.0916699 -0.73190427 0.078378029 0.99474722
-1.0912304 -0.71189451 0.077696986 0.9947927
-1.1834277 -0.70995116 0.082296558 0.99448526
-1.2538086 -0.70996094 0.085923344 0.99424297
-1.2913867 -0.70994139 0.087880403 0.99411225
-1.3307421 -0.70993161 0.089943349 0.99397445
-1.5087402 -0.70994139 0.099433474 0.99334073
-1.5592871 -0.70994139 0.10216999 0.99315816
-1.6127245 -0.70995116 0.10507812 0.99296403
-1.7036523 -0.64987302 0.10873631 0.99272007
-1.7075585 0.67607421 0.10441334 0.99266905
-1.7071191 0.70083982 0.10491577 0.99263382
-1.7066308 0.72583008 0.10543915 0.99259728
-1.6127441 0.70996094 0.10018051 0.9929651
-1.5593066 0.70994139 0.09740749 0.99315917
-1.5087109 0.70995116 0.094798617 0.99334186
-1.460791 0.70995116 0.09233997 0.99351394
-1.4152539 0.70995116 0.090019718 0.99367648
-1.3719629 0.70995116 0.087826304 0.99383008
-1.3307323 0.70995116 0.085750617 0.9939754
-1.1834277 0.70995116 0.078460537 0.99448615
-1.1187109 0.70996094 0.075328827 0.99470562
-1.0886914 0.71024412 0.073902927 0.99480563
-1.0895605 0.75051755 0.075219646 0.99471337
-1.090039 0.77122068 0.075914726 0.99466455
-1.0910156 0.81381834 0.077383347 0.99456161
-1.09208 0.85813475 0.078963391 0.99445087
-1.0926269 0.8810156 0.079797968 0.9943924
-1.0932128 0.90438473 0.08066383 0.99433172
-1.0938085 0.92827147 0.081562616 0.99426877
-15.944785 14.236279 1.2152685 0.91792494
-15.697959 14.374453 1.2101265 0.91825747
-8.8549995 8.9669724 0.71648383 0.95076293
-14.256318 15.181436 1.1840278 0.91994798
-14.021729 15.312763 1.1804345 0.92018098
-12.867832 15.958681 1.1655115 0.92114902
-12.640273 16.086054 1.1631217 0.92130429
-12.413642 16.21291 1.1609265 0.92144704
-12.272754 16.453184 1.1669924 0.92105299
-9.9593649 16.138153 1.0781664 0.92683655
-10.671123 19.410702 1.2593648 0.91507852
-10.377295 19.451288 1.2534127 0.91546077
-10.063212 19.447109 1.2448964 0.91601038
-9.7772169 19.490673 1.2397114 0.91634452
-9.8010836 20.16663 1.2747806 0.9140833
-9.4747458 20.134932 1.2651513 0.91470391
1.3331933 0.94325191 0.09284927 0.9934783
1.33208 0.8930859 0.091179118 0.99359518
1.331543 0.86869138 0.090388753 0.99365056
1.3310449 0.84469724 0.089626424 0.9937039
1.3287402 0.73047853 0.086207613 0.99394345
1.3719727 0.70994139 0.087826386 0.99383003
1.460791 0.70995116 0.092340045 0.99351394
1.5087206 0.70994139 0.094798468 0.99334186
1.6127245 0.70995116 0.10018013 0.99296516
1.6692773 0.70995116 0.10313232 0.99275869
1.8611425 0.70996094 0.11324874 0.99205106
1.9161133 0.70347655 0.1160474 0.9918555
1.9165429 0.67642576 0.11555 0.99189031
1.9169824 0.6496191 0.11507423 0.99192345
1.9165331 -0.67641598 0.11555019 0.99189037
1.7930957 -0.70994139 0.10964511 0.99230319
1.6693066 -0.70994139 0.10313194 0.99275863
1.5592871 -0.70994139 0.097406998 0.99315923
1.3291699 -0.75262696 0.086841807 0.99389899
1.3300781 -0.79791015 0.088182792 0.99380505
1.3310254 -0.84470701 0.089626387 0.99370396
1.3315527 -0.86869138 0.090388753 0.99365056
1.3320702 -0.8930859 0.091179423 0.99359524
1.3326172 -0.91793942 0.091999203 0.99353784
1.3331933 -0.94324219 0.092849463 0.9934783
3.9142773 -8.3182669 0.52266598 0.9638378
3.7865624 -8.3165674 0.51953012 0.96405101
3.6603711 -8.3148975 0.51651007 0.96425611
3.535625 -8.3132372 0.51360703 0.9644534
3.306123 -8.3503323 0.51060003 0.9646576
3.3155956 -9.0309715 0.54695189 0.96218973
1.3920996 -3.9442871 0.23780403 0.98338163
1.3038379 -4.0127735 0.23988067 0.98323768
3.7735643 -15.503276 0.907152 0.93807369
-0.049580079 -3.9452538 0.22431861 0.98431653
-0.098613277 -3.9228711 0.22310035 0.98440117
-0.20078124 -3.990664 0.22717078 0.98411882
-3.4925096 -8.2119045 0.50734705 0.96487898
-3.6221972 -8.2281637 0.51112336 0.96462226
-3.8703222 -8.2248631 0.51679754 0.96423656
-4.1152244 -8.2036228 0.52179921 0.96389681
-1.0938085 -0.92827147 0.08156269 0.99426877
-1.0932128 -0.90437496 0.080663987 0.99433172
-1.0926269 -0.88099605 0.079797894 0.99439245
-1.0920703 -0.85813475 0.078963317 0.99445093
-1.0915332 -0.83575195 0.078158721 0.99450725
-1.090498 -0.79230469 0.076635778 0.99461412
-1.0895801 -0.75050777 0.075219646 0.99471331
-1.0891211 -0.73019528 0.07454937 0.99476033
-1.0886914 -0.71024412 0.073903047 0.99480563
-1.1504102 -0.70995116 0.076856762 0.99459857
-1.1834277 -0.70995116 0.078460656 0.99448615
-1.3307421 -0.70993161 0.085750692 0.9939754
-1.3719727 -0.70995116 0.08782623 0.99383003
-1.4608105 -0.70995116 0.092339858 0.99351388
-1.6127245 -0.70995116 0.10018005 0.99296516
-1.7066308 -0.72581053 0.10543892 0.99259734
-1.7071093 -0.70082027 0.10491554 0.99263388
-1.7075585 -0.67606443 0.104413 0.99266905
-1.707998 -0.65152341 0.10393059 0.99270278
-1.7114941 0.70262694 0.10004398 0.99261618
-1.7110351 0.72770506 0.10054436 0.9925794
-1.612705 0.70996094 0.095283657 0.99296629
-1.5593066 0.70994139 0.092646293 0.99316025
-1.5087109 0.70995116 0.090164907 0.99334288
-1.4152539 0.70995116 0.08561939 0.99367744
-1.3307323 0.70995116 0.081559405 0.99397629
-1.1834277 0.70995116 0.074625626 0.99448699
-1.1504004 0.70994139 0.073100165 0.9945994
-1.1187109 0.70996094 0.071646959 0.99470639
-1.0879004 0.79041016 0.072714768 0.99462771
-1.0893652 0.85600585 0.07491798 0.99446547
-1.0899023 0.87879878 0.075707704 0.9944073
-15.944795 14.236269 1.1558672 0.91793698
-15.697959 14.374453 1.1509792 0.91826952
-8.6808882 8.5724897 0.65972328 0.95230281
-8.8490915 8.9610052 0.68101186 0.95080227
-14.021729 15.312763 1.1227361 0.92019272
-12.413662 16.212929 1.1041782 0.92145848
-12.264844 16.881132 1.128333 0.91981125
-12.25668 17.323555 1.1475171 0.91850483
-10.510332 16.110508 1.0400726 0.92583841
-10.664374 18.833876 1.1703669 0.91695148
-10.671123 19.410702 1.1977841 0.91509098
-9.7772169 19.490673 1.1791668 0.9163568
1.3300195 0.9410156 0.088100776 0.99349475
1.3289648 0.8909961 0.086519815 0.9936111
1.3284668 0.86666012 0.085771598 0.99366623
1.3279589 0.84275389 0.085049853 0.9937194
1.3275098 0.81924802 0.084353976 0.99377054
1.3270605 0.79611325 0.083683282 0.99381995
1.3258008 0.72886717 0.08181259 0.9939577
1.4152734 0.70995116 0.085619465 0.99367738
1.6127245 0.70995116 0.095283732 0.99296623
1.7931347 0.70995116 0.10428616 0.99230421
1.9213085 0.67810547 0.11017574 0.99187148
1.9217187 -0.65122068 0.10972099 0.99190485
1.9213183 -0.6780957 0.11017574 0.99187142
1.861123 -0.70994139 0.10771301 0.99205238
1.5592871 -0.70994139 0.092645951 0.99316031
1.5087109 -0.70995116 0.090164758 0.99334288
1.460791 -0.70995116 0.087826192 0.99351496
1.4152637 -0.70994139 0.085619196 0.99367744
1.3719629 -0.70995116 0.083533324 0.99383098
1.3262206 -0.75094724 0.082413174 0.99391341
1.3279687 -0.84276366 0.085049935 0.99371934
1.328457 -0.86666989 0.085771635 0.99366623
4.1654005 -8.3036079 0.50234228 0.9634704
4.0347557 -8.3018703 0.4991307 0.9636997
3.9142773 -8.3182669 0.49711981 0.96384329
3.7865624 -8.3165674 0.49413481 0.96405643
3.5355859 -8.3132467 0.48850217 0.96445876
3.306123 -8.350337 0.48564285 0.96466291
1.3013769 -4.0052638 0.22772941 0.98327136
3.7735643 -15.503276 0.86281133 0.93808293
3.4121971 -22.455986 1.2282403 0.9130289
-0.049580079 -3.9452538 0.21335456 0.98431891
-0.14826171 -3.9306641 0.21270102 0.98436666
-3.3113086 -9.0192871 0.51954603 0.96224338
-1.5176171 -3.9784374 0.23025383 0.98308748
-1.5527929 -3.9218848 0.22809249 0.9832449
-3.9965136 -8.2231932 0.49440125 0.96403748
-1.0916015 -0.9502539 0.078260385 0.99421924
-1.0888672 -0.83368164 0.074156567 0.99452156
-1.0874219 -0.76937497 0.072032586 0.99467814
-1.0869921 -0.74875975 0.071374431 0.99472654
-1.0882324 -0.70994139 0.070261456 0.99480861
-1.1187109 -0.70995116 0.071646996 0.99470645
-1.1834277 -0.70995116 0.074625507 0.99448699
-1.2178515 -0.70995116 0.076228328 0.99436897
-1.2538086 -0.70996094 0.077913858 0.99424475
-1.3307421 -0.70993161 0.081559181 0.99397629
-1.3719727 -0.70995116 0.083533555 0.99383098
-1.4607714 -0.70995116 0.087826535 0.99351501
-1.7110254 -0.72769529 0.10054416 0.99257946
-1.7114745 -0.70262694 0.10004379 0.99261624
-1.7119141 -0.67778319 0.099563219 0.99265152
-1.7123437 -0.65319335 0.099102132 0.99268538
-1.7162988 0.67954099 0.094690241 0.99263382
-1.6692969 0.70995116 0.093052059 0.99276078
-1.5593066 0.70994139 0.087887079 0.9931612
-1.4152539 0.70995116 0.081220739 0.99367839
-1.3719629 0.70995116 0.079241939 0.99383187
-1.2914063 0.70994139 0.075594634 0.99411488
-1.2178417 0.70995116 0.072312087 0.9943698
-1.1834277 0.70995116 0.070791699 0.99448782
-1.1187109 0.70996094 0.067966156 0.99470717
-1.0844531 0.74699217 0.067548327 0.99473965
-1.0848535 0.76755857 0.068169557 0.99469143
-1.0857323 0.80987304 0.069481999 0.99458951
-1.0866895 0.85389644 0.070893779 0.99447989
-1.0871778 0.87661129 0.07163921 0.99442202
-1.088789 0.94780272 0.074048191 0.99423498
-15.697959 14.374453 1.0918474 0.9182809
-8.8264065 8.4997749 0.62857038 0.95210594
-8.6809664 8.5725679 0.62583739 0.95230919
-8.8034077 8.9147072 0.64268827 0.95105702
-13.556602 15.573105 1.059127 0.92063004
-12.867832 15.958681 1.0515949 0.92117167
-12.640273 16.086054 1.0494367 0.92132688
-12.413642 16.21291 1.0474471 0.92146963
-12.315029 17.406044 1.0937574 0.91814458
-12.248222 17.781366 1.1075754 0.91715401
-12.239491 18.255537 1.1274406 0.9157325
-10.510322 16.110498 0.98666418 0.9258489
-9.6792479 16.134434 0.9651491 0.92741019
-9.377861 16.086924 0.95516849 0.92813224
-10.664385 18.833897 1.110244 0.91696298
-10.377295 19.451288 1.1309 0.91548502
-10.063212 19.447109 1.1232145 0.91603446
-9.8010836 20.16663 1.1501819 0.91410792
-9.4747458 20.134932 1.1414917 0.91472834
4.3095798 10.884756 0.60052085 0.95419335
1.3268554 0.93877929 0.083376423 0.99351108
1.3263476 0.91363281 0.082616575 0.99357003
1.3254004 0.86466795 0.081177175 0.99368167
1.3249316 0.84082031 0.080495566 0.9937346
1.3244922 0.81738281 0.079838596 0.99378556
1.3240722 0.7943359 0.079205208 0.99383467
1.3232617 0.74927735 0.078005791 0.99392784
1.3307323 0.70995116 0.077369496 0.99397719
1.4152734 0.70995116 0.081220813 0.99367827
1.5087206 0.70994139 0.085532717 0.99334383
1.6127245 0.70995116 0.090388179 0.99296725
1.8611425 0.70996094 0.1021798 0.99205345
1.9264941 -0.65283203 0.10434254 0.99188602
1.925703 -0.70699215 0.10522907 0.99181736
1.7931151 -0.70995116 0.098928414 0.9923054
1.7293164 -0.70995116 0.095892563 0.9925406
1.6127245 -0.70994139 0.090388373 0.99296731
1.5592871 -0.70994139 0.087886348 0.99316126
1.5087109 -0.70995116 0.085532799 0.99334389
1.460791 -0.70995116 0.083314322 0.99351585
1.3719629 -0.70995116 0.07924179 0.99383187
1.3307226 -0.70994139 0.077369042 0.99397725
1.3240722 -0.79432613 0.079205088 0.99383473
1.3244922 -0.81738281 0.079838753 0.99378556
1.3249316 -0.84082031 0.080495715 0.9937346
1.3268554 -0.93875974 0.083376311 0.99351114
3.9142773 -8.3182669 0.47158095 0.96384847
3.6603711 -8.3148975 0.46602461 0.9642666
3.5355859 -8.3132467 0.46340629 0.96446389
3.4047949 -8.2935009 0.45988569 0.96472907
3.326494 -8.7203903 0.47876769 0.96330774
1.3402734 -3.9550977 0.2142157 0.98341304
3.7735643 -15.503276 0.81848395 0.9380917
3.4121094 -22.455488 1.1651129 0.9130429
-0.049580079 -3.9452538 0.20239364 0.98432118
-0.098613277 -3.9228711 0.20129424 0.98440582
-0.20077148 -3.9906738 0.20496704 0.98412347
-3.9882519 -22.435131 1.1688907 0.91277367
-3.3113086 -9.0192871 0.49285522 0.9622488
-1.5527929 -3.9218848 0.21637467 0.98324734
-1.6681738 -3.9223731 0.21864578 0.983073
-3.7455566 -8.2265234 0.46367347 0.96444368
-3.8703222 -8.2248726 0.46628624 0.96424705
-1.0887793 -0.94780272 0.074048266 0.99423498
-1.0882324 -0.92353511 0.073215179 0.99429965
-1.087168 -0.87661129 0.071639061 0.99442202
-1.0866797 -0.85388672 0.070893556 0.99447989
-1.0861914 -0.83166993 0.070174977 0.99453568
-1.0857323 -0.80987304 0.069482036 0.99458951
-1.0852929 -0.78850585 0.068813816 0.99464136
-1.0844531 -0.74699217 0.067548372 0.99473965
-1.1187109 -0.70995116 0.067966193 0.99470723
-1.1504102 -0.70995116 0.069344558 0.99460018
-1.1834277 -0.70995116 0.070791587 0.99448782
-1.2178515 -0.70995116 0.072312012 0.9943698
-1.2538086 -0.70996094 0.073911168 0.99424559
-1.2913867 -0.70994139 0.075594783 0.99411494
-1.3719727 -0.70995116 0.079241939 0.99383187
-1.4608105 -0.70995116 0.083314516 0.99351579
-1.5592871 -0.70994139 0.087886691 0.99316126
-1.6127245 -0.70995116 0.090388261 0.99296725
-1.6692871 -0.70995116 0.093051791 0.99276084
-1.7159082 -0.70444334 0.095148504 0.99259824
-1.7166895 -0.65486324 0.094250642 0.99266791
-1.7207323 0.6812793 0.089793585 0.99261594
-1.7203027 0.70625001 0.090228952 0.99258035
-1.3719629 0.70995116 0.074951932 0.99383277
-1.2538086 0.70994139 0.069909588 0.99424642
-1.2178417 0.70995116 0.068397142 0.99437058
-1.1834472 0.70994139 0.066958845 0.99448854
-1.0882422 0.70994139 0.063042946 0.99481004
-1.0818945 0.74524415 0.063741341 0.99475271
-1.0822949 0.76573241 0.064326249 0.99470466
-1.0826952 0.78662109 0.064932823 0.99465489
-1.0835546 0.82962888 0.06621372 0.99454975
-1.0839942 0.85179687 0.066890217 0.99449426
-1.0844922 0.8744238 0.067591898 0.99443656
-1.085996 0.94536132 0.069859125 0.99425054
-15.944785 14.236279 1.0371202 0.91795933
-8.6810741 8.5726557 0.59195685 0.95231509
-8.6372852 8.7464943 0.59642011 0.9519645
-14.492373 15.049296 1.0137067 0.91973507
-14.256318 15.181436 1.0104612 0.9199816
-14.021729 15.312754 1.0073928 0.92021453
-13.788515 15.4433 1.0045007 0.92043412
-13.556611 15.573125 1.001786 0.92064047
-13.325908 15.702255 0.99924034 0.92083389
-12.640283 16.086063 0.99261725 0.92133731
-12.331161 16.531494 1.0006597 0.92072588
-12.290293 16.916172 1.0145098 0.91967356
-12.315029 17.406044 1.0345287 0.91815543
-12.306542 17.866005 1.0525981 0.91678756
-10.510332 16.110508 0.9332552 0.92585868
-10.243975 16.141953 0.92759967 0.92629516
-9.9593649 16.138153 0.92011374 0.92686737
-9.6792479 16.134434 0.91289574 0.92741984
-10.664385 18.833897 1.0501328 0.91697395
-10.671123 19.410692 1.0747465 0.9151141
-10.063193 19.447109 1.062407 0.91604561
-9.7772169 19.490654 1.0579461 0.91637963
-9.8010836 20.16663 1.0879083 0.91411924
-9.4747458 20.134932 1.0796908 0.91473961
4.3095117 10.8846 0.56800091 0.95420015
1.3237207 0.9365527 0.078675725 0.99352729
1.3232226 0.91148436 0.07796032 0.993586
1.3227735 0.8868652 0.077270165 0.99364257
1.3223242 0.86267579 0.076604843 0.99369717
1.3219043 0.83890623 0.075963326 0.99374974
1.3215039 0.8155371 0.075344734 0.9938004
1.3210937 0.79253906 0.074748263 0.9938494
1.5087206 0.70994139 0.08090198 0.99334478
1.6127245 0.70995116 0.08549469 0.99296826
1.6692773 0.70995116 0.088014066 0.99276185
1.9309082 0.68150389 0.099351078 0.99183333
1.9312793 -0.65446287 0.098939054 0.99186701
1.9309276 -0.68149412 0.099351116 0.99183327
1.9305371 -0.7087695 0.099782027 0.99179798
1.861123 -0.70994139 0.096647412 0.99205464
1.7930957 -0.70994139 0.093572274 0.99230659
1.7293164 -0.70995116 0.09070053 0.99254167
1.6693066 -0.70994139 0.088013612 0.99276179
1.5087109 -0.70995116 0.080901451 0.99334478
1.3307226 -0.70994139 0.07318043 0.99397808
1.3203418 -0.74761719 0.073618926 0.99394202
1.3207226 -0.76991206 0.074173123 0.99389648
1.3223144 -0.8626855 0.076604955 0.99369717
1.3232422 -0.91147459 0.077960469 0.99358594
1.3237305 -0.9365527 0.078675613 0.99352723
2.8008106 -4.0660739 0.2395571 0.98042154
4.1654005 -8.3036079 0.45073447 0.96348059
4.0347557 -8.3018703 0.44785398 0.96370983
3.5355859 -8.3132467 0.43831635 0.96446872
3.306123 -8.3503323 0.43575102 0.9646728
3.326494 -8.7203903 0.4528462 0.96331275
1.4590625 -3.9741893 0.20540947 0.98318875
1.3915234 -3.9426658 0.20286117 0.98339564
3.7735643 -15.503281 0.77417099 0.93809992
3.4120409 -22.454994 1.1020088 0.91305619
-0.049580079 -3.9452538 0.19143616 0.98432332
-3.9881248 -22.434439 1.1055727 0.9127878
-3.3113086 -9.0192871 0.46617103 0.96225393
-1.5176171 -3.9784374 0.20659889 0.98309225
-3.8703222 -8.2248726 0.44104019 0.96425188
-3.9965136 -8.2231932 0.44360808 0.96404749
-1.0849707 -0.89754879 0.068320043 0.99437684
-1.0844727 -0.87443358 0.06759201 0.99443662
-1.0839942 -0.85180664 0.066890523 0.9944942
-1.0835449 -0.82962888 0.066213988 0.99454975
-1.0831348 -0.80791014 0.065561675 0.99460322
-1.0826952 -0.78661132 0.064932749 0.99465495
-1.0822949 -0.76573241 0.064326055 0.99470466
-1.0815332 -0.72509766 0.063177034 0.99479902
-1.1504102 -0.70995116 0.065590136 0.99460089
-1.2538086 -0.70996094 0.069909401 0.99424636
-1.2913867 -0.70994139 0.071501695 0.99411577
-1.3307421 -0.70994139 0.073180348 0.99397802
-1.3719727 -0.70995116 0.074951783 0.99383271
-1.5592871 -0.70994139 0.083128467 0.99316221
-1.6692871 -0.70995116 0.088014029 0.99276185
-1.7207129 -0.6812793 0.089793429 0.992616
-1.721084 -0.65652341 0.089375377 0.99265027
-1.7254882 0.6582129 0.084476814 0.99263245
-1.7251366 0.68302733 0.084872775 0.99259806
-1.5593066 0.70994139 0.078371771 0.99316305
-1.5087109 0.70995116 0.076272316 0.99334562
-1.460791 0.70995116 0.074294314 0.99351764
-1.4152539 0.70995116 0.072427176 0.99368006
-1.3719629 0.70995116 0.070662685 0.99383354
-1.3307323 0.70995116 0.068992577 0.9939788
-1.2914063 0.70994139 0.067410201 0.99411649
-1.2538086 0.70994139 0.065908812 0.9942472
-1.2178417 0.70995116 0.064483032 0.99437129
-1.1834277 0.70995116 0.063127212 0.99448925
-1.1504004 0.70995116 0.061836891 0.99460167
-1.1187109 0.70996094 0.060607757 0.9947086
-1.0882422 0.70994139 0.059435233 0.9948107
-1.0790137 0.72342771 0.059423789 0.99481171
-1.0793457 0.74349606 0.059953 0.9947657
-1.0805175 0.80598629 0.061661031 0.99461687
-1.0817871 0.87226558 0.063565977 0.99445105
-1.0822363 0.89531249 0.064248964 0.99439162
-15.697959 14.374453 0.97363484 0.918302
-8.8264256 8.499795 0.56051767 0.9521184
-13.556602 15.573105 0.94445717 0.92065048
-13.096348 15.830751 0.93982029 0.92102432
-12.867832 15.958681 0.93774128 0.92119199
-12.640293 16.086044 0.93581653 0.9213472
-12.331182 16.531504 0.94339651 0.92073578
-12.290293 16.916162 0.95646065 0.91968364
-12.315039 17.406034 0.97533637 0.91816568
-12.306542 17.866005 0.99235982 0.91679794
-12.264873 18.293447 1.0074652 0.91558689
-10.510332 16.110508 0.87962502 0.92586803
-10.243975 16.141953 0.87451619 0.9263044
-9.9593649 16.138153 0.86745888 0.9268766
-10.664385 18.833897 0.99003792 0.91698438
-10.671123 19.410702 1.013244 0.91512465
-10.377295 19.451279 1.008461 0.91550678
-10.063212 19.447109 1.0016078 0.91605604
-9.7772064 19.490654 0.99743688 0.91639006
-9.8010836 20.16663 1.0256543 0.91412997
-9.4747458 20.134932 1.0179044 0.91475022
1.3201464 0.90933591 0.07332699 0.99360174
1.319707 0.88479489 0.072679669 0.99365807
1.3192773 0.86069334 0.072055392 0.99371243
1.3181348 0.79078126 0.070312843 0.99386388
1.3174218 0.74597657 0.069252968 0.99395615
1.3170702 0.72407228 0.068751179 0.99399984
1.3307323 0.70995116 0.068992577 0.9939788
1.3719727 0.70994139 0.07066261 0.99383354
1.4152734 0.70995116 0.072427101 0.99368
1.460791 0.70995116 0.07429409 0.99351764
1.5087206 0.70994139 0.076272234 0.99334562
1.5592773 0.70994139 0.07837116 0.99316317
1.6692969 0.70995116 0.082977295 0.99276274
1.7293261 0.70994139 0.085510634 0.99254262
1.7931347 0.70995116 0.088217884 0.99230742
1.8611425 0.70996094 0.091116868 0.99205554
1.9357715 0.68321288 0.093900256 0.9918139
1.9360937 0.65608394 0.093509637 0.99184793
1.9353906 -0.71055663 0.094308279 0.99177855
1.861123 -0.70994139 0.091116711 0.99205565
1.7930957 -0.70994139 0.088217504 0.99230754
1.7293164 -0.70995116 0.085510477 0.99254262
1.6127245 -0.70994139 0.080602147 0.99296916
1.5592871 -0.70994139 0.078371122 0.99316311
1.460791 -0.70995116 0.074294016 0.99351764
1.3719629 -0.70995116 0.070662379 0.99383354
1.3170898 -0.72407228 0.06875141 0.99399978
1.3174218 -0.74597657 0.069252543 0.99395615
1.3177637 -0.76820308 0.069772989 0.99391091
1.3185155 -0.8136816 0.070872761 0.99381524
1.3188866 -0.83700192 0.071453325 0.99376476
1.3193066 -0.86069334 0.072055243 0.99371231
2.8788867 -3.9624219 0.2240406 0.98057926
2.8231249 -3.9901953 0.22358772 0.98061818
2.7964842 -4.0598145 0.2255004 0.98045391
4.1654005 -8.3036079 0.42494276 0.9634853
4.0347557 -8.3018703 0.42222518 0.96371448
3.7865624 -8.3165674 0.41799879 0.96407104
3.6603711 -8.3148975 0.41556892 0.96427602
3.5355859 -8.3132467 0.4132331 0.96447325
3.306123 -8.3503323 0.41081816 0.96467733
3.326494 -8.7203903 0.42693275 0.96331745
1.4590625 -3.9741893 0.19365463 0.98319089
1.3915234 -3.9426658 0.19125168 0.98339778
1.3402734 -3.9550977 0.19102295 0.98341751
3.7735643 -15.503281 0.72986776 0.93810779
3.5958788 -16.575478 0.77584672 0.93433982
3.3837011 -16.601772 0.77502656 0.93440694
3.411953 -22.454506 1.0389224 0.91306883
-0.049580079 -3.9452538 0.18048103 0.98432541
-0.098613277 -3.9228711 0.17950051 0.98440993
-0.14826171 -3.9306641 0.17992729 0.98437309
-0.20077148 -3.9906738 0.18277565 0.9841277
-1.5176171 -3.9784374 0.19477646 0.98309445
-1.5527929 -3.9218848 0.19294815 0.98325181
-3.6221972 -8.2281637 0.41123503 0.96464199
-3.7455566 -8.2265234 0.41347229 0.96445304
-3.9965136 -8.2231932 0.41822425 0.96405208
-4.1152244 -8.2036228 0.41982567 0.96391696
-3.022002 -3.946914 0.22738761 0.98029208
-3.0612695 -3.8957715 0.22663879 0.98035622
-3.132158 -3.8845117 0.22825576 0.98021752
-1.0832031 -0.94294918 0.065692633 0.99426597
-1.0817676 -0.87224609 0.06356594 0.99445117
-1.0813476 -0.84971678 0.062907673 0.99450833
-1.0790137 -0.72343749 0.059423827 0.99481171
-1.1834277 -0.70995116 0.063127324 0.99448925
-1.2178515 -0.70995116 0.064483106 0.99437129
-1.2913867 -0.70994139 0.067410201 0.99411654
-1.4608105 -0.70995116 0.074294277 0.99351752
-1.5592871 -0.70994139 0.078371316 0.99316311
-1.6692871 -0.70995116 0.082977481 0.9927628
-1.7251366 -0.68302733 0.084872819 0.99259806
-1.7254882 -0.65820312 0.084476739 0.99263251
-1.729912 0.65990233 0.079554096 0.99261457
-1.7295898 0.68478513 0.079928093 0.99257994
-1.7292285 0.70991212 0.080317914 0.99254394
-1.6692969 0.70995116 0.077942044 0.99276364
-1.5593066 0.70994139 0.07361576 0.99316388
-1.5087109 0.70995116 0.071644016 0.99334645
-1.4152539 0.70995116 0.068031959 0.99368083
-1.3307323 0.70995116 0.064806022 0.99397957
-1.2538086 0.70994139 0.061909329 0.99424791
-1.2178417 0.70995116 0.06056999 0.99437201
-1.1504004 0.70995116 0.058084525 0.99460232
-1.0765332 0.72174805 0.05568878 0.99482429
-1.0768554 0.74175781 0.056183547 0.99477845
-1.0771972 0.76212889 0.056696586 0.99473089
-1.0779296 0.80404294 0.057780378 0.9946304
-1.0783007 0.82561523 0.058352429 0.99457741
-1.0787011 0.84762692 0.058945656 0.99452245
-1.0804101 0.94052732 0.061548498 0.99428135
-15.944785 14.236279 0.91843677 0.91797924
-15.697959 14.374453 0.91455066 0.9183116
-8.8264351 8.4998045 0.52650487 0.95212406
-8.6373825 8.7466211 0.52817672 0.95197576
-14.021708 15.312754 0.89211142 0.92023396
-13.325908 15.702255 0.88489157 0.92085314
-13.096348 15.830751 0.882788 0.92103362
-12.867832 15.958681 0.88083518 0.92120129
-12.315039 17.406034 0.91614246 0.91817534
-12.264873 18.293447 0.94632423 0.91559684
-10.243975 16.141953 0.8214469 0.9263131
-9.9593649 16.138153 0.81482232 0.92688525
-10.664374 18.833876 0.92996025 0.91699421
-10.671123 19.410702 0.9517507 0.91513467
-10.377295 19.451288 0.94726264 0.91551667
-10.063212 19.447109 0.94082648 0.91606593
-9.7772169 19.490673 0.9369083 0.91639984
-9.4747553 20.134922 0.95613563 0.91476029
4.3094139 10.884316 0.50298923 0.95421267
1.3166504 0.88276362 0.068111263 0.99367344
1.3162793 0.85872066 0.067527615 0.99372745
1.3148438 0.76650387 0.065393448 0.99392509
1.460791 0.70995116 0.069785729 0.99351841
1.5087206 0.70994139 0.071643792 0.99334645
1.6127245 0.70995116 0.075710677 0.99297005
1.6692969 0.70995116 0.077941895 0.99276364
1.7293261 0.70994139 0.080321498 0.99254352
1.7931347 0.70995116 0.082864337 0.99230838
1.8611425 0.70996094 0.085587688 0.99205655
1.9402832 0.71235353 0.088808857 0.99175882
1.9409374 0.65773433 0.088054962 0.99182856
1.9409374 -0.65773433 0.088054843 0.99182856
1.9402636 -0.71234375 0.088808894 0.99175894
1.7931151 -0.70995116 0.082864188 0.99230844
1.7293164 -0.70995116 0.080321498 0.99254352
1.5087109 -0.70995116 0.07164371 0.99334645
1.460791 -0.70995116 0.069785573 0.99351841
1.3719629 -0.70995116 0.06637428 0.99383432
1.3145117 -0.74432617 0.064907037 0.99397022
1.3148438 -0.76648438 0.065393485 0.99392515
1.3151758 -0.78898436 0.06589821 0.99387842
1.3155273 -0.81184566 0.06642174 0.99382997
1.3158789 -0.8350879 0.066964641 0.99377972
1.3162597 -0.85871094 0.067527391 0.99372756
1.3174707 -0.93213862 0.069343984 0.99355936
2.8788867 -3.9624219 0.21044479 0.98058158
2.7964842 -4.0598145 0.21181732 0.98045629
3.9142773 -8.3182669 0.39500472 0.96386236
3.4047949 -8.2935009 0.38520834 0.96474266
3.306123 -8.3503218 0.38588476 0.96468163
3.326494 -8.7203903 0.40102461 0.96332186
1.3402734 -3.9550977 0.17943092 0.98341954
3.7735643 -15.503281 0.68557632 0.93811512
3.3837793 -16.602041 0.72800595 0.93441367
-0.049580079 -3.9452538 0.16952865 0.98432732
-0.098613277 -3.9228711 0.16860756 0.98441184
-0.20077148 -3.9906738 0.17168441 0.98412967
-3.3113184 -9.0192823 0.41282424 0.96226329
-1.6022851 -3.9029002 0.18127784 0.98325032
-3.7455566 -8.2265234 0.38838211 0.96445733
-3.8703222 -8.2248631 0.39056969 0.96426082
-3.9964941 -8.2231932 0.39284447 0.96405649
-3.0220215 -3.9469237 0.21358925 0.98029441
-3.132158 -3.8845117 0.21440428 0.9802199
-1.0804199 -0.94052732 0.061548498 0.99428135
-1.0799707 -0.9165234 0.060861282 0.99434501
-1.0790918 -0.87010741 0.059560813 0.99446547
-1.0786914 -0.84762692 0.058945425 0.99452251
-1.0783007 -0.82561523 0.058352392 0.99457741
-1.0775489 -0.78287107 0.057228468 0.9946816
-1.077207 -0.76213866 0.056696776 0.99473083
-1.0765234 -0.72175777 0.05568878 0.99482429
-1.1187109 -0.70995116 0.056929894 0.99470925
-1.1834277 -0.70995116 0.05929653 0.99448997
-1.2538086 -0.70996094 0.06190937 0.99424785
-1.3307421 -0.70993161 0.064805865 0.99397957
-1.4152734 -0.70995116 0.068032108 0.99368078
-1.4608105 -0.70995116 0.069785841 0.99351835
-1.5087402 -0.70994139 0.071643792 0.99334639
-1.5592871 -0.70994139 0.07361538 0.99316394
-1.6127245 -0.70995116 0.075710826 0.99297005
-1.6692871 -0.70995116 0.077941775 0.99276364
-1.72958 -0.6847949 0.079927936 0.99257994
-1.7299218 -0.65989256 0.079553828 0.99261451
-1.7343848 0.66160154 0.074607164 0.99259639
-1.7340429 0.68656248 0.074958839 0.9925617
-1.612705 0.70996094 0.0708213 0.99297088
-1.460791 0.70995116 0.065278508 0.99351913
-1.4152539 0.70995116 0.063638039 0.99368155
-1.3719629 0.70995116 0.062087707 0.99383503
-1.2914063 0.70994139 0.059229888 0.99411786
-1.2538086 0.70994139 0.057910614 0.99424857
-1.2178417 0.70995116 0.056657791 0.99437267
-1.1504004 0.70995116 0.054332923 0.99460292
-1.1187109 0.70996094 0.05325279 0.99470985
-1.0882422 0.70994139 0.052222785 0.99481195
-1.0746582 0.76033199 0.052910041 0.99474388
-1.0749999 0.78103513 0.053405378 0.99469471
-1.0753223 0.80210936 0.053918991 0.99464393
-1.0756934 0.82361329 0.054451559 0.99459112
-1.0772363 0.91423827 0.056786995 0.99435985
-1.0776855 0.93812495 0.05742649 0.99429649
-15.697959 14.374453 0.85548252 0.9183206
-15.453174 14.511464 0.85201192 0.91863805
-8.8264456 8.4998236 0.49249908 0.95212936
-8.6812887 8.5729103 0.49037391 0.95233101
-8.6374512 8.7466602 0.49406537 0.95198083
-14.492373 15.049296 0.83972329 0.91976345
-14.021708 15.312754 0.83449268 0.92024279
-13.788515 15.443291 0.83209479 0.92046225
-13.556602 15.573105 0.82984567 0.9206686
-13.096357 15.830751 0.82577157 0.92104232
-12.867832 15.958681 0.8239426 0.92120999
-12.331182 16.531504 0.8289153 0.92075384
-12.290293 16.916162 0.84038609 0.91970199
-12.315039 17.406034 0.85697651 0.91818434
-10.510332 16.110508 0.77303457 0.92588496
-10.243975 16.141943 0.76839268 0.92632133
-9.3778706 16.086914 0.74839413 0.92816734
-10.671123 19.410692 0.89026523 0.91514403
-10.05247 19.426367 0.87912267 0.91616082
-9.8010836 20.16663 0.90118951 0.91414952
-9.4747458 20.134932 0.8943795 0.91476965
1.3143847 0.92995113 0.064712979 0.99357516
1.3140038 0.90511715 0.06412857 0.99363291
1.3136133 0.88072264 0.06356506 0.99368876
1.3129003 0.83320308 0.062497329 0.99379444
1.3125781 0.81003904 0.061991882 0.99384439
1.3119335 0.76479489 0.061034508 0.99393922
1.3116211 0.74269527 0.060581245 0.9939841
1.3113183 0.72091794 0.060144577 0.99402738
1.3307323 0.70995116 0.060620382 0.99398023
1.3719727 0.70994139 0.062087554 0.99383497
1.4152734 0.70995116 0.063637964 0.99368149
1.460791 0.70995116 0.065278284 0.99351913
1.5592773 0.70994139 0.068860665 0.99316478
1.6127245 0.70995116 0.07082092 0.99297082
1.6692773 0.70995116 0.072907791 0.99276453
1.7293261 0.70994139 0.075133815 0.99254435
1.7931347 0.70995116 0.077512242 0.99230921
1.94583 0.6593945 0.082573965 0.99180901
1.945498 -0.68664062 0.082920648 0.99177492
1.9451758 -0.71414059 0.08328262 0.99173909
1.861123 -0.70994139 0.080059431 0.99205756
1.7293164 -0.70995116 0.075133666 0.99254441
1.6693066 -0.70994139 0.072907865 0.99276441
1.6127245 -0.70995116 0.070821039 0.99297082
1.460791 -0.70995116 0.065278284 0.99351913
1.4152637 -0.70994139 0.063638002 0.99368155
1.3719629 -0.70995116 0.062087324 0.99383503
1.3307226 -0.70994139 0.06062023 0.99398029
