# .PCD v0.7 - Point Cloud Data file format
VERSION 0.7
FIELDS x y z intensity
SIZE 4 4 4 4
TYPE F F F F
COUNT 1 1 1 1
WIDTH 1082
HEIGHT 1
VIEWPOINT 0 0 0 1 0 0 0
POINTS 1082
DATA ascii
5.1331053 5.7491503 -0.43818393 0.96959317
5.3768845 5.5834961 -0.44070169 0.96942109
5.4587598 5.5277734 -0.44168463 0.96935403
5.5409861 5.4717774 -0.44273821 0.96928197
5.6235838 5.4154587 -0.4438653 0.96920502
5.7066112 5.3588376 -0.44506621 0.96912289
5.8739352 5.2445312 -0.44769499 0.96894348
6.044404 5.1296387 -0.45071623 0.96873719
6.1305466 5.071631 -0.45235327 0.96862555
6.3048534 4.9542966 -0.4558799 0.9683848
1.2583886 0.84368163 -0.086135902 0.99394846
1.2586719 0.79876953 -0.08475361 0.99404526
1.2587988 0.77683592 -0.084098317 0.99409115
1.2590528 0.73395509 -0.082856104 0.99417818
1.2913769 0.70993161 -0.083783761 0.99411327
1.3307519 0.70994139 -0.085750654 0.99397534
1.3719727 0.70993161 -0.087826081 0.99383008
1.4152637 0.70994139 -0.090019375 0.99367648
1.4608008 0.70994139 -0.092339933 0.99351394
1.5087304 0.70993161 -0.09479858 0.99334186
1.5592773 0.70993161 -0.097407378 0.99315929
1.6692773 0.70994139 -0.10313205 0.99275875
1.8611132 0.70994139 -0.11324867 0.99205118
2.0240624 0.71435547 -0.12203228 0.99143732
8.4421186 2.5102832 -0.50073493 0.96532869
8.502471 2.2973242 -0.50072813 0.96532893
8.5305853 2.1902831 -0.50072497 0.96532929
8.557353 2.0829003 -0.50072199 0.96532959
8.5828314 1.9751855 -0.50071913 0.96532971
8.6510248 1.6502734 -0.50071156 0.9653303
8.7069921 1.3230176 -0.50070542 0.9653306
8.7229004 1.2135156 -0.50070369 0.96533072
8.7505856 0.99391598 -0.50070071 0.96533096
8.762373 0.88385743 -0.50069946 0.96533102
8.7956343 0.44248044 -0.50069606 0.96533132
8.8060446 -0.11067382 -0.50069547 0.96533138
8.8039846 -0.22130859 -0.50069582 0.96533126
8.7956839 -0.44249022 -0.50069702 0.96533114
8.7727728 -0.77371091 -0.5007 0.96533102
8.762373 -0.88386714 -0.50070137 0.96533102
8.72293 -1.2135059 -0.50070626 0.9653306
8.689765 -1.4323633 -0.50071037 0.96533024
8.6297359 -1.7588965 -0.5007177 0.96532977
8.5829096 -1.9751953 -0.5007233 0.96532941
8.5574408 -2.0829296 -0.5007264 0.96532923
8.5306244 -2.1903124 -0.50072968 0.96532911
8.5025482 -2.2973535 -0.50073302 0.96532863
8.4730272 -2.404043 -0.50073659 0.96532851
8.4422169 -2.5103319 -0.50074029 0.96532828
8.410078 -2.6162305 -0.5007441 0.96532798
2.0240428 -0.6859082 -0.12150371 0.99147433
1.9337207 -0.70996094 -0.11711555 0.99178094
1.861123 -0.70996094 -0.1132484 0.99205112
1.7293066 -0.70995116 -0.10628036 0.99253845
1.6692773 -0.70996094 -0.10313167 0.99275869
1.6126952 -0.70996094 -0.10017971 0.99296528
1.5592773 -0.70996094 -0.097406916 0.99315923
1.5087011 -0.70995116 -0.094798125 0.99334192
1.4607714 -0.70996094 -0.09233959 0.993514
1.3307226 -0.70995116 -0.085750461 0.99397546
1.2591699 -0.71297848 -0.082267493 0.99421936
1.2589356 -0.75525391 -0.083465882 0.99413538
1.2586719 -0.79878902 -0.084753565 0.9940452
1.2585254 -0.82106441 -0.085432507 0.99399769
1.2583984 -0.84370112 -0.086135827 0.9939484
5.5042677 -4.3252149 -0.39799353 0.97234315
5.3376074 -4.5298243 -0.39801306 0.97234178
5.1633496 -4.7280273 -0.39803353 0.9723404
5.1036034 -4.7926168 -0.39804053 0.97233999
5.0430861 -4.8564548 -0.39804763 0.97233945
4.9196286 -4.9818358 -0.39806208 0.97233844
4.7930565 -5.1040821 -0.39807692 0.97233742
3.6468651 -3.9826562 -0.30700839 0.97859704
3.5758398 -4.0049901 -0.30524763 0.97871888
3.5439551 -4.0711427 -0.3068721 0.978607
4.5309176 -5.3388672 -0.39810759 0.97233528
4.4635348 -5.3955078 -0.39811549 0.97233474
4.3954883 -5.4512696 -0.39812347 0.97233421
3.8268261 -5.865859 -0.39818993 0.97232968
3.7528906 -5.9136033 -0.39819854 0.97232914
3.6032617 -6.0063376 -0.39821601 0.97232783
3.451328 -6.0952344 -0.39823374 0.9723267
2.1854882 -3.97541 -0.25791857 0.98198867
2.0667577 -3.9940135 -0.25567353 0.982144
2.0476563 -4.0819335 -0.25963452 0.98186994
3.0621386 -6.3006539 -0.39827919 0.97232354
2.9828222 -6.3387694 -0.39828846 0.97232294
2.7419629 -6.4471383 -0.3983165 0.97232103
2.6608007 -6.4812694 -0.39832595 0.97232026
2.5791893 -6.5143356 -0.39833549 0.97231972
2.3320117 -6.6074023 -0.39836428 0.9723177
1.9972851 -6.7168555 -0.39840329 0.97231513
1.9127636 -6.7416015 -0.39841312 0.97231442
1.8279589 -6.7652731 -0.39842299 0.9723137
1.7428417 -6.7878904 -0.39843288 0.97231299
1.6574316 -6.8094139 -0.39844283 0.97231239
1.4858691 -6.8492575 -0.39846283 0.97231102
0.6002441 -3.950166 -0.22715847 0.98411959
0.55517578 -3.990664 -0.2290682 0.98398715
0.87856442 -6.9545407 -0.39853343 0.97230619
0.70355469 -6.9747753 -0.39855376 0.97230476
0.35225585 -7.0020504 -0.39859459 0.9723019
0.088095702 -7.010869 -0.39862525 0.97229987
-9.7656248e-06 -7.011611 -0.39863548 0.97229916
-0.1762207 -7.0097556 -0.39865595 0.97229779
-0.44033203 -6.9986911 -0.39868659 0.97229558
-0.52825195 -6.992754 -0.39869681 0.97229499
-0.61608398 -6.9857616 -0.398707 0.97229427
-0.966416 -6.9466891 -0.39874762 0.97229147
-1.0536425 -6.9341602 -0.39875779 0.97229081
-1.2276367 -6.905859 -0.3987779 0.97228938
-0.80376953 -3.9435644 -0.2288143 0.98400474
-0.90497071 -3.9323633 -0.22941248 0.98396331
-1.6590527 -6.8159862 -0.39882794 0.97228599
-1.8299121 -6.7724805 -0.39884773 0.97228462
-1.9149121 -6.7491307 -0.39885756 0.9722839
-2.0839942 -6.6991892 -0.39887714 0.97228265
-2.2518163 -6.6450391 -0.39889655 0.97228128
-2.3351758 -6.6163864 -0.39890623 0.97228056
-2.4181836 -6.5866599 -0.39891583 0.97228003
-2.5830956 -6.5241404 -0.3989349 0.97227859
-2.7463574 -6.4574609 -0.39895377 0.97227734
-2.9079003 -6.3867283 -0.39897245 0.97227597
-2.9879882 -6.3498044 -0.39898172 0.97227544
-3.0675976 -6.3118944 -0.39899093 0.9722749
-3.2254198 -6.2331052 -0.39900917 0.97227353
-3.3035545 -6.1922169 -0.3990182 0.97227299
-2.2934179 -3.9341404 -0.25889927 0.98192078
-2.4205663 -3.9223046 -0.26204163 0.98170334
-3.7611132 -5.9265723 -0.39907104 0.9722693
-4.054502 -5.7306051 -0.39910492 0.97226691
-4.1262498 -5.679316 -0.39911318 0.97226644
-4.2678614 -5.5740528 -0.39912951 0.9722653
-4.3376465 -5.5200977 -0.39913756 0.97226477
-4.4751759 -5.4095602 -0.39915344 0.97226369
-4.5428905 -5.3530173 -0.39916122 0.9722631
-4.7416797 -5.1782517 -0.39918411 0.97226167
-4.8064842 -5.1183786 -0.39919159 0.97226101
-3.7822461 -3.9275877 -0.31000155 0.97839111
-3.8372068 -3.8857226 -0.31047899 0.97835815
-4.9962401 -4.9338474 -0.3992134 0.97225958
-1.0281152 -0.9179492 -0.078359641 0.99449319
-1.028457 -0.87279296 -0.076688193 0.99461031
-1.0289062 -0.80849606 -0.074395329 0.99477106
-1.0292969 -0.74782223 -0.072334133 0.99491566
-1.0294336 -0.72833008 -0.071694337 0.99496049
-1.0306739 -0.70994139 -0.071153216 0.9949984
-1.0882422 -0.70994139 -0.07387165 0.99480778
-1.1187011 -0.70995116 -0.075328402 0.99470568
-1.15042 -0.70995116 -0.076856382 0.99459851
-1.2178613 -0.70996094 -0.080145225 0.99436808
-1.2538183 -0.70997071 -0.081917763 0.9942438
-1.3307226 -0.70995116 -0.085750505 0.99397546
-1.4152734 -0.70996094 -0.09001907 0.99367636
-1.6127245 -0.70996094 -0.10017978 0.99296516
-1.6692871 -0.70996094 -0.10313175 0.99275869
-1.7293261 -0.70996094 -0.10628036 0.99253833
-1.7886719 -0.68231446 -0.10884041 0.9923594
-1.7885938 -0.65666014 -0.1083247 0.99239546
-8.3741503 -2.8377538 -0.50269318 0.96519536
-8.4429388 -2.6264648 -0.50270098 0.96519488
-8.4753418 -2.5201757 -0.50270462 0.96519464
-8.5644722 -2.1989746 -0.50271463 0.96519399
-8.5914936 -2.0912206 -0.50271767 0.96519369
-8.6171188 -1.9830761 -0.50272053 0.96519363
-8.6643457 -1.7659374 -0.50272578 0.96519315
-8.7060547 -1.5476562 -0.50273037 0.96519291
-8.724844 -1.4381348 -0.50273246 0.96519279
-8.7583199 -1.2184179 -0.50273609 0.96519244
-8.7980757 -0.88747066 -0.50274032 0.9651922
-8.8253517 -0.55524415 -0.50274318 0.9651919
-8.8316212 -0.44430664 -0.50274378 0.96519196
-8.8400288 -0.22221678 -0.5027445 0.96519184
-8.8421087 -0.11112305 -0.50274467 0.9651919
-8.429101 0.10591797 -0.50269645 0.96678519
-8.4271193 0.21183594 -0.5026961 0.96678513
-8.4191113 0.42354491 -0.50269496 0.96678519
-8.4057913 0.63497066 -0.50269318 0.96678525
-8.3971186 0.7405566 -0.50269204 0.96678537
-8.3871384 0.84600586 -0.50269079 0.96678543
-8.3631735 1.0565137 -0.50268781 0.96678567
-8.3492088 1.1615039 -0.50268608 0.96678579
-8.3339453 1.2663281 -0.50268418 0.96678579
-8.3173141 1.3709472 -0.50268215 0.96678603
-8.2994137 1.4753613 -0.50267994 0.96678609
-8.2595997 1.6834375 -0.50267506 0.96678656
-8.2377834 1.7870898 -0.50267243 0.96678662
-8.1644526 2.0962694 -0.50266361 0.9667871
-8.1090527 2.3007421 -0.50265694 0.96678764
-8.0485744 2.5037694 -0.50264972 0.96678805
-8.0164156 2.6046972 -0.50264585 0.96678829
-7.9482908 2.8052733 -0.50263774 0.96678889
-1.7894726 0.65696287 -0.11367527 0.99239051
-1.7895508 0.68263668 -0.1142168 0.99235445
-1.7896484 0.70855469 -0.11478187 0.99231678
-1.5592871 0.70994139 -0.10216983 0.99315816
-1.5087109 0.70993161 -0.099433251 0.99334085
-1.3307421 0.70994139 -0.089943349 0.99397439
-1.1834472 0.70993161 -0.08229652 0.99448526
-1.1186913 0.70994139 -0.079011843 0.99470484
-1.0882422 0.70994139 -0.077483632 0.99480695
-1.028623 0.74733394 -0.075819701 0.99491817
-1.028496 0.76715821 -0.076514207 0.99487168
-1.0283399 0.78734374 -0.077233694 0.99482369
-1.0281836 0.80792969 -0.077978745 0.99477386
-1.0280371 0.82891601 -0.078750916 0.99472225
-1.027539 0.89447266 -0.081239812 0.99455589
-1.0271777 0.94055665 -0.083054423 0.99443465
-6.0686817 5.8440819 -0.50241625 0.96680325
-5.8437986 6.0683398 -0.50238991 0.96680498
-5.7669435 6.1411915 -0.50238091 0.96680564
-5.5311327 6.3538475 -0.50235331 0.96680725
-5.4507422 6.4227147 -0.50234389 0.96680796
-5.3695021 6.4905758 -0.50233442 0.96680856
-5.2044821 6.6232224 -0.5023151 0.96680981
-5.1207519 6.6879687 -0.50230527 0.96681046
-5.0361915 6.7516503 -0.50229543 0.96681112
-4.9508495 6.8142772 -0.50228542 0.96681178
-4.8647461 6.8758202 -0.50227541 0.96681237
-4.7778611 6.9362597 -0.50226521 0.96681303
-4.6018553 7.0538278 -0.50224465 0.96681446
-4.3324509 7.2218161 -0.50221318 0.96681648
-4.1494236 7.3281054 -0.50219184 0.96681786
-4.0569139 7.3795114 -0.50218105 0.96681857
-3.963789 7.4297462 -0.50217015 0.96681923
-3.8700194 7.4788084 -0.50215924 0.96681994
-3.7756543 7.52666 -0.50214821 0.96682078
-3.5851758 7.6188574 -0.50212598 0.96682209
-3.2952342 7.7480273 -0.50209218 0.96682435
-3.0993359 7.8280468 -0.50206941 0.96682578
-3.0006542 7.8661914 -0.50205785 0.96682656
-2.9015234 7.9030957 -0.50204629 0.96682727
-2.8019238 7.9387598 -0.50203472 0.96682799
-2.701875 7.973125 -0.5020231 0.96682888
-2.6013963 8.0062599 -0.50201136 0.96682966
-2.297627 8.0980663 -0.50197601 0.96683192
-1.9906445 8.1783295 -0.50194025 0.96683419
-1.6808691 8.246933 -0.50190419 0.96683663
-1.5770508 8.2672262 -0.50189215 0.96683735
-1.4730078 8.2862005 -0.50188005 0.96683806
-1.3687304 8.3038473 -0.50186795 0.9668389
-1.1595801 8.3352051 -0.50184357 0.96684051
-1.0547168 8.3489256 -0.50183141 0.96684128
-0.73923826 8.3821383 -0.50179476 0.96684366
-0.42277342 8.4034271 -0.50175798 0.96684605
-0.31713867 8.4078712 -0.5017457 0.96684682
0.21141601 8.4101658 -0.50168431 0.96685082
0.42268553 8.4017868 -0.50165981 0.96685243
0.94926757 8.357646 -0.50159872 0.96685636
1.0541797 8.3448439 -0.5015865 0.96685725
1.1589551 8.3307323 -0.5015744 0.96685803
1.2635058 8.3153124 -0.50156224 0.9668588
1.5758984 8.2612009 -0.50152606 0.96686113
1.6795605 8.2405462 -0.50151402 0.9668619
1.8860058 8.1953316 -0.50149012 0.96686351
2.0912695 8.1449709 -0.50146633 0.966865
2.1934083 8.1178713 -0.50145447 0.96686572
2.3966014 8.0597754 -0.50143093 0.96686739
2.5982714 7.9966502 -0.50140762 0.96686882
3.1928124 7.7771387 -0.50133884 0.96687329
3.290205 7.7362304 -0.50132751 0.96687406
3.3870897 7.6941113 -0.50131637 0.96687472
3.4834278 7.6507711 -0.50130522 0.96687549
3.5792186 7.6062107 -0.50129414 0.96687621
3.9497364 7.1845312 -0.48891264 0.96768093
4.0187402 7.0973239 -0.48637655 0.96784586
4.1546874 6.9255176 -0.48160747 0.96815604
4.2216992 6.8408494 -0.4793708 0.96830153
4.4839063 6.5095019 -0.47136539 0.96882272
4.6752439 6.2677441 -0.46629483 0.96915275
4.7381349 6.188252 -0.46477529 0.96925181
4.8006444 6.1092868 -0.46333766 0.96934533
4.8627539 6.0307813 -0.46198171 0.96943367
4.9245214 5.9527245 -0.46070716 0.96951675
4.9859571 5.8750877 -0.4595122 0.96959466
5.1294823 5.7450876 -0.45928374 0.96960944
5.3740134 5.5805173 -0.46200278 0.96943229
5.5387692 5.4696093 -0.46420074 0.96928912
5.7052245 5.3575683 -0.46671623 0.96912527
5.7891502 5.3010545 -0.468095 0.96903557
5.9585838 5.1870117 -0.47110245 0.9688397
6.1302829 5.0714159 -0.47444877 0.96862185
6.3045702 4.954072 -0.47814745 0.96838117
6.3927341 4.8946972 -0.48013324 0.96825206
1.2579882 0.77632809 -0.088153839 0.99409401
1.2581054 0.75474608 -0.087491341 0.9941383
1.2582421 0.73348629 -0.086852342 0.99418092
1.2583593 0.7125293 -0.086235881 0.99422216
1.2913769 0.70993161 -0.087880358 0.99411231
1.4152637 0.70994139 -0.094420619 0.99367547
1.5592773 0.70993161 -0.10216987 0.99315822
1.7931249 0.70994139 -0.11500636 0.99230188
1.9337401 0.70995116 -0.12284229 0.99177957
2.0239942 0.71434569 -0.12799427 0.99143618
2.0239942 0.65762693 -0.12690967 0.99150854
8.018672 2.4944627 -0.5007841 0.96690941
8.0787201 2.2921484 -0.50077736 0.96690983
8.1068554 2.1904395 -0.5007742 0.96690995
8.1336718 2.0883789 -0.50077116 0.96691018
8.1592474 1.985996 -0.5007683 0.9669103
8.183486 1.8833008 -0.50076562 0.9669106
8.2064743 1.7802832 -0.50076306 0.96691072
8.2281733 1.6770312 -0.50076061 0.96691084
8.3170795 1.157041 -0.5007509 0.96691144
8.3434668 0.94766599 -0.50074804 0.96691167
8.3547163 0.84274411 -0.50074685 0.96691167
8.3646193 0.73769528 -0.50074577 0.96691179
8.3731833 0.63251954 -0.50074494 0.96691197
8.386445 0.4219043 -0.50074357 0.96691191
8.3943844 0.21101563 -0.50074291 0.96691197
8.3943844 -0.21102539 -0.50074333 0.96691197
8.3732424 -0.63252926 -0.50074625 0.96691173
8.3435059 -0.94767576 -0.50075001 0.96691155
8.3309565 -1.0524511 -0.50075161 0.96691144
8.2486029 -1.5735059 -0.50076175 0.96691078
8.2282324 -1.6770507 -0.50076425 0.96691054
8.206543 -1.7803222 -0.50076687 0.96691042
8.1835737 -1.8833106 -0.50076962 0.96691024
8.1593065 -1.9860156 -0.50077254 0.96691006
8.0788088 -2.2921777 -0.50078225 0.96690941
8.0494041 -2.3935254 -0.50078577 0.96690929
8.0187893 -2.4945018 -0.5007894 0.96690893
2.0239942 -0.65764648 -0.12690975 0.99150848
2.0239942 -0.71435547 -0.1279943 0.99143618
1.861123 -0.70996094 -0.11878559 0.99204987
1.7293066 -0.70995116 -0.11147682 0.99253726
1.6692773 -0.70996094 -0.10817432 0.99275756
1.5592871 -0.70995116 -0.10216957 0.9931581
1.5087011 -0.70995116 -0.099433132 0.99334085
1.4607714 -0.70996094 -0.096854284 0.99351293
1.4152539 -0.70995116 -0.094420314 0.99367547
1.3719629 -0.70996094 -0.092120051 0.99382907
1.2913867 -0.70996094 -0.087879978 0.99411219
1.2583691 -0.71254879 -0.086236037 0.99422204
1.2581152 -0.75477535 -0.087491378 0.99413818
1.2575586 -0.84315425 -0.090288237 0.99395138
1.2574121 -0.86615235 -0.091051593 0.99390036
1.2572558 -0.88955075 -0.091842495 0.99384755
1.2570801 -0.91333008 -0.092661552 0.99379295
5.2994142 -4.0575781 -0.39801699 0.97360945
5.2480955 -4.1238866 -0.39802304 0.97360909
5.1429491 -4.2546191 -0.39803538 0.97360826
4.9791894 -4.4456444 -0.3980546 0.973607
4.6906052 -4.7499313 -0.39808846 0.9736048
3.6468749 -3.9826562 -0.322014 0.97859359
4.3199511 -5.0903125 -0.39813185 0.97360194
4.1908298 -5.1974607 -0.39814696 0.97360098
4.1252732 -5.2498145 -0.39815465 0.97360045
4.0590429 -5.3013477 -0.39816236 0.97359997
3.9921777 -5.3520408 -0.39817014 0.97359943
3.9247069 -5.401875 -0.39817804 0.97359896
3.8565917 -5.4508886 -0.39818603 0.97359836
3.6486328 -5.5927148 -0.39821032 0.97359675
3.5781543 -5.6382422 -0.39821854 0.97359622
3.4354589 -5.7266212 -0.3982352 0.97359514
3.3633204 -5.769453 -0.39824364 0.97359461
2.0476563 -4.081943 -0.27233034 0.98186702
2.9195116 -6.0071969 -0.39829543 0.97359121
2.3023047 -6.2710156 -0.39836738 0.9735865
2.2233789 -6.2995701 -0.39837658 0.97358596
2.1440918 -6.327158 -0.39838579 0.97358537
2.0644531 -6.3537793 -0.39839506 0.97358465
1.9042284 -6.403945 -0.39841372 0.97358346
1.8236523 -6.4274998 -0.39842311 0.97358292
1.7427832 -6.4500585 -0.39843252 0.97358233
1.6616406 -6.471611 -0.398442 0.97358167
1.4985352 -6.5116405 -0.39846095 0.97358042
1.4166601 -6.5301075 -0.39847049 0.97357976
1.2521386 -6.5639744 -0.39848959 0.97357851
0.6002441 -3.950166 -0.23826531 0.98411703
0.75424802 -6.6406054 -0.3985475 0.9735747
0.50345701 -6.6648045 -0.39857665 0.97357279
0.33583984 -6.6756639 -0.39859614 0.9735716
0.25193357 -6.6795406 -0.39860588 0.97357088
0.16799805 -6.6823144 -0.39861563 0.97357035
0.084003903 -6.684082 -0.3986254 0.97356963
-9.7656248e-06 -6.6847458 -0.39863512 0.9735691
-0.083984375 -6.6843944 -0.39864489 0.97356838
-0.50362301 -6.6667576 -0.39869362 0.97356516
-0.58734375 -6.6600585 -0.39870331 0.97356457
-1.0045117 -6.6108203 -0.39875171 0.97356147
-1.0875489 -6.5978513 -0.39876133 0.97356075
-1.1703906 -6.5838184 -0.39877093 0.97356015
-1.2530664 -6.5687695 -0.39878049 0.97355944
-0.80376953 -3.9435644 -0.24000198 0.98400217
-0.90497071 -3.9323633 -0.24062955 0.98396075
-1.7445703 -6.4566402 -0.39883748 0.97355568
-1.8255762 -6.4343357 -0.39884683 0.97355521
-1.9063476 -6.4110446 -0.39885619 0.97355455
-2.2262695 -6.307744 -0.39889324 0.97355217
-2.4625976 -6.2197948 -0.3989206 0.97355032
-2.5405955 -6.1884961 -0.39892963 0.97354978
-2.7722363 -6.0887594 -0.39895642 0.97354794
-2.8485839 -6.0535741 -0.39896521 0.9735474
-2.9244921 -6.0174122 -0.398974 0.97354692
-3.1494238 -5.9033103 -0.39900002 0.97354513
-2.2934179 -3.9341404 -0.27155805 0.98191786
-2.3418846 -3.9037011 -0.27146721 0.98192388
-3.5856054 -5.6500096 -0.39905035 0.97354186
-3.6564062 -5.6046386 -0.39905855 0.97354126
-3.7266111 -5.5583496 -0.39906666 0.97354078
-3.7962596 -5.5111914 -0.3990747 0.97354025
-3.8652732 -5.4631639 -0.39908263 0.97353971
-3.9336913 -5.4142675 -0.39909053 0.97353923
-4.0686817 -5.3139257 -0.39910614 0.97353816
-4.1352048 -5.2624707 -0.3991138 0.97353768
-4.2662988 -5.1570897 -0.39912891 0.97353673
-4.4578905 -4.9928808 -0.39915097 0.9735353
-4.5821385 -4.8794627 -0.39916527 0.97353429
-3.7822461 -3.9275975 -0.32515892 0.97838759
-4.7630177 -4.7035446 -0.39918607 0.97353297
-4.821836 -4.6433787 -0.39919287 0.97353256
-4.8798828 -4.5825095 -0.39919952 0.97353208
-1.0271777 -0.94058591 -0.083054468 0.9944346
-1.0273535 -0.91728514 -0.082130775 0.99449635
-1.0276855 -0.87216794 -0.080380365 0.99461341
-1.0278614 -0.8503418 -0.079551086 0.99466872
-1.0280371 -0.82892579 -0.078751102 0.99472219
-1.0283593 -0.78736329 -0.077233277 0.99482358
-1.0589257 -0.70995116 -0.076025046 0.9949044
-1.0882422 -0.70994139 -0.077483401 0.99480695
-1.1186913 -0.70996094 -0.079011574 0.99470484
-1.1504102 -0.70996094 -0.08061409 0.99459767
-1.1834375 -0.70997071 -0.082296446 0.9944852
-1.2538183 -0.70997071 -0.085922815 0.99424291
-1.2913867 -0.70997071 -0.087879978 0.99411219
-1.3307226 -0.70995116 -0.089943007 0.99397445
-1.3719823 -0.70996094 -0.092120208 0.99382895
-1.6692871 -0.70996094 -0.10817463 0.9927575
-1.7896191 -0.70857418 -0.11478203 0.99231684
-1.789541 -0.68265623 -0.11421695 0.99235445
-8.0165033 -2.6047168 -0.50265145 0.96678793
-8.0795507 -2.4024706 -0.50265855 0.96678746
-8.1091499 -2.3007812 -0.50266188 0.96678722
-8.1902437 -1.9935352 -0.50267094 0.96678668
-8.2378416 -1.7870996 -0.50267625 0.96678638
-8.3173828 -1.3709668 -0.50268507 0.96678579
-8.3492384 -1.1615235 -0.50268853 0.96678567
-8.3758297 -0.95134765 -0.50269139 0.96678549
-8.4058104 -0.63499022 -0.50269455 0.96678519
-8.4131441 -0.52930665 -0.50269532 0.96678513
-8.4191303 -0.42354491 -0.50269586 0.96678513
-8.4237986 -0.31771484 -0.50269628 0.96678507
-8.4271383 -0.21183594 -0.50269657 0.96678501
-8.429121 -0.1059375 -0.50269669 0.96678507
-8.0528708 0.10121094 -0.50265276 0.96823859
-8.0433302 0.40464842 -0.50265133 0.96823865
-8.0305958 0.60663086 -0.50264966 0.96823871
-8.0127735 0.80825192 -0.5026474 0.96823889
-7.9619532 1.2098144 -0.50264108 0.96823925
-7.8909764 1.6083105 -0.50263238 0.96823978
-7.8700781 1.7073241 -0.50262982 0.96824002
-7.8479977 1.8060839 -0.50262719 0.96824008
-7.8246093 1.904541 -0.50262433 0.96824038
-7.7188377 2.2952051 -0.50261164 0.96824116
-7.6893454 2.3920116 -0.50260812 0.96824133
-7.6266894 2.5844531 -0.50260067 0.96824181
-7.5935545 2.6800683 -0.50259668 0.96824205
-1.7903417 0.65727538 -0.11903351 0.99238557
-1.7904004 0.68296874 -0.11960079 0.99234951
-1.6693066 0.70994139 -0.11321861 0.99275625
-1.6127245 0.70994139 -0.10997783 0.9929629
-1.5592871 0.70994139 -0.10693394 0.99315697
-1.4608008 0.70995116 -0.10137112 0.9935118
-1.4152832 0.70994139 -0.09882351 0.99367434
-1.2538086 0.70993161 -0.089929543 0.99424201
-1.2178613 0.70994139 -0.087984197 0.99436623
-1.1834472 0.70993161 -0.086133957 0.99448431
-1.1504004 0.70993161 -0.084373318 0.99459684
-1.0279199 0.7468164 -0.079301834 0.99492079
-1.0273242 0.82832026 -0.08236549 0.99472505
-1.0271484 0.84971678 -0.083201788 0.99467164
-1.0267968 0.89382809 -0.084966622 0.99455893
-5.7979493 5.5833788 -0.50238508 0.96825516
-5.7272263 5.6557031 -0.50237679 0.9682557
-5.5831151 5.7976465 -0.50235993 0.96825671
-5.509697 5.8672361 -0.50235134 0.96825737
-5.2075877 6.13624 -0.50231594 0.96825951
-4.9723434 6.3278027 -0.50228846 0.96826118
-4.8923435 6.389668 -0.5022791 0.96826178
-4.8115821 6.4505177 -0.50226969 0.96826237
-4.6477928 6.5691404 -0.50225049 0.96826357
-4.4810548 6.6836033 -0.502231 0.96826476
-4.3966212 6.7392578 -0.50222117 0.96826541
-4.3115039 6.793828 -0.50221121 0.96826607
-4.1392579 6.8997555 -0.50219113 0.96826726
-4.0521388 6.9510837 -0.50218093 0.96826792
-3.9643848 7.001328 -0.50217068 0.96826851
-3.7870507 7.0984569 -0.50215 0.96826977
-3.6974707 7.1453123 -0.50213951 0.96827048
-3.6073046 7.1910543 -0.50212902 0.9682712
-3.5165918 7.235693 -0.50211847 0.96827173
-3.4253027 7.27915 -0.5021078 0.96827245
-3.3334863 7.321455 -0.50209713 0.9682731
-3.1483202 7.4026074 -0.50207555 0.96827441
-3.0549805 7.4414062 -0.50206465 0.96827513
-2.7721777 7.5507812 -0.50203168 0.9682771
-2.6769922 7.5848436 -0.5020206 0.96827787
-2.4854393 7.6493649 -0.50199831 0.9682793
-2.2923338 7.7090816 -0.50197583 0.96828061
-2.1952245 7.7370896 -0.50196451 0.96828139
-2.0977733 7.7638965 -0.50195312 0.96828204
-2.0000098 7.7894726 -0.5019418 0.96828276
-1.8035449 7.836904 -0.50191891 0.96828419
-1.6059473 7.8794041 -0.5018959 0.96828562
-1.4073633 7.916914 -0.50187284 0.96828705
-1.0077051 7.9768944 -0.50182635 0.96828991
-0.90738279 7.9887204 -0.50181466 0.96829069
-0.80688477 7.9993162 -0.50180298 0.9682914
-0.70629883 8.0086327 -0.50179136 0.96829212
-0.50478512 8.0234671 -0.50176793 0.96829361
-0.4039453 8.0289841 -0.50175619 0.96829438
-0.20202148 8.0362501 -0.50173277 0.96829575
0.10100586 8.0375776 -0.50169754 0.96829796
0.60541993 8.0144339 -0.50163901 0.96830165
0.70607418 8.0060349 -0.50162733 0.96830225
0.80659175 7.9963379 -0.50161564 0.96830302
1.2072265 7.9449606 -0.50156921 0.96830595
1.3069433 7.9289942 -0.50155765 0.9683066
1.6047461 7.8735352 -0.50152314 0.96830887
1.7035155 7.8525681 -0.50151169 0.96830958
1.8020215 7.8303709 -0.50150025 0.96831024
1.9002343 7.8069434 -0.50148886 0.96831089
2.0957325 7.7563477 -0.50146621 0.96831244
2.386416 7.6713476 -0.50143254 0.96831447
2.4825683 7.6405759 -0.50142139 0.96831518
2.6736815 7.575459 -0.50139928 0.9683165
2.7686036 7.5410933 -0.50138837 0.96831721
2.9571092 7.4688277 -0.50136656 0.96831852
3.3283594 7.3101854 -0.50132358 0.96832114
3.6911328 7.1331248 -0.50128168 0.96832377
3.8690624 7.0378027 -0.50126112 0.96832514
3.9571288 6.9884958 -0.50125092 0.96832573
4.0445604 6.9380856 -0.50124085 0.96832633
4.1313281 6.8865719 -0.50123078 0.96832699
4.3539157 6.673789 -0.49734169 0.9685688
4.4839063 6.5095019 -0.49334326 0.96881753
4.8006444 6.1092868 -0.48494232 0.96934021
5.2104197 5.690166 -0.48154745 0.96955174
5.3737597 5.5802732 -0.48352507 0.96942854
5.4559569 5.524951 -0.48463389 0.96935946
5.5385251 5.4693556 -0.48582521 0.96928537
5.6215234 5.413496 -0.48709917 0.96920604
5.7049704 5.3573241 -0.48845795 0.96912152
5.9583006 5.1867771 -0.49304736 0.96883595
6.0438476 5.1291895 -0.49475363 0.96872979
6.1299901 5.0711718 -0.49654928 0.96861815
1.25625 0.91272461 -0.09691707 0.99379599
1.2568945 0.81998044 -0.093666039 0.99400347
1.2571777 0.77583981 -0.092205197 0.99409676
1.2574512 0.73301756 -0.090844877 0.9941836
1.2575977 0.71208984 -0.09020061 0.99422467
1.3307519 0.70994139 -0.094137415 0.99397337
1.3719727 0.70993161 -0.096415862 0.993828
1.4152637 0.70994139 -0.098823547 0.9936744
1.4608008 0.70994139 -0.10137085 0.9935118
1.5592773 0.70993161 -0.10693412 0.99315703
1.6127148 0.70994139 -0.10997814 0.9929629
1.6692773 0.70994139 -0.11321903 0.99275637
1.7293164 0.70993161 -0.11667526 0.99253595
1.7931249 0.70994139 -0.12036907 0.99230057
1.8611327 0.70995116 -0.1243248 0.9920485
1.9337401 0.70995116 -0.12857051 0.99177814
2.023916 0.68583983 -0.13337734 0.99147207
2.023916 0.65759766 -0.13282268 0.99150741
7.7463083 2.0930078 -0.50081617 0.96835279
7.7963767 1.897666 -0.50081056 0.96835309
7.8195505 1.7995312 -0.500808 0.96835333
7.8415332 1.7011328 -0.5008055 0.96835339
7.8817186 1.5035156 -0.50080109 0.96835375
7.8999801 1.4043554 -0.50079906 0.96835375
7.9326949 1.205371 -0.50079548 0.96835411
7.9471874 1.1055859 -0.50079387 0.96835423
7.9926367 0.7048828 -0.50078905 0.96835446
8.0008593 0.60438478 -0.50078815 0.96835446
8.01791 0.30241209 -0.50078648 0.96835464
8.0210838 0.20164062 -0.50078624 0.96835464
8.0235939 -0 -0.50078619 0.9683547
8.0229788 -0.10083008 -0.50078636 0.96835464
7.9604883 -1.0056542 -0.50079459 0.96835405
7.9327536 -1.2053808 -0.50079805 0.96835387
7.9170117 -1.3049902 -0.50079995 0.96835375
7.9000096 -1.4043554 -0.50080204 0.96835369
7.8622851 -1.6024609 -0.50080663 0.96835339
7.8415723 -1.7011425 -0.50080913 0.96835321
7.8196287 -1.7995605 -0.50081182 0.96835303
7.7720213 -1.9955273 -0.50081754 0.96835268
7.7463865 -2.0930469 -0.50082058 0.96835244
7.7195115 -2.1902442 -0.5008238 0.96835232
7.6914353 -2.28708 -0.50082719 0.96835208
7.6621289 -2.3835645 -0.50083065 0.9683519
2.023916 -0.71433592 -0.13395806 0.99143505
1.9337207 -0.70996094 -0.1285698 0.99177819
1.7293066 -0.70995116 -0.11667488 0.99253595
1.5592773 -0.70996094 -0.10693351 0.99315697
1.5087011 -0.70995116 -0.10406959 0.99333972
1.4152539 -0.70995116 -0.098823242 0.9936744
1.3719629 -0.70996094 -0.096415706 0.993828
1.2913867 -0.70996094 -0.09197773 0.99411124
1.2573242 -0.75429684 -0.091512792 0.99414092
1.257041 -0.79775387 -0.092922702 0.99405092
1.2567383 -0.84259766 -0.094436184 0.9939543
1.256582 -0.86557615 -0.095234223 0.9939034
1.256416 -0.88894528 -0.096060671 0.99385065
1.2562597 -0.91272461 -0.09691719 0.99379593
1.256084 -0.93694335 -0.097804144 0.99373931
5.0636621 -3.8770604 -0.3980442 0.97476429
4.9141603 -4.0653415 -0.39806175 0.97476315
4.7576561 -4.2478614 -0.39808014 0.97476208
4.6495509 -4.3662109 -0.39809281 0.97476131
4.481914 -4.5385742 -0.39811245 0.97476006
4.4245896 -4.5946288 -0.39811915 0.97475964
4.3665919 -4.6499314 -0.39812595 0.97475922
3.6468749 -3.9826562 -0.33703426 0.97859001
3.5439649 -4.0711522 -0.33688539 0.97859991
4.1277442 -4.8638086 -0.3981539 0.97475737
4.0043359 -4.9661913 -0.39816836 0.97475648
3.9416893 -5.016201 -0.39817566 0.97475606
3.8784375 -5.0654392 -0.39818308 0.97475553
3.8145409 -5.1138377 -0.39819053 0.97475517
3.7500389 -5.1614747 -0.39819807 0.97475469
3.6849413 -5.2083106 -0.3982057 0.97475421
3.6193066 -5.2542968 -0.39821339 0.97475368
3.4862499 -5.3437891 -0.39822891 0.97475272
3.2825682 -5.4717188 -0.3982527 0.97475123
3.2135937 -5.5126462 -0.39826074 0.97475076
2.1854882 -3.97541 -0.28314373 0.98198277
2.0667577 -3.9940233 -0.28068003 0.98213816
2.0476563 -4.081943 -0.2850301 0.98186398
2.7172656 -5.7744923 -0.39831868 0.97474718
2.6445508 -5.8083105 -0.39832714 0.97474658
2.5714061 -5.8412108 -0.39833567 0.97474605
2.4978709 -5.8731833 -0.39834425 0.97474551
2.4239159 -5.9042382 -0.39835289 0.97474498
2.3495703 -5.9343553 -0.3983615 0.9747445
2.2748632 -5.9635448 -0.39837024 0.9747439
1.8194433 -6.1187792 -0.39842331 0.97474056
1.5876367 -6.1833982 -0.39845029 0.97473902
1.5098437 -6.2030172 -0.39845932 0.97473836
1.3535546 -6.2392774 -0.39847749 0.97473723
0.72065431 -6.3447948 -0.39855111 0.97473264
0.48104492 -6.3679099 -0.39857894 0.97473085
0.40100586 -6.3735838 -0.39858824 0.97473031
0.32086915 -6.3782907 -0.39859757 0.97472966
0.16049804 -6.3846192 -0.39861616 0.97472852
0.080253907 -6.3862791 -0.39862549 0.97472799
-0.080244139 -6.3865914 -0.39864412 0.97472674
-0.16051757 -6.3852344 -0.39865348 0.97472614
-0.24074218 -6.3828516 -0.39866278 0.9747256
-0.32094726 -6.3794823 -0.3986721 0.97472501
-0.72094727 -6.3474803 -0.39871848 0.97472209
-0.80067378 -6.3380466 -0.39872774 0.97472161
-1.1182226 -6.29041 -0.39876455 0.97471923
-1.1972265 -6.2759957 -0.39877373 0.97471863
-0.80376953 -3.9435644 -0.2511929 0.98399949
-0.90497071 -3.9323633 -0.25185028 0.98395807
-1.5890918 -6.1891503 -0.39881912 0.97471583
-1.666787 -6.168828 -0.39882812 0.97471523
-1.7442089 -6.1475291 -0.39883712 0.9747147
-1.9748144 -6.0778317 -0.39886379 0.97471303
-2.1270118 -6.0265527 -0.39888144 0.97471189
-2.2026269 -5.9994726 -0.39889017 0.97471142
-2.2779005 -5.9714646 -0.39889887 0.97471076
-2.352793 -5.9424806 -0.39890754 0.97471035
-2.4273338 -5.9125781 -0.39891616 0.97470975
-2.6486132 -5.8172655 -0.39894176 0.9747082
-2.7940917 -5.7490916 -0.39895859 0.97470719
-2.9378319 -5.6773243 -0.39897522 0.97470599
-3.0089941 -5.6400585 -0.39898342 0.97470558
-3.0796776 -5.6019235 -0.39899158 0.97470504
-2.2705567 -4.0099216 -0.28761122 0.98170108
-2.2934179 -3.9341307 -0.28422028 0.98191488
-2.3418846 -3.9037011 -0.28412583 0.98192084
-3.425703 -5.3980274 -0.39903155 0.97470254
-3.6269238 -5.2654004 -0.3990548 0.97470105
-3.6928809 -5.219502 -0.39906237 0.97470057
-3.7582519 -5.1727929 -0.39906991 0.97470009
-3.8230176 -5.1252537 -0.39907742 0.97469968
-3.8871875 -5.0768943 -0.39908478 0.9746992
-3.9507713 -5.0277438 -0.39909211 0.97469872
-4.0760059 -4.9270411 -0.39910656 0.97469783
-4.1376657 -4.8755274 -0.39911366 0.97469741
-4.1986618 -4.8232226 -0.39912072 0.97469705
-4.3187013 -4.7163477 -0.39913452 0.97469616
-3.7822461 -3.9275975 -0.3403205 0.97838402
-4.6067286 -4.4362402 -0.39916766 0.97469401
-1.0264062 -0.93989253 -0.086862981 0.99443775
-1.0271484 -0.84972656 -0.083201595 0.99467158
-1.0274609 -0.80738282 -0.081558339 0.99477661
-1.0276074 -0.78681642 -0.080779493 0.99482638
-1.0277832 -0.7666406 -0.080027506 0.99487436
-1.1186913 -0.70996094 -0.08269573 0.99470395
-1.1504102 -0.70996094 -0.084373243 0.99459672
-1.2913867 -0.70997071 -0.09197811 0.99411118
-1.3307226 -0.70995116 -0.094137192 0.99397343
-1.4152734 -0.70996094 -0.098823242 0.99367434
-1.5087206 -0.70996094 -0.10406982 0.99333966
-1.5592871 -0.70996094 -0.10693394 0.99315697
-1.6692871 -0.70996094 -0.11321842 0.99275631
-1.7293261 -0.70996094 -0.11667503 0.99253589
-7.6587305 -2.4884765 -0.50260979 0.9682411
-7.6894336 -2.3920507 -0.50261325 0.96824098
-7.7189159 -2.295244 -0.50261658 0.9682408
-7.7742772 -2.1005859 -0.50262278 0.96824032
-7.8000879 -2.0027344 -0.5026257 0.9682402
-7.8480172 -1.8060937 -0.50263101 0.96823996
-7.8701658 -1.7073437 -0.50263351 0.96823967
-7.910625 -1.509043 -0.50263798 0.96823955
-7.9461226 -1.3097656 -0.50264192 0.96823925
-7.9620113 -1.2098242 -0.50264359 0.96823901
-7.9765916 -1.1096972 -0.50264519 0.96823901
-8.0128021 -0.80825192 -0.50264913 0.96823877
-8.0223627 -0.70750976 -0.50265008 0.96823865
-8.0306244 -0.60664064 -0.50265092 0.96823865
-8.0376463 -0.50569338 -0.50265163 0.96823847
-8.0433493 -0.40463865 -0.50265217 0.96823859
-8.0477829 -0.30354491 -0.50265259 0.96823865
-7.7092772 -0 -0.50261301 0.96957004
-7.7037988 0.29056641 -0.50261205 0.96957004
-7.6995506 0.38735351 -0.50261146 0.96956998
-7.6940527 0.48407227 -0.50261068 0.9695701
-7.6794434 0.67726558 -0.50260884 0.96957016
-7.6599412 0.87002927 -0.50260633 0.96957034
-7.6483688 0.9662109 -0.5026049 0.96957052
-7.6356249 1.0622363 -0.50260329 0.96957052
-7.6064548 1.2537793 -0.50259972 0.96957076
-7.5900779 1.3492676 -0.50259775 0.96957082
-7.4419141 2.0107813 -0.50257981 0.96957195
-7.4160252 2.1041112 -0.50257671 0.96957213
-7.3889647 2.197119 -0.50257343 0.96957225
-7.3313084 2.3820801 -0.50256658 0.96957266
-1.7911816 0.65760744 -0.12439857 0.99238062
-1.7913867 0.70925778 -0.12561072 0.99230665
-1.5592871 0.70994139 -0.11170002 0.99315578
-1.5087109 0.70993161 -0.10870823 0.99333853
-1.4608008 0.70995116 -0.10588886 0.9935106
-1.3719921 0.70993161 -0.100713 0.99382687
-1.3307421 0.70994139 -0.098332629 0.99397236
-1.2914159 0.70994139 -0.096077308 0.99411011
-1.2538086 0.70993161 -0.093937643 0.994241
-1.1834472 0.70993161 -0.089972764 0.99448335
-1.1187109 0.70993161 -0.086381756 0.99470299
-1.0306641 0.70994139 -0.081593856 0.99499589
-1.0270801 0.76610351 -0.083537482 0.99487698
-1.0269433 0.78626949 -0.084321745 0.99482894
-1.0267578 0.80680662 -0.085134163 0.99477929
-1.0258496 0.91591793 -0.089660451 0.99450254
-5.6170702 5.2747655 -0.50236446 0.96958476
-5.4140038 5.4824705 -0.50234067 0.96958619
-5.3446188 5.5499706 -0.50233251 0.96958661
-5.2743554 5.6166015 -0.50232428 0.96958715
-5.2032614 5.6823435 -0.50231594 0.96958768
-5.1313767 5.7471972 -0.50230753 0.9695881
-4.8357911 5.9973435 -0.50227296 0.96959019
-4.7599707 6.057529 -0.50226408 0.96959072
-4.6833787 6.1167479 -0.50225514 0.96959126
-4.6060643 6.1750097 -0.50224608 0.9695918
-4.5280371 6.2322946 -0.50223696 0.96959233
-4.4492869 6.2885742 -0.50222778 0.96959287
-4.2088671 6.4514451 -0.50219965 0.96959454
-3.9625096 6.6051269 -0.50217092 0.96959621
-3.8791113 6.6542578 -0.50216115 0.96959686
-3.7950976 6.7023339 -0.50215137 0.96959752
-3.6253417 6.7953415 -0.50213158 0.96959859
-3.4532812 6.8840232 -0.50211143 0.96959978
-3.1911523 7.0088377 -0.50208092 0.96960175
-3.1027734 7.0482421 -0.50207061 0.96960235
-2.924541 7.1237402 -0.5020498 0.96960342
-2.7445018 7.1946583 -0.50202882 0.96960473
-2.6538086 7.2284274 -0.50201827 0.96960539
-2.5627148 7.2610254 -0.50200766 0.9696061
-2.4712305 7.2925196 -0.50199699 0.96960664
-2.3793554 7.3228416 -0.50198632 0.96960723
-2.28708 7.3520017 -0.5019756 0.96960795
-2.1015136 7.406826 -0.50195396 0.96960926
-2.0082324 7.4324999 -0.50194311 0.96960986
-1.9146289 7.4569821 -0.5019322 0.96961051
-1.8207324 7.4802928 -0.5019213 0.96961117
-1.7265723 7.5024219 -0.50191033 0.96961176
-1.4424707 7.5616698 -0.50187725 0.96961379
-1.2519238 7.5951757 -0.50185513 0.96961516
-1.156377 7.6101365 -0.50184399 0.96961582
-1.0606347 7.6239157 -0.5018329 0.96961641
-0.86866212 7.6478219 -0.50181055 0.96961778
-0.77248043 7.657959 -0.5017994 0.96961844
-0.67616212 7.6668844 -0.50178814 0.96961915
-0.38668945 7.6864061 -0.50175458 0.96962112
-0.19340821 7.6933494 -0.50173211 0.96962249
-0.096699215 7.6950097 -0.50172085 0.96962315
-9.7656248e-06 7.6954393 -0.50170964 0.9696238
0.096689448 7.6946774 -0.50169843 0.9696244
0.19335938 7.6926756 -0.50168717 0.96962512
0.29002929 7.6894531 -0.50167596 0.96962583
0.77220702 7.6552048 -0.50161999 0.96962917
0.96427733 7.6330662 -0.50159776 0.96963042
1.2512012 7.5907907 -0.50156444 0.96963245
1.7251757 7.4964352 -0.50150955 0.96963567
1.8191894 7.4739842 -0.50149864 0.96963644
1.9129394 7.4503808 -0.50148779 0.96963704
2.0063574 7.4256053 -0.50147694 0.96963763
2.284668 7.3442383 -0.50144476 0.96963954
2.4683886 7.2841797 -0.50142348 0.96964085
2.5596776 7.2524314 -0.50141293 0.96964151
2.6505468 7.2195411 -0.50140238 0.96964216
2.7410157 7.1855173 -0.50139189 0.96964276
2.8310254 7.1503711 -0.50138146 0.96964335
2.9205956 7.1140819 -0.50137115 0.96964395
3.0096972 7.0766892 -0.50136083 0.96964455
3.2740722 6.9577637 -0.50133026 0.96964651
3.3611717 6.9159374 -0.50132018 0.96964711
3.4477539 6.8730273 -0.50131017 0.96964765
3.6192381 6.7839355 -0.50129032 0.96964884
4.0376759 6.5426855 -0.50124204 0.96965164
4.4401364 6.2756543 -0.50119561 0.96965444
4.5185447 6.2192478 -0.50118655 0.96965504
4.7495017 6.044209 -0.50115991 0.96965653
4.8249607 5.9839354 -0.5011512 0.96965718
4.9736423 5.8606052 -0.5011341 0.9696582
5.0468359 5.7975488 -0.50112569 0.96965861
5.1191993 5.7335839 -0.50111729 0.96965909
5.190752 5.6687207 -0.50110906 0.96965957
5.2615037 5.6029196 -0.50110096 0.9696601
5.3313966 5.5362887 -0.50109291 0.96966058
5.4004588 5.4687595 -0.50108492 0.96966106
5.4686618 5.4003711 -0.50107712 0.96966159
5.6024899 5.2610936 -0.50106168 0.96966243
5.668076 5.1902051 -0.50105417 0.96966285
5.7327442 5.1184764 -0.50104672 0.96966338
5.7965622 5.0459862 -0.50103945 0.96966368
5.8594041 4.9726562 -0.50103217 0.96966422
5.9213376 4.8985739 -0.50102508 0.96966463
6.0424218 4.7480664 -0.50101119 0.96966547
6.1015429 4.6717286 -0.5010044 0.96966577
1.2554004 0.9120996 -0.10116829 0.99379909
1.2555664 0.88833982 -0.10027523 0.99385369
1.2558984 0.84202147 -0.098580323 0.99395728
1.2560644 0.81944335 -0.097777024 0.9940064
1.2562305 0.79721677 -0.097001262 0.99405378
1.2566699 0.73256832 -0.094833642 0.99418622
1.3307519 0.70994139 -0.098332748 0.9939723
1.4608008 0.70994139 -0.10588882 0.99351066
1.5087304 0.70993161 -0.10870819 0.99333847
1.6692773 0.70994139 -0.11826473 0.99275506
1.7293164 0.70993161 -0.12187553 0.99253464
1.8611132 0.70994139 -0.12986557 0.99204719
2.023828 0.68581051 -0.13931705 0.99147093
2.0238476 0.65757811 -0.13873763 0.99150622
7.36374 2.1896386 -0.50086045 0.96967453
7.4163866 2.0038769 -0.50085455 0.96967471
7.440908 1.9105078 -0.50085181 0.969675
7.4642968 1.8168457 -0.50084919 0.96967512
7.5075192 1.6286621 -0.50084436 0.96967548
7.5460348 1.4394823 -0.50084013 0.96967566
7.5797653 1.2493945 -0.50083637 0.96967584
7.5948534 1.1540332 -0.50083476 0.96967596
7.6522164 0.67486328 -0.50082856 0.96967638
7.6600976 0.57865232 -0.50082779 0.96967638
7.6794529 0.19304687 -0.50082594 0.96967649
7.6812792 0.096533202 -0.50082582 0.96967649
7.6794529 -0.19304687 -0.50082636 0.96967649
7.6667676 -0.48235351 -0.50082815 0.96967632
7.6600976 -0.5786621 -0.50082898 0.96967638
7.6431541 -0.77097654 -0.50083119 0.96967626
7.6214452 -0.96280271 -0.50083393 0.96967596
7.5797949 -1.2494043 -0.50083905 0.96967572
7.4409766 -1.9105273 -0.50085586 0.96967477
7.4164157 -2.0038867 -0.50085884 0.96967459
7.3907127 -2.0969434 -0.50086194 0.96967435
7.3638377 -2.1896582 -0.5008651 0.96967411
7.3357906 -2.2820411 -0.5008685 0.96967393
2.0238671 -0.68583983 -0.13931698 0.99147075
2.0238476 -0.71430665 -0.13992317 0.99143386
1.9337207 -0.70996094 -0.13429992 0.99177676
1.861123 -0.70996094 -0.1298653 0.99204713
1.7931151 -0.70995116 -0.12573311 0.99229926
1.6126952 -0.70996094 -0.11487896 0.9929617
1.5087011 -0.70995116 -0.10870765 0.99333853
1.4607714 -0.70996094 -0.10588833 0.99351072
1.2913867 -0.70996094 -0.096077077 0.99411017
1.2566601 -0.73258787 -0.094833717 0.99418616
1.2565331 -0.75381833 -0.095530659 0.99414355
1.2563866 -0.7753613 -0.096252859 0.99409944
1.2560742 -0.8194629 -0.097776942 0.99400634
1.2558984 -0.84205079 -0.098580435 0.99395722
1.2553906 -0.91210938 -0.10116825 0.99379909
5.0174217 -3.8416502 -0.41198719 0.97498751
4.8920703 -3.8441405 -0.40562943 0.97536874
4.7704687 -3.8465331 -0.39952263 0.97573495
4.6055956 -4.0092282 -0.39809752 0.97582054
4.5549412 -4.066865 -0.39810348 0.97582006
4.5035353 -4.1238184 -0.3981095 0.97581983
4.2909179 -4.3451757 -0.39813441 0.97581828
4.2360544 -4.398828 -0.39814085 0.97581786
3.6468749 -3.9826562 -0.35206977 0.97858626
3.8930664 -4.7058887 -0.39818099 0.97581547
3.8336816 -4.7545309 -0.39818794 0.975815
3.7131054 -4.8495507 -0.39820206 0.97581416
3.651953 -4.8958883 -0.39820918 0.97581381
3.5902147 -4.941494 -0.3982164 0.97581333
3.5278904 -4.9862986 -0.39822367 0.97581297
3.4015918 -5.0735841 -0.39823845 0.97581202
3.3376367 -5.1160154 -0.39824593 0.9758116
3.142627 -5.2384863 -0.3982687 0.97581017
3.0766113 -5.2776465 -0.39827639 0.97580975
2.1854882 -3.9754002 -0.29576293 0.98197967
2.0476661 -4.0819821 -0.29773387 0.98186064
2.6706152 -5.4950681 -0.39832377 0.97580695
2.3913476 -5.6227732 -0.39835635 0.97580498
2.2493944 -5.6813278 -0.39837286 0.97580397
2.1778612 -5.7092576 -0.39838123 0.97580349
2.0337987 -5.7624412 -0.39839801 0.97580242
1.888418 -5.8119726 -0.39841491 0.97580141
1.8152832 -5.8353806 -0.39842346 0.97580087
1.7418456 -5.857832 -0.39843199 0.97580045
1.5199121 -5.9197264 -0.39845783 0.97579885
1.29583 -5.9731836 -0.3984839 0.9757973
1.1453613 -6.0041208 -0.39850143 0.97579628
0.55518556 -3.9906738 -0.26267999 0.98397911
0.76617187 -6.0648532 -0.39854553 0.97579366
0.68991208 -6.0741501 -0.39855438 0.97579306
0.53708005 -6.0898337 -0.39857215 0.97579205
0.46050781 -6.0962596 -0.39858103 0.97579139
0.15367188 -6.1122265 -0.3986167 0.97578937
0.076835938 -6.1137891 -0.39862564 0.97578889
-0.07682617 -6.1140919 -0.39864343 0.9757877
-0.23047851 -6.1104879 -0.39866129 0.97578669
-0.53723633 -6.0917382 -0.3986969 0.97578454
-0.84270507 -6.0575876 -0.39873233 0.97578245
-0.99471676 -6.0347753 -0.39874995 0.97578132
-1.070498 -6.021914 -0.39875874 0.97578084
-1.1461231 -6.0081348 -0.3987675 0.97578025
-0.80376953 -3.9435644 -0.26238814 0.98399669
-0.90497071 -3.9323633 -0.26307446 0.98395526
-1.4466797 -5.9434762 -0.39880234 0.97577822
-1.5212792 -5.9249606 -0.39881098 0.97577769
-1.669746 -5.8851171 -0.39882815 0.97577661
-1.8171874 -5.8415527 -0.39884526 0.9757756
-2.0362206 -5.7692676 -0.39887062 0.97577411
-2.2523339 -5.6887693 -0.39889559 0.97577268
-2.3237109 -5.6601462 -0.39890388 0.97577208
-2.3946972 -5.6306052 -0.39891207 0.97577167
-2.4653125 -5.6001854 -0.39892024 0.97577113
-2.6053808 -5.5366893 -0.39893645 0.97577018
-2.6747851 -5.503623 -0.39894447 0.9757697
-2.8805175 -5.3992381 -0.39896822 0.97576815
-2.9481738 -5.3627048 -0.39897606 0.97576779
-2.2705665 -4.0099025 -0.30042958 0.98169792
-2.2934179 -3.9341307 -0.29688752 0.98191172
-2.3418846 -3.9037011 -0.2967889 0.98191768
-3.3441308 -5.1259766 -0.39902177 0.97576505
-3.4083495 -5.0836325 -0.3990292 0.97576463
-3.5351562 -4.9965625 -0.3990438 0.97576374
-3.5977147 -4.9518456 -0.39905104 0.97576332
-3.8422558 -4.7651658 -0.39907923 0.97576159
-3.9019041 -4.7165918 -0.39908612 0.97576118
-3.9609375 -4.6672754 -0.39909294 0.9757607
-4.0193262 -4.617197 -0.39909965 0.9757604
-3.7822461 -3.9275975 -0.35548797 0.9783802
-3.8371971 -3.8857324 -0.35603637 0.9783473
-4.4099216 -4.2467189 -0.39914459 0.97575766
-4.4629979 -4.1910353 -0.3991507 0.9757573
-1.0256641 -0.93918943 -0.090667345 0.99444085
-1.0258594 -0.91594726 -0.089660563 0.99450243
-1.0260742 -0.89319336 -0.088689268 0.99456179
-1.0267481 -0.80682617 -0.085134275 0.99477929
-1.0269238 -0.78627926 -0.084321745 0.99482894
-1.0270801 -0.76612306 -0.083537288 0.99487692
-1.0273731 -0.7268945 -0.082049251 0.99496794
-1.1186913 -0.70996094 -0.086381413 0.99470299
-1.1834375 -0.70997071 -0.089972608 0.99448329
-1.2538183 -0.70997071 -0.093937568 0.99424094
-1.2913867 -0.70997071 -0.096077077 0.99411017
-1.3719823 -0.70996094 -0.10071281 0.99382687
-1.460791 -0.70996094 -0.10588852 0.99351066
-1.5087206 -0.70996094 -0.10870788 0.99333847
-1.6127245 -0.70997071 -0.11487918 0.99296159
-1.6692871 -0.70996094 -0.11826442 0.992755
-1.7913867 -0.70927733 -0.12561035 0.99230659
-1.7912695 -0.68331051 -0.12499149 0.9923445
-7.2690821 -2.5655565 -0.50256461 0.9695729
-7.3008299 -2.4740331 -0.50256819 0.96957254
-7.3313866 -2.3821094 -0.50257164 0.96957237
-7.3607712 -2.2898242 -0.50257492 0.96957225
-7.4161034 -2.1041307 -0.50258118 0.96957177
-7.4902439 -1.8231542 -0.50258952 0.96957135
-7.5337501 -1.6343652 -0.50259435 0.96957111
-7.5725293 -1.4445312 -0.50259864 0.96957082
-7.5901365 -1.349287 -0.50260061 0.96957058
-7.606523 -1.2537988 -0.5026024 0.96957046
-7.6484375 -0.96623045 -0.50260693 0.96957022
-7.6599803 -0.87003905 -0.50260824 0.96957022
-7.670332 -0.77371091 -0.50260925 0.9695701
-7.6794333 -0.67727536 -0.50261021 0.96957016
-7.6940622 -0.48407227 -0.50261176 0.96957004
-7.7038279 -0.29056641 -0.50261265 0.96956992
-7.7068648 -0.19373046 -0.50261289 0.96956992
-7.7087011 -0.096865229 -0.50261301 0.96956992
-7.3931832 -9.7656248e-06 -0.50257629 0.97079402
-7.3926172 0.092900388 -0.50257611 0.9707939
-7.3908591 0.18578124 -0.50257581 0.97079396
-7.3879294 0.27864257 -0.50257534 0.97079402
-7.3838282 0.37146485 -0.5025748 0.97079408
-7.3785839 0.46421874 -0.50257409 0.97079402
-7.3721385 0.55691403 -0.50257325 0.97079414
-7.3645411 0.64950192 -0.5025723 0.9707942
-7.3557811 0.7419824 -0.50257117 0.97079432
-7.3458786 0.8343457 -0.50256991 0.97079426
-7.3225293 1.0186914 -0.50256699 0.9707945
-7.3091307 1.110625 -0.50256532 0.97079462
-7.2788672 1.2939355 -0.50256163 0.9707948
-7.2619824 1.3852929 -0.5025596 0.97079498
-7.2439842 1.4764258 -0.5025574 0.97079504
-7.224824 1.5673242 -0.50255507 0.97079521
-7.2045212 1.6579882 -0.50255263 0.97079533
-7.1830664 1.7483886 -0.50255007 0.97079557
-7.0860057 2.1070213 -0.50253838 0.97079617
-6.9709959 2.4603319 -0.50252461 0.97079694
-1.7920703 0.65791017 -0.12977058 0.99237549
-1.7921484 0.68363279 -0.13038978 0.99233931
-1.7922559 0.70959961 -0.13103588 0.99230152
-1.7293457 0.70994139 -0.12707698 0.99253315
-1.2914159 0.70994139 -0.10017803 0.99410903
-1.1834472 0.70993161 -0.093813017 0.99448234
-1.0882324 0.70995116 -0.088326603 0.9948042
-1.0589062 0.70994139 -0.086664237 0.99490178
-1.0306641 0.70994139 -0.085076213 0.99499494
-1.0266894 0.72638673 -0.085494347 0.99497038
-1.0263867 0.7655859 -0.087043725 0.99487948
-1.0260448 0.80625975 -0.088706471 0.99478191
-1.0258691 0.8271777 -0.089583129 0.99473053
-1.0257128 0.84850585 -0.090491369 0.99467719
-1.025498 0.87030274 -0.091432489 0.99462205
-1.0253222 0.89252925 -0.092408061 0.99456477
-1.0249219 0.93847656 -0.094467543 0.99444395
-5.3868361 5.0585837 -0.50233793 0.97080767
-5.322783 5.1257911 -0.50233042 0.97080809
-5.125576 5.3225293 -0.5023073 0.97080934
-4.9900193 5.4494724 -0.50229144 0.97081035
-4.9210739 5.5116796 -0.50228339 0.97081071
-4.8513474 5.572988 -0.50227523 0.97081125
-4.780879 5.6334081 -0.50226694 0.97081167
-4.709619 5.6929393 -0.50225866 0.9708122
-4.6376171 5.7515721 -0.50225019 0.97081274
-4.5649219 5.8092966 -0.50224167 0.97081316
-4.4914842 5.8661032 -0.50223309 0.97081363
-4.3424802 5.9769235 -0.50221568 0.97081465
-4.113945 6.1360154 -0.50218898 0.97081608
-4.0364256 6.1871095 -0.50217992 0.97081667
-3.8795311 6.2863669 -0.50216162 0.97081769
-3.8001366 6.3344922 -0.50215238 0.97081834
-3.558496 6.4728808 -0.50212413 0.97081983
-3.3117969 6.6020117 -0.50209534 0.97082156
-3.0604491 6.7217479 -0.50206602 0.97082323
-2.890449 6.796279 -0.50204623 0.9708243
-2.7186229 6.8664842 -0.5020262 0.97082549
-2.6320899 6.899961 -0.50201607 0.97082609
-2.3699999 6.9938574 -0.50198555 0.97082776
-2.193418 7.0508981 -0.50196499 0.97082901
-2.1045995 7.0777535 -0.50195467 0.97082961
-2.0154493 7.1035056 -0.5019443 0.9708302
-1.9259961 7.1281247 -0.50193387 0.97083074
-1.7462012 7.1739645 -0.50191295 0.97083199
-1.6558496 7.1951952 -0.50190246 0.97083259
-1.5652636 7.2152929 -0.50189191 0.97083318
-1.4744629 7.2342281 -0.5018813 0.97083378
-1.3834082 7.2520313 -0.50187075 0.97083443
-1.2921484 7.2686815 -0.50186008 0.97083503
-1.2006934 7.2841892 -0.50184953 0.97083563
-0.83308589 7.3346972 -0.50180674 0.97083807
-0.64847654 7.3530078 -0.50178528 0.97083926
-0.55604494 7.3604293 -0.50177455 0.97083986
-0.37084961 7.3717575 -0.50175303 0.97084111
-0.092753902 7.3799996 -0.50172079 0.97084302
0.092744142 7.3796873 -0.50169921 0.97084427
0.18545897 7.3778024 -0.50168842 0.97084481
0.27814454 7.3747263 -0.50167769 0.97084546
0.37079102 7.3704882 -0.50166696 0.97084606
0.46335936 7.365078 -0.50165617 0.97084671
0.64828122 7.350791 -0.50163472 0.97084796
0.74058592 7.3419237 -0.50162405 0.9708485
0.8327539 7.3318944 -0.50161332 0.9708491
0.92480469 7.3206735 -0.50160265 0.97084975
