# .PCD v0.7 - Point Cloud Data file format
VERSION 0.7
FIELDS x y z intensity
SIZE 4 4 4 4
TYPE F F F F
COUNT 1 1 1 1
WIDTH 1099
HEIGHT 1
VIEWPOINT 0 0 0 1 0 0 0
POINTS 1099
DATA ascii
2.4469726 -24.258495 1.9290676 0.906802
1.3724219 -21.814178 1.7293457 0.91603339
-3.3406737 -24.0133 1.9182256 0.90730071
-3.6215038 -23.833315 1.907333 0.90780205
-4.7900782 -23.50185 1.897691 0.90824604
-6.1339059 -21.619062 1.7780126 0.91377538
-4.3173633 -8.3433008 0.74326283 0.96300751
-4.8720899 -8.6043062 0.78233421 0.96110141
-1.1158886 -0.92313474 0.11458305 0.99420583
-1.1142383 -0.87555665 0.1121183 0.99433011
-1.1134765 -0.85252929 0.11095325 0.99438882
-1.1127148 -0.82999021 0.10983039 0.99444544
-1.1120019 -0.80790037 0.10874828 0.99449998
-1.1112988 -0.78625977 0.10770523 0.99455261
-1.1099707 -0.74418944 0.10573105 0.99465221
-1.1093359 -0.72373044 0.10479694 0.99469936
-1.1504394 -0.70995116 0.10695671 0.99459034
-1.2178613 -0.70996094 0.11153366 0.99435955
-1.2913965 -0.70996094 0.11659683 0.99410427
-1.4152832 -0.70995116 0.12527488 0.99366689
-1.4608008 -0.70995116 0.12850387 0.99350417
-1.5087206 -0.70995116 0.13192551 0.99333185
-1.5592871 -0.70995116 0.13555595 0.99314892
-1.6127343 -0.70996094 0.13941467 0.99295455
-1.6728125 -0.6867578 0.14306976 0.99277049
-12.959717 -4.0315623 1.0738384 0.9469974
-17.060663 5.0730271 1.3586395 0.93108678
-1.6776074 0.66419923 0.13772689 0.9927879
-1.6127245 0.70994139 0.13450401 0.99295616
-1.5593164 0.70994139 0.1307811 0.99315035
-1.4152832 0.70994139 0.12086197 0.99366826
-1.3719823 0.70994139 0.11791759 0.99382204
-1.3307519 0.70995116 0.11513065 0.99396759
-1.2178711 0.70995116 0.10760505 0.9943608
-1.183457 0.70994139 0.1053426 0.99447894
-1.1504102 0.70995116 0.10318958 0.99459159
-1.1187109 0.70994139 0.10113808 0.99469882
-1.1079297 0.76316404 0.10269313 0.99461752
-1.1092578 0.8059082 0.10465973 0.9945147
-1.111416 0.87333006 0.1078949 0.99434566
-1.1121875 0.89676756 0.10905559 0.99428499
-1.1138378 0.94525391 0.11151145 0.99415666
-14.826484 15.396211 1.6315734 0.91782677
-14.106396 15.799316 1.6167575 0.91854167
-13.633115 16.064228 1.6082883 0.91895056
-13.398252 16.195704 1.6044677 0.91913515
-11.701045 16.105078 1.5195312 0.92324597
-11.118232 16.140839 1.4960864 0.92438537
-10.493496 16.084677 1.4658628 0.9258498
-11.618447 18.826473 1.6887051 0.91507506
-11.339179 19.451338 1.7186428 0.91363645
-10.732862 20.117754 1.7405212 0.91258669
-10.428467 20.152958 1.7320898 0.91299105
-5.5553317 12.619413 1.0524822 0.94618917
1.3542968 0.90798825 0.12446243 0.99348032
1.3535546 0.88305664 0.1233654 0.9935376
1.3528417 0.85853511 0.12230812 0.99359292
1.352168 0.83446288 0.12128875 0.99364609
1.3515136 0.81079102 0.12030651 0.99369735
1.3508691 0.78750974 0.11935951 0.99374682
1.3496875 0.74200195 0.11756897 0.99384034
1.3719531 0.70994139 0.11791752 0.99382216
1.4152637 0.70994139 0.12086189 0.99366832
1.4607617 0.70993161 0.12397743 0.99350572
1.7292968 0.70995116 0.14269462 0.99252886
1.8825976 0.71813476 0.15380454 0.99194944
1.8825878 -0.71815425 0.15380447 0.9919495
1.7931151 -0.70995116 0.14721161 0.99229324
1.729287 -0.70996094 0.14269416 0.99252892
1.6692773 -0.70996094 0.13846672 0.99274939
1.6126856 -0.70996094 0.13450325 0.99295622
1.5592577 -0.70996094 0.13078064 0.99315053
1.4607714 -0.70995116 0.12397697 0.99350566
1.4152539 -0.70995116 0.12086113 0.99366832
1.3491309 -0.71977538 0.11672233 0.99388444
1.3496777 -0.74202144 0.11756881 0.99384034
1.3508886 -0.78750974 0.11935978 0.99374676
1.3521777 -0.83448243 0.12128891 0.99364603
1.3542968 -0.90799803 0.12446243 0.99348032
1.3550488 -0.9334082 0.12560028 0.9934209
3.0463867 -8.2977829 0.6747281 0.9651612
3.0878906 -9.1123676 0.73442411 0.96213806
2.3481641 -8.2762012 0.65667814 0.96607715
-5.1667185 -22.450903 1.7585315 0.91172296
-7.2025585 -23.153173 1.8508843 0.90730864
-4.2632813 -8.2387838 0.70809776 0.96347004
-4.7805076 -8.6956053 0.75745451 0.96097428
-4.8720212 -8.6041651 0.75476408 0.96111023
-5.0980859 -8.2608986 0.74098855 0.96180612
-1.1138378 -0.94526362 0.11151134 0.99415666
-1.1121875 -0.89677733 0.10905571 0.99428499
-1.1114258 -0.87333006 0.10789493 0.99434561
-1.1106738 -0.85040039 0.10677654 0.99440402
-1.1099609 -0.82793945 0.10569843 0.99446034
-1.1092578 -0.80592769 0.10465984 0.99451464
-1.1067284 -0.72200191 0.10086578 0.99471301
-1.1504394 -0.70995116 0.10318908 0.99459147
-1.2178613 -0.70996094 0.10760475 0.9943608
-1.2538086 -0.70995116 0.10998447 0.99423647
-1.2913965 -0.70997071 0.11248962 0.99410552
-1.3307617 -0.70996094 0.11513034 0.99396753
-1.5087206 -0.70995116 0.12727821 0.99333328
-1.6764063 -0.71297848 0.13905647 0.99271852
-17.066786 4.6113572 1.3002197 0.93154931
-17.060644 5.0730271 1.3090564 0.93110061
-1.68125 0.69021481 0.13366485 0.99273723
-1.6806445 0.71476561 0.13432167 0.99270171
-1.6127245 0.70994139 0.12959503 0.99295759
-1.5593164 0.70994139 0.12600814 0.99315172
-1.4152832 0.70994139 0.11645096 0.99366957
-1.2178711 0.70995116 0.10367806 0.99436194
-1.1504102 0.70995116 0.099423483 0.99459273
-1.1046777 0.74062496 0.097815245 0.99467993
-1.1065332 0.80393553 0.10059307 0.99452925
-1.1086133 0.87111324 0.10369453 0.99436104
-1.1093457 0.89448237 0.10480728 0.99430072
-1.1101172 0.91835934 0.10596214 0.99423814
-1.1109277 0.9427734 0.1071611 0.99417311
-16.567108 14.421865 1.6154556 0.91567194
-14.826484 15.396211 1.5720242 0.9178431
-14.58498 15.531425 1.56699 0.91809511
-14.34499 15.665742 1.5622336 0.91833335
-13.86913 15.932109 1.553537 0.918769
-13.633115 16.064228 1.5495883 0.91896671
-13.398281 16.195673 1.5459085 0.91915131
-13.673301 16.957626 1.6021066 0.91633862
-11.701045 16.105078 1.4641039 0.92326128
-10.493486 16.084677 1.4123751 0.92586464
-11.616172 18.304111 1.5944042 0.91672301
-11.618418 18.826485 1.6270727 0.91509193
-11.611377 19.355137 1.6600186 0.91344929
-10.428467 20.152939 1.6688708 0.91300833
-5.5553026 12.619424 1.0140702 0.94620001
3.3868358 10.887334 0.8385784 0.9552989
1.3517871 0.93115234 0.1207254 0.99343807
1.3503613 0.88095701 0.11858219 0.99355417
1.3490039 0.83251953 0.11659069 0.99366218
1.3478124 0.78570312 0.11474083 0.99376225
1.347207 0.76282227 0.1138657 0.99380976
1.3466504 0.74032223 0.11302299 0.99385542
1.3461132 0.71814454 0.11221084 0.99389941
1.3719531 0.70994139 0.11361369 0.99382341
1.4607617 0.70994139 0.11945263 0.99350703
1.5592675 0.70993161 0.12600806 0.99315196
1.6127148 0.70994139 0.12959488 0.99295765
1.7292968 0.70995116 0.13748673 0.99253041
1.7931249 0.70993161 0.14183959 0.99229479
1.887246 0.71991211 0.14855774 0.99193132
1.887246 -0.7199316 0.14855735 0.99193132
1.7931151 -0.70995116 0.14183883 0.99229479
1.729287 -0.70996094 0.13748619 0.99253041
1.6126856 -0.70996094 0.12959442 0.99295771
1.5592577 -0.70996094 0.12600738 0.9931519
1.5087011 -0.70996094 0.12263252 0.99333471
1.4152343 -0.70996094 0.11645038 0.99366969
1.3719629 -0.70996094 0.1136132 0.99382335
1.3461132 -0.71816403 0.11221092 0.99389935
1.3472265 -0.76286131 0.11386566 0.99380964
1.3478028 -0.7857129 0.1147406 0.99376225
1.3517871 -0.93117183 0.12072555 0.99343801
3.2814453 -8.2880316 0.6555953 0.96487927
3.1603124 -8.2848139 0.65214771 0.96506071
3.0404785 -8.2816944 0.64884359 0.96523464
2.6897168 -8.6463623 0.66597015 0.96433353
2.4630272 -8.2832079 0.63556486 0.9659338
2.3429589 -9.1252346 0.69289887 0.96291834
2.7592578 -15.521851 1.1594783 0.93872648
3.6335936 -23.913124 1.778923 0.90754533
-5.1661229 -22.44832 1.6941583 0.91175014
-4.3744431 -9.0008001 0.73601967 0.9606567
-4.2498732 -8.2128468 0.68010664 0.96359032
-4.3802147 -8.2102728 0.68439764 0.96336484
-4.7804294 -8.6954641 0.72979707 0.9609828
-4.8719335 -8.6040182 0.72720474 0.96111882
-5.0685349 -8.2130365 0.7098068 0.96203089
-1.1109277 -0.94279295 0.10716122 0.99417305
-1.1101367 -0.91836911 0.10596218 0.99423802
-1.1093554 -0.89449215 0.10480712 0.99430066
-1.1085937 -0.87113279 0.10369442 0.9943611
-1.1078808 -0.84827149 0.10262222 0.99441922
-1.1065332 -0.8039453 0.10059296 0.99452925
-1.1059082 -0.78244138 0.099632986 0.99458122
-1.1052929 -0.76133788 0.098707348 0.99463147
-1.1046679 -0.74064451 0.097815208 0.99467993
-1.1187207 -0.70997071 0.097446404 0.99469984
-1.1504394 -0.70995116 0.09942314 0.99459261
-1.2178613 -0.70996094 0.10367744 0.99436194
-1.2538086 -0.70995116 0.10597035 0.99423766
-1.2913965 -0.70996094 0.1083841 0.99410677
-1.3307617 -0.70996094 0.1109283 0.99396878
-1.3719921 -0.70994139 0.11361366 0.99382329
-1.4608008 -0.70995116 0.11945209 0.99350691
-1.5087206 -0.70995116 0.1226329 0.99333465
-1.6127343 -0.70996094 0.12959473 0.99295753
-1.6818359 -0.66588867 0.13303451 0.99277127
-12.959717 -4.0315428 0.99819726 0.94701922
-17.066786 4.6113572 1.2509872 0.93156248
-1.6860644 0.66754884 0.12832001 0.99275464
-1.6855175 0.6919629 0.12893005 0.99272031
-1.6127245 0.70994139 0.12468788 0.99295902
-1.5593164 0.70994139 0.12123688 0.9931531
-1.3307519 0.70995116 0.10672855 0.99397004
-1.2538183 0.70994139 0.10195812 0.99423879
-1.2178711 0.70995116 0.099752344 0.99436307
-1.183457 0.70994139 0.097654834 0.99448121
-1.1026269 0.75949216 0.094742201 0.99464548
-1.1038476 0.80197263 0.0965477 0.99454361
-1.1051464 0.84613281 0.098490633 0.99443418
-1.1065332 0.89219725 0.10058227 0.99431634
-1.1072754 0.9159863 0.10168747 0.99425405
-1.1080371 0.94032222 0.10283508 0.99418938
-16.567108 14.421855 1.5542865 0.9156881
-16.312382 14.564453 1.5474377 0.91604352
-9.5887794 8.7803221 0.9200089 0.94919974
-15.809414 14.845996 1.5346408 0.91670799
-15.560937 14.985078 1.5286807 0.91701758
-15.314375 15.123096 1.5230103 0.91731244
-15.069609 15.260117 1.5176153 0.91759276
-14.58498 15.531405 1.5076578 0.91811085
-13.86916 15.932099 1.4947103 0.9187845
-13.633115 16.064228 1.4909152 0.91898221
-11.701045 16.105078 1.4086328 0.92327601
-11.422792 16.144892 1.3994759 0.92375666
-11.118222 16.14085 1.386903 0.92441499
-10.819033 16.136875 1.3747714 0.9250508
-10.493505 16.084677 1.3589102 0.92587882
-11.616172 18.304111 1.5340158 0.91673893
-11.618418 18.826464 1.5654624 0.91510826
-11.611377 19.355137 1.5971639 0.9134658
-11.33917 19.451357 1.5932183 0.91367
-10.721025 19.501434 1.5747327 0.91462684
-10.758965 20.166639 1.6174176 0.91241789
-5.5553122 12.619424 0.97567296 0.94621044
1.3492773 0.95463866 0.11695953 0.99339402
1.3478515 0.90368164 0.11483101 0.99351388
1.347168 0.8788867 0.11382339 0.99357063
1.3459082 0.83060545 0.11191635 0.99367797
1.3447363 0.78390622 0.11014476 0.99377769
1.3441601 0.76111329 0.10930668 0.99382496
1.3436133 0.73866206 0.1084993 0.99387044
1.3431054 0.71655273 0.10772178 0.99391419
1.4152637 0.70994139 0.11204155 0.99367088
1.4607617 0.70993161 0.11492969 0.99350834
1.5087206 0.70995116 0.11798961 0.99333596
1.6692773 0.70994139 0.12836219 0.99275237
1.7931249 0.70993161 0.13646904 0.99229634
1.8924707 0.6947754 0.14265648 0.99194854
1.892998 0.66810548 0.14205261 0.99198246
1.729287 -0.70996094 0.13228035 0.9925319
1.6692773 -0.70996094 0.12836158 0.99275231
1.5592577 -0.70995116 0.12123619 0.99315333
1.4607714 -0.70995116 0.11492912 0.99350828
1.4152343 -0.70996094 0.11204135 0.99367094
1.3430859 -0.71656251 0.10772167 0.99391425
1.3447266 -0.78392577 0.11014469 0.99377769
1.3471973 -0.87890625 0.11382366 0.99357051
1.3478515 -0.90370113 0.11483081 0.99351382
1.3492676 -0.95466793 0.11695949 0.99339396
3.1652343 -8.2976904 0.62842816 0.96501422
3.0500586 -8.3077345 0.626239 0.96513408
3.1891406 -9.0359421 0.67805713 0.96230417
3.0609081 -9.0327587 0.67487705 0.96247756
2.8957617 -8.9122801 0.6631037 0.96311986
2.4661717 -8.2937355 0.61227798 0.96589798
2.4366112 -9.0180416 0.6610173 0.96323377
2.3296094 -9.0733252 0.662871 0.96313262
-4.275703 -9.0863523 0.71059757 0.96053123
-4.3540235 -8.9588032 0.70484686 0.96084434
-4.2419333 -8.1974945 0.6531319 0.96366423
-4.3735547 -8.1977978 0.65748304 0.96342665
-4.7803321 -8.6953268 0.70215303 0.96099114
-4.9519238 -8.2544184 0.68114316 0.96213579
-5.0605273 -8.200078 0.68185538 0.96209711
-1.1072754 -0.91601562 0.10168765 0.99425393
-1.1065429 -0.8922168 0.10058212 0.99431622
-1.1051368 -0.84616208 0.098490521 0.99443412
-1.1044824 -0.82385743 0.097501256 0.99448985
-1.1504394 -0.70995116 0.095658265 0.99459368
-1.1834375 -0.70997071 0.097654648 0.99448121
-1.3307617 -0.70996094 0.10672802 0.99396998
-1.3719921 -0.70995116 0.10931175 0.99382454
-1.4152832 -0.70995116 0.11204132 0.99367082
-1.4608008 -0.70995116 0.11492939 0.99350816
-1.5592871 -0.70995116 0.1212368 0.99315321
-1.6127343 -0.70996094 0.12468795 0.9929589
-1.6849512 -0.71660155 0.12956482 0.99268454
-17.060625 5.0730176 1.2099406 0.93112677
-1.6903319 0.66923827 0.12358367 0.99273771
-1.6897949 0.69373047 0.12417243 0.99270326
-1.6892577 0.71842772 0.12478539 0.99266732
-1.5593164 0.70994139 0.11646786 0.99315441
-1.4608008 0.70994139 0.11040866 0.99350947
-1.4152832 0.70994139 0.10763405 0.99367201
-1.2914159 0.70993161 0.10017814 0.99410903
-1.2538183 0.70994139 0.097947195 0.99423993
-1.1504102 0.70995116 0.091895789 0.99459481
-1.0989355 0.71690428 0.089193344 0.9947533
-1.0994433 0.73710936 0.089980923 0.99470717
-1.1005664 0.77865231 0.09164501 0.99460948
-1.101748 0.82180661 0.093435325 0.99450451
-1.1023926 0.84404296 0.094381213 0.99444902
-1.1030371 0.86673826 0.095362201 0.9943915
-1.1037304 0.88993162 0.096380234 0.99433178
-9.623847 8.592597 0.87703085 0.94958949
-9.5889549 8.7804785 0.88383365 0.94920838
-15.809414 14.845996 1.4742706 0.91672331
-15.560957 14.985068 1.4685452 0.91703284
-15.314375 15.123096 1.4630982 0.91732764
-14.106396 15.799287 1.4398062 0.91858852
-13.86913 15.932109 1.4359112 0.91879952
-13.633135 16.064219 1.4322653 0.91899711
-13.398252 16.195692 1.4288616 0.91918164
-13.673262 16.957548 1.480799 0.91637033
-10.493496 16.084667 1.3055831 0.92589253
-11.618408 18.826454 1.5038769 0.91512388
-11.33916 19.451347 1.5305423 0.91368592
-11.011581 19.447002 1.5191919 0.91429776
-10.721015 19.501434 1.5128372 0.91464251
-10.758974 20.166639 1.5537888 0.91243398
-5.5553222 12.619443 0.93729281 0.94622046
3.3867481 10.887021 0.77506459 0.95531726
1.3460351 0.9523437 0.11208747 0.99341112
1.3433985 0.85254884 0.10816063 0.99364126
1.3416699 0.7821191 0.10557136 0.99379301
1.3411132 0.75939453 0.10476974 0.99384004
1.3719531 0.70994139 0.1050114 0.99382585
1.4607617 0.70994139 0.11040844 0.99350959
1.5087011 0.70994139 0.11334812 0.99333733
1.5592675 0.70993161 0.11646724 0.99315459
1.6692773 0.70994139 0.12331268 0.99275374
1.7292968 0.70995116 0.1270771 0.99253333
1.7931249 0.70993161 0.13110031 0.99229783
1.8611132 0.70994139 0.13540877 0.9920457
1.8971777 0.69651365 0.13738319 0.99193013
1.8976855 0.66976559 0.13680053 0.99196422
1.897666 -0.66976559 0.13680038 0.99196434
1.8611132 -0.70996094 0.13540825 0.9920457
1.7931151 -0.70995116 0.13109992 0.99229783
1.729287 -0.70996094 0.12707642 0.99253333
1.6126856 -0.70996094 0.11978237 0.99296045
1.4152343 -0.70996094 0.10763347 0.99367219
1.3719434 -0.70996094 0.10501121 0.99382585
1.3401172 -0.71498042 0.10325389 0.99392879
1.3406055 -0.737041 0.1039978 0.99388522
1.3411328 -0.75941402 0.10476997 0.99383998
1.3416406 -0.78214842 0.10557132 0.99379307
1.3422265 -0.8052246 0.10640267 0.99374425
1.3446484 -0.90155274 0.11005226 0.99353045
1.345332 -0.92671871 0.11105133 0.9934718
2.9394433 -8.3284321 0.6003803 0.96521032
2.5867577 -8.3154049 0.59198582 0.96568823
2.4661326 -8.293745 0.58819127 0.96590441
2.353086 -8.29354 0.58603501 0.96602732
2.330996 -9.078681 0.63717008 0.9631182
2.549336 -22.444956 1.5355808 0.91341442
-4.2611718 -9.0554047 0.68031842 0.96067035
-4.3475585 -8.9454737 0.67611063 0.96090877
-4.2482419 -8.2096729 0.62837094 0.9636181
-4.3768845 -8.2040529 0.63210005 0.96340621
-5.052578 -8.1871872 0.65400064 0.96216267
-1.1051562 -0.93790036 0.098533593 0.99420547
-1.1044335 -0.91367185 0.097436942 0.99426973
-1.1011621 -0.8000195 0.092523649 0.99455792
-1.1005664 -0.77867186 0.091644816 0.99460942
-1.1 -0.75771481 0.090797693 0.99465913
-1.0994433 -0.73713863 0.089980885 0.99470711
-1.0989257 -0.71693355 0.089193307 0.99475324
-1.1187207 -0.70997071 0.090068474 0.99470192
-1.1504394 -0.70995116 0.091895372 0.99459469
-1.1834375 -0.70997071 0.093813092 0.99448228
-1.253828 -0.70996094 0.097946815 0.99423987
-1.3307617 -0.70996094 0.10252956 0.99397111
-1.3719921 -0.70995116 0.10501152 0.99382567
-1.4608008 -0.70995116 0.11040821 0.99350941
-1.5087206 -0.70995116 0.1133477 0.99333727
-1.5592871 -0.70995116 0.11646724 0.99315453
-1.6127343 -0.70996094 0.11978279 0.99296027
-1.6892577 -0.71844727 0.12478539 0.99266732
-17.063711 4.8414159 1.156391 0.93136919
-1.6945899 0.6709277 0.11882496 0.99272084
-1.6941016 0.69546872 0.11939251 0.99268615
-1.6127245 0.70994139 0.11487979 0.99296165
-1.4608008 0.70994139 0.10588932 0.99351066
-1.4152832 0.70994139 0.103228 0.99367321
-1.3307519 0.70995116 0.098333091 0.9939723
-1.2538183 0.70994139 0.093937717 0.994241
-1.1504102 0.70995116 0.088133886 0.99459583
-1.0968652 0.73536134 0.086093783 0.99472052
-1.0979199 0.77676755 0.087682113 0.99462342
-1.0990527 0.81978512 0.089390866 0.99451894
-1.0996387 0.8419531 0.090293385 0.9944638
-1.1009375 0.88767576 0.092201151 0.99434716
-1.1023047 0.93546873 0.094255596 0.99422151
-9.8014746 8.5322943 0.84721428 0.94924325
-9.6240139 8.5927343 0.84114188 0.94959778
-9.5891018 8.7806244 0.8476696 0.94921672
-15.809404 14.846005 1.413923 0.91673797
-15.314375 15.123086 1.4032055 0.91734231
-15.06957 15.260146 1.3982385 0.91762251
-14.826465 15.396201 1.3935214 0.91788852
-14.58497 15.531405 1.3890579 0.91814041
-14.106396 15.799287 1.3808672 0.91860294
-13.398261 16.195683 1.3703729 0.91919595
-14.535479 18.49785 1.5337613 0.91000795
-11.118213 16.14085 1.2778058 0.92444235
-10.493515 16.084667 1.2520864 0.92590564
-11.33916 19.451347 1.4678879 0.91370112
-11.011581 19.447002 1.4570035 0.91431284
-10.721045 19.501434 1.450837 0.91465753
-10.758974 20.166639 1.4901861 0.91244936
-10.428437 20.152901 1.4793692 0.91305643
-5.5553122 12.619433 0.89892429 0.94623011
3.3866894 10.886846 0.74332619 0.95532602
1.342793 0.95003903 0.10724056 0.99342817
1.3421093 0.92450196 0.10625175 0.99348861
1.3408788 0.87476563 0.10437881 0.99360299
1.338623 0.78036129 0.1010202 0.99380821
1.3381054 0.75769532 0.10025501 0.99385494
1.3376269 0.73537105 0.099518165 0.99389994
1.337168 0.71336913 0.09880802 0.99394333
1.3719531 0.70994139 0.100713 0.99382699
1.4152637 0.70994139 0.103228 0.99367326
1.6692773 0.70994139 0.11826481 0.99275506
1.7292968 0.70995116 0.1218753 0.9925347
1.7931249 0.70993161 0.12573394 0.99229926
1.9023535 0.67141598 0.13152428 0.99194604
1.9023632 -0.67141598 0.13152419 0.99194598
1.9018652 -0.69825196 0.13208602 0.99191171
1.8611132 -0.70996094 0.12986518 0.99204713
1.7931151 -0.70995116 0.12573318 0.99229926
1.729287 -0.70996094 0.12187492 0.9925347
1.6126856 -0.70996094 0.11487903 0.99296176
1.5087011 -0.70996094 0.10870761 0.99333853
1.4152343 -0.70996094 0.10322758 0.99367332
1.3719629 -0.70996094 0.10071274 0.99382693
1.3371484 -0.71338868 0.098807789 0.99394333
1.338623 -0.78037107 0.10102001 0.99380815
1.3391601 -0.80339843 0.10181408 0.99375963
1.3408788 -0.8747949 0.10437877 0.99360293
1.3414745 -0.89942384 0.10529819 0.99354684
1.3421191 -0.92451167 0.10625168 0.99348855
3.0537403 -8.3177633 0.57767105 0.96510565
2.9357226 -8.3179636 0.57507867 0.96525961
2.8181834 -8.3164015 0.57247776 0.96541399
2.5861132 -8.3133249 0.5676102 0.96570289
2.4661326 -8.293745 0.56411356 0.96591061
2.3756542 -8.7923489 0.59377867 0.96415049
2.7592676 -15.52187 1.0278231 0.93876064
-5.1643944 -22.440737 1.5012792 0.91182715
-4.3411427 -8.9322462 0.64747453 0.96097249
-4.480742 -8.9322119 0.65150392 0.96073455
-4.2545214 -8.2218313 0.60354155 0.96357185
-4.3815331 -8.2127876 0.60687077 0.96337461
-4.7802048 -8.695034 0.64689702 0.96100676
-5.0591407 -8.1978121 0.62804264 0.96212137
-1.1016113 -0.91133785 0.093209341 0.9942854
-1.1002831 -0.86458981 0.091229402 0.99440646
-1.0996484 -0.84197265 0.090293422 0.99446374
-1.0990624 -0.81979489 0.089390635 0.99451894
-1.097373 -0.75588864 0.086873323 0.99467289
-1.0963477 -0.71524411 0.085342064 0.99476653
-1.1187207 -0.70997071 0.086381488 0.99470288
-1.1504394 -0.70995116 0.088133387 0.99459571
-1.1834375 -0.70997071 0.089972913 0.99448329
-1.2178613 -0.70996094 0.091905214 0.99436522
-1.253828 -0.70996094 0.093937568 0.99424088
-1.3719921 -0.70995116 0.10071289 0.99382681
-1.4152832 -0.70995116 0.10322762 0.99367321
-1.5087206 -0.70995116 0.10870804 0.99333847
-1.6127343 -0.70996094 0.11487976 0.99296159
-1.6935644 -0.72027344 0.11998352 0.99265003
-12.959717 -4.0315428 0.88485283 0.94704896
-17.06369 4.8413868 1.107051 0.93138099
-17.057188 5.0719919 1.1106774 0.93116415
-1.6983984 0.69725585 0.11459003 0.99266893
-1.5593164 0.70994139 0.10693439 0.99315691
-1.5087304 0.70995116 0.10407043 0.9933396
-1.4608008 0.70994139 0.10137134 0.9935118
-1.3719823 0.70994139 0.096416205 0.993828
-1.3307519 0.70995116 0.094137304 0.99397331
-1.0942481 0.7336328 0.082226485 0.99473399
-1.0947655 0.75408202 0.082969092 0.99468642
-1.0958203 0.79614258 0.084538646 0.99458617
-1.0975586 0.8624121 0.087119214 0.99442136
-1.0981641 0.88544917 0.08804474 0.99436229
-1.0987988 0.90897459 0.089005128 0.99430102
-1.0994433 0.93305659 0.090001598 0.99423742
-9.7637501 8.4994631 0.80794638 0.94944227
-9.5891991 8.7807417 0.81151295 0.94922489
-15.314364 15.123096 1.3433322 0.91735625
-15.06959 15.260107 1.3385788 0.91763645
-14.34498 15.665732 1.325758 0.9183923
-13.869141 15.932099 1.318378 0.91882759
-13.633135 16.064219 1.3150287 0.91902518
-13.398261 16.195673 1.311903 0.91920966
-11.422783 16.144892 1.2343749 0.92379719
-10.819023 16.136866 1.2125857 0.92509073
-10.493496 16.084658 1.1986235 0.92591834
-11.618398 18.826426 1.3807766 0.91515332
-11.011581 19.447002 1.3948394 0.91432732
-10.721045 19.501446 1.3889303 0.91467196
-10.758945 20.166651 1.4266049 0.91246414
-10.428418 20.15288 1.4162496 0.91307122
-5.5553317 12.619443 0.86057061 0.94623929
1.339541 0.94775391 0.10241871 0.99344516
1.3377343 0.87273437 0.099691734 0.99361902
1.3371778 0.84859371 0.098847158 0.99367291
1.3356054 0.77859372 0.096491277 0.99382323
1.3341992 0.71179688 0.094382897 0.99395776
1.4607617 0.70994139 0.10137119 0.99351192
1.5087011 0.70994139 0.10406993 0.99333972
1.5592675 0.70993161 0.10693416 0.99315709
1.6127148 0.70994139 0.10997799 0.9929629
1.6692773 0.70994139 0.11321887 0.99275637
1.7292968 0.70995116 0.11667549 0.99253601
1.7931249 0.70993161 0.12036949 0.99230057
1.8611132 0.70994139 0.12432518 0.99204856
1.9070703 -0.67308593 0.12622406 0.99192756
1.9065722 -0.69998044 0.1267646 0.99189317
1.8611132 -0.70996094 0.12432411 0.99204856
1.729287 -0.70996094 0.11667477 0.99253601
1.5592577 -0.70995116 0.1069339 0.99315709
1.5087011 -0.70996094 0.10406955 0.99333972
1.4607714 -0.70995116 0.10137039 0.99351186
1.4152343 -0.70996094 0.098823123 0.99367446
1.3341796 -0.71181637 0.094383046 0.99395782
1.3351171 -0.75600582 0.095762171 0.99386972
1.3361132 -0.80156249 0.097248115 0.99377489
1.337168 -0.84862304 0.098847307 0.99367291
1.3377246 -0.87275386 0.099691696 0.99361902
1.3383203 -0.89730465 0.10056785 0.99356312
1.339541 -0.9477734 0.10241871 0.9934451
3.05375 -8.3177729 0.55303097 0.96511167
2.9357226 -8.3179636 0.55054265 0.96526563
2.3719335 -8.7786083 0.56755561 0.9642117
2.7592773 -15.521865 0.98396903 0.93877113
2.5491016 -22.442928 1.4097574 0.91345173
-5.1638083 -22.438189 1.4370648 0.91185158
-4.2620606 -9.0572996 0.62476224 0.96067619
-4.2930274 -8.5580568 0.59758139 0.96235448
-4.6592579 -8.2285004 0.59019017 0.96281135
-1.0987891 -0.90900391 0.089004859 0.99430102
-1.0975293 -0.86243165 0.08711914 0.99442142
-1.0963671 -0.81779295 0.085367426 0.99453324
-1.0958105 -0.79614258 0.084538572 0.99458623
-1.0952734 -0.77492183 0.083739318 0.99463725
-1.0947655 -0.7540918 0.082969055 0.99468642
-1.0942676 -0.73366207 0.082226373 0.99473387
-1.1187207 -0.70997071 0.082695961 0.99470383
-1.1834375 -0.70997071 0.086134106 0.99448425
-1.2913965 -0.70996094 0.091978148 0.99411118
-1.3307617 -0.70996094 0.094137155 0.99397331
-1.5087206 -0.70995116 0.1040699 0.99333966
-1.6979003 -0.72211915 0.11515884 0.99263257
-1.6984277 -0.6972754 0.11458984 0.99266875
-1.6989257 -0.67264646 0.11404388 0.99270356
-1.6993945 -0.64826173 0.11351963 0.992737
-12.959717 -4.0315428 0.84710014 0.94705808
-17.060263 4.8404393 1.0575156 0.93140543
-1.7032422 0.67434567 0.10924023 0.99268633
-1.7027637 0.69904298 0.10976452 0.9926514
-1.6127441 0.70993161 0.10507862 0.99296403
-1.5593164 0.70994139 0.10217014 0.99315804
-1.5087304 0.70995116 0.099433593 0.99334073
-1.4608008 0.70994139 0.096854821 0.99351287
-1.2538183 0.70994139 0.085923344 0.99424297
-1.183457 0.70994139 0.082296789 0.9944852
-1.1187109 0.70993161 0.079011917 0.99470484
-1.0912304 0.71189451 0.077697068 0.9947927
-1.0916992 0.73191404 0.078378178 0.9947471
-1.092168 0.75227535 0.079084702 0.99469995
-1.092666 0.7730664 0.079817466 0.9946509
-1.0942481 0.83780271 0.082182653 0.99449283
-1.0948144 0.86026365 0.083030775 0.9944362
-1.0960058 0.90666014 0.084823303 0.99431646
-1.0966504 0.93065429 0.085770532 0.9942531
-9.7637892 8.4994822 0.77195364 0.94945043
-9.6245995 8.5932713 0.7694245 0.94961172
-9.661396 8.8468361 0.78119344 0.948861
-15.809394 14.845996 1.2932882 0.91676563
-15.560957 14.985058 1.2882681 0.91707498
-15.06959 15.260107 1.2789434 0.91764981
-14.826484 15.396211 1.2746311 0.91791564
-14.106406 15.799287 1.263055 0.91862988
-13.869141 15.932099 1.2596397 0.91884077
-13.398281 16.195673 1.2534561 0.91922271
-13.673232 16.95747 1.299013 0.91641307
-11.422783 16.144892 1.1793798 0.92380959
-10.819023 16.136866 1.1585606 0.92510289
-10.493496 16.084658 1.1452788 0.92593038
-11.616172 18.304111 1.2927868 0.91679651
-11.618369 18.826385 1.3192599 0.91516721
-11.011572 19.447002 1.3326952 0.91434121
-10.721035 19.501425 1.3271768 0.91468579
-10.428408 20.152861 1.35315 0.91308534
-5.5553317 12.619463 0.82223117 0.94624805
3.3866014 10.886503 0.67988735 0.95534247
1.3363476 0.94549805 0.097621493 0.99346179
1.3357519 0.92009765 0.096725345 0.99352163
1.3351855 0.89518553 0.095861621 0.99357927
1.334082 0.84664059 0.09422531 0.99368852
1.333584 0.82298827 0.093450814 0.9937402
1.3325781 0.77682614 0.091984592 0.99383819
1.4152637 0.70994139 0.094421081 0.99367547
1.4607617 0.70994139 0.096854433 0.99351299
1.5087011 0.70994139 0.0994334 0.99334085
1.5592675 0.70993161 0.10217007 0.99315822
1.6127148 0.70994139 0.10507839 0.99296409
1.6692773 0.70994139 0.10817463 0.99275756
1.7292968 0.70995116 0.11147751 0.99253726
1.7931249 0.70993161 0.11500641 0.99230188
1.8611132 0.70995116 0.11878555 0.99204993
1.9117773 -0.67476559 0.12089935 0.99190903
1.9113183 -0.70172852 0.12141838 0.99187446
1.7931151 -0.70995116 0.1150058 0.99230188
1.5087011 -0.70996094 0.099433169 0.99334085
1.3719434 -0.70996094 0.092119977 0.99382913
1.33125 -0.71023434 0.089979284 0.99397206
1.3321191 -0.75431639 0.091291346 0.99388444
1.3325976 -0.77684569 0.091984749 0.99383813
1.3330566 -0.79973632 0.092704237 0.99379015
1.3357519 -0.92012691 0.096725501 0.99352157
3.1672852 -8.3030519 0.52993912 0.96501684
3.05375 -8.3177786 0.52838844 0.96511745
2.9357226 -8.3179636 0.52601522 0.96527141
2.8181641 -8.3164015 0.52363527 0.96542573
2.7016211 -8.3148584 0.52135962 0.96557343
2.3420899 -9.1218357 0.56161261 0.96296543
2.7592773 -15.521874 0.94013053 0.93878114
0.50214845 -3.9750977 0.23893119 0.98407298
0.44795898 -3.943994 0.23670456 0.98422021
0.3531836 -4.004756 0.23974235 0.98401928
-5.163496 -22.436855 1.3729575 0.91187078
-4.2657228 -9.0651169 0.59744358 0.96064949
-4.2840428 -8.5401068 0.56975979 0.96243817
-4.2545118 -8.2218256 0.55205435 0.96358424
-4.3815331 -8.2127876 0.55509406 0.96338701
-4.5238571 -8.2288866 0.55998129 0.96307075
-4.6584668 -8.2270994 0.56379884 0.96282369
-4.7949314 -8.2252932 0.56775934 0.96256751
-4.9333496 -8.2234468 0.57186675 0.96230185
-1.095996 -0.90667969 0.084823228 0.99431646
-1.0937011 -0.81580079 0.081365392 0.99454743
-1.092666 -0.7730664 0.079817347 0.9946509
-1.0916992 -0.73194337 0.078378253 0.99474704
-1.0912402 -0.71192384 0.077697143 0.99479258
-1.1834375 -0.70997071 0.082296595 0.9944852
-1.2178613 -0.70996094 0.084064022 0.99436712
-1.253828 -0.70996094 0.085922889 0.99424291
-1.2913965 -0.70996094 0.087880097 0.99411219
-1.3719921 -0.70995116 0.092120439 0.99382895
-1.4608008 -0.70995116 0.09685459 0.99351287
-1.5087206 -0.70995116 0.099433437 0.99334079
-1.5592871 -0.70995116 0.10216976 0.9931581
-1.7022656 -0.72397459 0.11031082 0.99261498
-12.959678 -4.0315332 0.80935872 0.9470669
-17.120722 4.8575683 1.0117939 0.93118161
-1.7071289 0.70082027 0.10491589 0.99263382
-1.5593164 0.70994139 0.097407646 0.99315912
-1.5087304 0.70995116 0.094798736 0.9933418
-1.4608008 0.70994139 0.092340201 0.99351394
-1.4152832 0.70994139 0.090019532 0.99367636
-1.3719823 0.70994139 0.087826423 0.99383003
-1.3307519 0.70995116 0.085750997 0.99397534
-1.2538183 0.70994139 0.081917912 0.99424386
-1.2178711 0.70995116 0.080145642 0.99436802
-1.1834472 0.70993161 0.078460574 0.99448615
-1.1504296 0.70993161 0.076856799 0.99459851
-1.0887011 0.71024412 0.073903389 0.99480557
-1.0891211 0.73019528 0.074549638 0.99476033
-1.0895898 0.75050777 0.075220071 0.99471325
-1.0900586 0.77119142 0.075914957 0.99466455
-1.0910351 0.81378907 0.07738369 0.99456161
-1.0920898 0.8581152 0.078963585 0.99445093
-1.0926465 0.88100582 0.079798318 0.9943924
-1.0932324 0.90437496 0.08066421 0.99433166
-16.312363 14.564443 1.2432836 0.91611457
-15.809384 14.845996 1.233001 0.9167785
-15.560946 14.985068 1.2282152 0.91708779
-15.314375 15.123086 1.2236571 0.91738242
-15.06958 15.260117 1.2193252 0.91766256
-14.826455 15.396211 1.2152141 0.9179284
-14.58495 15.531405 1.2113227 0.91818023
-14.106396 15.799287 1.2041793 0.91864246
-13.398261 16.195663 1.1950258 0.91923529
-13.673135 16.957401 1.2384542 0.91642636
-11.118222 16.14085 1.114303 0.92447919
-10.493486 16.084639 1.0918677 0.92594194
-11.616162 18.304111 1.2325162 0.91680938
-11.618369 18.826385 1.2577617 0.91518027
-11.611338 19.355059 1.2832299 0.91353917
-11.33919 19.451347 1.2800704 0.9137429
-11.011572 19.447012 1.2705752 0.91435438
-10.758965 20.16663 1.2995089 0.9124918
-10.428398 20.152851 1.2900745 0.91309875
-5.5553317 12.619452 0.78390461 0.94625658
3.386533 10.886357 0.64818442 0.9553501
1.3331738 0.94324219 0.092848927 0.99347836
1.3325878 0.91791987 0.091998711 0.99353796
1.3320508 0.89306641 0.091178812 0.99359536
1.3315332 0.86868161 0.090388484 0.99365062
1.3310156 0.84468746 0.089625888 0.99370402
1.3300488 0.79791993 0.088182449 0.99380511
1.3295898 0.77507812 0.087499537 0.99385297
1.3291405 0.75261718 0.086841278 0.99389911
1.3287109 0.73047853 0.086207047 0.99394357
1.4152441 0.70994139 0.090019532 0.99367654
1.4607617 0.70994139 0.092339821 0.99351406
1.5087011 0.70994139 0.094798699 0.99334192
1.5592675 0.70993161 0.097407185 0.99315935
1.6127148 0.70994139 0.10017994 0.99296522
1.7292968 0.70995116 0.10628105 0.99253845
1.9169531 0.64960939 0.11507381 0.99192357
1.9165233 -0.67642576 0.11554965 0.99189037
1.9160742 -0.70347655 0.11604682 0.99185562
1.8611132 -0.70996094 0.11324833 0.99205118
1.7931151 -0.70995116 0.10964477 0.99230313
1.6692773 -0.70995116 0.10313186 0.99275869
1.6126856 -0.70995116 0.10017986 0.99296534
1.5087011 -0.70996094 0.094798006 0.99334186
1.4607714 -0.70995116 0.092339396 0.993514
1.4152343 -0.70996094 0.090019189 0.99367654
1.3719434 -0.70996094 0.08782585 0.99383008
1.3300488 -0.79792964 0.088182449 0.99380511
1.3310058 -0.84470701 0.089626007 0.99370402
1.3315039 -0.86870116 0.090388373 0.99365067
1.3320702 -0.89311522 0.091178775 0.99359518
3.05375 -8.3177786 0.50376022 0.96512294
2.9357324 -8.3179731 0.50149506 0.96527684
2.8181736 -8.316411 0.4992269 0.96543115
0.44783202 -3.942832 0.22560494 0.98422736
0.39845702 -3.950371 0.22573134 0.98421854
0.35226563 -3.9945214 0.22798294 0.98406237
-1.0599414 -3.9228125 0.23102294 0.98385161
-1.1172168 -3.9375975 0.23270172 0.9837352
-4.2657228 -9.0651026 0.56959271 0.96065575
-4.2877731 -8.8225002 0.55769062 0.96146184
-4.3815331 -8.2127781 0.52921909 0.96339285
-4.5238962 -8.2288961 0.53387874 0.96307653
-4.6584668 -8.2270994 0.53751725 0.96282959
-1.0944531 -0.95272458 0.082495533 0.99420333
-1.0932226 -0.90438473 0.080664292 0.99433166
-1.0905175 -0.79232419 0.07663624 0.99461401
-1.090039 -0.77123046 0.075915106 0.99466455
-1.0891309 -0.73021483 0.074549675 0.99476022
-1.0887109 -0.71026367 0.073903233 0.99480551
-1.1187109 -0.70997071 0.075328708 0.99470556
-1.1504296 -0.70996094 0.076856613 0.99459845
-1.1834277 -0.70998043 0.078460313 0.99448609
-1.2178613 -0.70996094 0.080145337 0.99436808
-1.253828 -0.70996094 0.081917763 0.9942438
-1.2913965 -0.70996094 0.083783723 0.99411315
-1.3307617 -0.70996094 0.085750461 0.99397528
-1.4608008 -0.70995116 0.092339665 0.99351388
-1.5087206 -0.70995116 0.094798356 0.99334186
-1.5592871 -0.70995116 0.097407185 0.99315923
-1.7075683 -0.67607421 0.1044133 0.99266899
-12.959678 -4.0315332 0.77163017 0.94707525
-17.120752 4.8575878 0.96234167 0.93119168
-1.7119336 0.67779297 0.099563636 0.99265146
-1.6127441 0.70993161 0.095283777 0.99296623
-1.5593164 0.70994139 0.092646517 0.99316019
-1.4152832 0.70994139 0.085619807 0.99367738
-1.2178613 0.70994139 0.076228559 0.99436897
-1.1834472 0.70993161 0.074625507 0.99448699
-1.1504296 0.70993161 0.073100321 0.99459934
-1.1187109 0.70993161 0.071646959 0.99470645
-1.0870215 0.74873048 0.071374625 0.99472654
-1.0874511 0.76936519 0.072032809 0.99467808
-1.0893848 0.85600585 0.074918367 0.99446541
-1.0899121 0.87879878 0.075708121 0.99440724
-9.7906446 8.9651661 0.71785331 0.94821084
-15.809394 14.845986 1.1727384 0.91679072
-15.560946 14.985078 1.1681837 0.91709995
-15.314375 15.123086 1.1638458 0.91739458
-14.826474 15.396191 1.1558156 0.9179405
-14.58497 15.531386 1.1521119 0.91819227
-14.106377 15.799277 1.1453201 0.9186545
-13.86913 15.932099 1.1422237 0.91886526
-13.633115 16.064209 1.1393214 0.91906279
-13.2275 16.404755 1.1395296 0.91904867
-11.118222 16.14086 1.0598397 0.92449027
-10.819053 16.136866 1.0505668 0.92512554
-10.493486 16.084639 1.0383844 0.92595291
-11.611318 19.355078 1.2205112 0.91355181
-10.721035 19.501446 1.2033497 0.91471142
-10.758955 20.166651 1.2359929 0.91250461
-5.5553317 12.619463 0.7455886 0.94626456
1.3299805 0.94098634 0.088100433 0.99349493
1.3294433 0.91575193 0.087295532 0.99355417
1.3289355 0.8909961 0.086519584 0.99361122
1.328457 0.86666989 0.085771061 0.99366623
1.3279492 0.84275389 0.085049361 0.99371946
1.3266113 0.77335936 0.083036043 0.99386764
1.325791 0.7288574 0.081812285 0.99395776
1.3719531 0.70994139 0.083533511 0.99383104
1.4152441 0.70994139 0.085619658 0.9936775
1.4607617 0.70994139 0.087826498 0.99351507
1.5087011 0.70994139 0.090164907 0.99334294
1.5592675 0.70993161 0.092646219 0.99316037
1.6692773 0.70994139 0.098091543 0.99275982
1.7292968 0.70995116 0.10108635 0.99253958
1.7931249 0.70994139 0.10428604 0.99230427
1.8611132 0.70995116 0.10771347 0.99205238
1.9208691 0.70522457 0.11065048 0.99183661
1.9212987 0.6780957 0.11017559 0.99187154
1.9217089 -0.65123045 0.10972072 0.99190485
1.9212987 -0.67811525 0.11017528 0.99187148
1.9208691 -0.70523435 0.11065059 0.99183661
1.8611132 -0.70996094 0.10771313 0.99205238
1.7931151 -0.70995116 0.10428573 0.99230433
1.729287 -0.70996094 0.10108547 0.99253964
1.6692773 -0.70995116 0.098090895 0.99275982
1.6126856 -0.70995116 0.095283084 0.99296641
1.5592577 -0.70995116 0.092645794 0.99316037
1.5087011 -0.70996094 0.090164602 0.99334294
1.3258008 -0.72886717 0.081812091 0.9939577
1.3261914 -0.75095701 0.082412831 0.99391353
1.3266113 -0.77335936 0.08303608 0.99386764
1.3270313 -0.79612303 0.083683014 0.99382007
1.3274902 -0.8192578 0.084353633 0.9937706
1.3279492 -0.84277344 0.085049592 0.9937194
1.3294629 -0.9157812 0.087295532 0.99355406
1.3299805 -0.94100583 0.088100739 0.99349487
1.9265918 -3.9642284 0.23833877 0.98249882
3.1672754 -8.3030567 0.48054251 0.96502769
2.8181736 -8.316411 0.47482511 0.9654364
2.586123 -8.3133249 0.47078779 0.96572512
2.3530955 -8.2935934 0.46617231 0.96605533
2.3420899 -9.1218557 0.50926059 0.96297681
0.44783202 -3.9428124 0.21457763 0.9842298
0.39845702 -3.9503613 0.21469794 0.98422098
0.35226563 -3.9945214 0.21683982 0.98406482
-5.1630664 -22.435049 1.2448782 0.9119041
-4.2657323 -9.0650873 0.54175198 0.96066171
-4.2877731 -8.8224802 0.53043157 0.96146774
-4.2840428 -8.5401068 0.51664895 0.96244973
-4.2545214 -8.2218113 0.50058997 0.96359557
-4.3815331 -8.2127781 0.50335145 0.9633984
-4.5238962 -8.2288961 0.50778335 0.96308208
-4.7949314 -8.2252932 0.51483619 0.96257907
-5.0628028 -8.2037354 0.52128923 0.96211904
-1.0910254 -0.92591792 0.077377893 0.99428415
-1.0904688 -0.90210938 0.076527596 0.9943468
-1.0899121 -0.87882811 0.075707927 0.99440718
-1.0883691 -0.81184566 0.073422812 0.99457562
-1.08792 -0.79042965 0.072715148 0.99462765
-1.0874511 -0.76939452 0.072032735 0.99467796
-1.0882422 -0.70995116 0.070260964 0.99480855
-1.1504296 -0.70996094 0.073100053 0.99459928
-1.2178613 -0.70997071 0.076228179 0.99436891
-1.253828 -0.70996094 0.077913933 0.99424469
-1.2913965 -0.70996094 0.079688415 0.99411404
-1.3719921 -0.70995116 0.08353325 0.99383092
-1.4152832 -0.70995116 0.085619278 0.99367732
-1.4608008 -0.70995116 0.087826423 0.9935149
-1.5592871 -0.70996094 0.092646293 0.99316025
-1.7110351 -0.72771484 0.10054424 0.9925794
-1.7119433 -0.67781246 0.099563748 0.9926514
-1.7123535 -0.6532129 0.099102475 0.99268532
-1.7163086 0.67953122 0.094690204 0.99263382
-1.7159277 0.70442379 0.095148541 0.99259824
-1.6127441 0.70993161 0.090388522 0.99296725
-1.5593164 0.70994139 0.087886922 0.9931612
-1.3719921 0.70994139 0.079242207 0.99383181
-1.3307421 0.70994139 0.077369347 0.99397719
-1.1834472 0.70993161 0.070791736 0.99448776
-1.0882422 0.70993161 0.066651613 0.99480933
-1.0840527 0.72679687 0.066949271 0.9947862
-1.0848925 0.76752931 0.068169937 0.99469137
-1.0852929 0.78849608 0.068814047 0.99464142
-1.0857421 0.80985349 0.069482118 0.99458951
-1.0866992 0.85388672 0.070893936 0.99447984
-1.0871972 0.87660152 0.071639478 0.99442196
-1.0876952 0.89980465 0.072412945 0.99436194
-1.0882422 0.92352539 0.073215522 0.99429965
-9.7865915 8.9614553 0.68069112 0.94823909
-15.809384 14.845986 1.112488 0.91680235
-15.560937 14.985058 1.1081672 0.91711164
-15.314364 15.123086 1.1040553 0.91740614
-15.06956 15.260107 1.1001453 0.91768622
-14.58497 15.531377 1.0929259 0.91820371
-14.34496 15.665722 1.0896064 0.91844165
-13.86915 15.932079 1.0835412 0.91887665
-13.633115 16.06419 1.0807908 0.91907418
-13.398252 16.195663 1.0782217 0.91925848
-13.245283 16.855947 1.0996637 0.91772068
-13.211806 17.255331 1.1148014 0.91663677
-11.118213 16.14086 1.0053896 0.92450088
-10.819053 16.136875 0.9965961 0.92513597
-10.493466 16.084648 0.98511571 0.92596334
-11.616181 18.304102 1.1120598 0.91683322
-11.618349 18.826357 1.1348244 0.9152047
-11.011562 19.447002 1.1463844 0.91437894
-10.758955 20.166651 1.1724935 0.91251683
-10.428398 20.152832 1.1639791 0.91312367
-5.5553317 12.619463 0.70728546 0.94627219
3.3864453 10.886025 0.5848124 0.95536453
1.3268261 0.93875974 0.083375812 0.9935112
1.325371 0.86466795 0.081176758 0.99368179
1.3249121 0.84082031 0.080495067 0.99373466
1.3244824 0.81737304 0.079838105 0.99378562
1.3240429 0.79430664 0.079204746 0.99383485
1.3236231 0.77161133 0.078594089 0.9938823
1.3228809 0.72723633 0.077437975 0.99397188
1.4152441 0.70994139 0.081220932 0.99367839
1.5087011 0.70994139 0.085532643 0.99334389
1.5592675 0.70993161 0.087886468 0.99316138
1.6127148 0.70994139 0.090388447 0.99296731
1.7292968 0.70995116 0.095892787 0.99254072
1.9256835 0.70699215 0.10522907 0.99181741
1.9260839 0.67978513 0.10477585 0.99185252
1.9264843 0.65282226 0.10434219 0.99188602
1.9256835 -0.7070117 0.10522915 0.99181741
1.8611132 -0.70996094 0.10217914 0.99205357
1.7931151 -0.70995116 0.098928295 0.9923054
1.729287 -0.70996094 0.09589237 0.99254072
1.6692773 -0.70995116 0.093051374 0.9927609
1.6126856 -0.70995116 0.090387918 0.99296743
1.4607714 -0.70995116 0.083314128 0.99351597
1.4152343 -0.70996094 0.081220433 0.99367839
1.3719434 -0.70997071 0.07924179 0.99383193
1.3253515 -0.86466795 0.081176683 0.99368185
1.3268554 -0.93877929 0.083375931 0.99351108
2.0018651 -3.9907615 0.22902435 0.98227662
1.8750292 -3.9847167 0.2259021 0.98251617
3.1672754 -8.3030567 0.45585427 0.9650327
2.9357324 -8.3179731 0.45247924 0.96528709
2.8181543 -8.3164206 0.45043075 0.96544135
2.7016308 -8.3148584 0.44847342 0.96558905
2.586123 -8.3133249 0.44660193 0.96573007
2.4661424 -8.2937403 0.44385064 0.96593761
0.5015527 -3.9703515 0.20528373 0.98409909
0.44783202 -3.9428222 0.20355369 0.98423207
0.39845702 -3.9503613 0.20366867 0.98422325
0.35226563 -3.9945018 0.20570022 0.9840672
-5.1628513 -22.434139 1.1808771 0.91191977
-0.97253907 -3.9955468 0.2109423 0.98366445
-1.0109863 -3.9374902 0.20853119 0.98384964
-4.2877731 -8.8224802 0.50318068 0.96147323
-4.3815427 -8.2127876 0.47749153 0.96340358
-4.5238867 -8.2289009 0.48169693 0.96308738
-4.6584568 -8.2270947 0.48498061 0.96284056
-4.7949219 -8.2252874 0.48838738 0.96258444
-5.0627928 -8.2037449 0.49450773 0.96212447
-2.4983106 -3.9366992 0.23917083 0.98149866
-2.5494628 -3.9078808 0.23934753 0.98148513
-1.0857519 -0.80988282 0.069482267 0.99458945
-1.0852929 -0.78851563 0.068814203 0.99464136
-1.0848827 -0.76756835 0.068169825 0.99469131
-1.1187109 -0.70997071 0.067965962 0.99470717
-1.1504296 -0.70996094 0.069344401 0.99460006
-1.1834277 -0.70998043 0.070791699 0.99448776
-1.253828 -0.70996094 0.073911019 0.99424553
-1.3719823 -0.70996094 0.079241939 0.99383181
-1.4608008 -0.70995116 0.083314322 0.99351585
-1.5592871 -0.70996094 0.087886617 0.99316126
-1.6127343 -0.70996094 0.090388179 0.99296725
-1.6693164 -0.70995116 0.093051717 0.99276072
-1.7159179 -0.70444334 0.095148884 0.99259824
-1.7163281 -0.67954099 0.094690628 0.9926337
-1.7167187 -0.65486324 0.094250754 0.99266785
-12.959667 -4.0315428 0.69620949 0.94709069
-17.1208 4.8576169 0.86347175 0.9312104
-1.7207323 0.6812793 0.08979366 0.99261594
-1.7203516 0.70624024 0.09022934 0.99258024
-1.6693164 0.70994139 0.088014066 0.99276173
-1.6127441 0.70993161 0.085494801 0.9929682
-1.5087304 0.70995116 0.0809021 0.99334472
-1.460791 0.70994139 0.078803979 0.9935168
-1.4152734 0.70994139 0.076823726 0.99367917
-1.3307421 0.70994139 0.073180579 0.99397802
-1.2178613 0.70994139 0.068396986 0.99437052
-1.1834472 0.70993161 0.066958807 0.99448854
-1.1187109 0.70993161 0.064286344 0.994708
-1.081543 0.72509766 0.063177451 0.99479896
-1.0823241 0.76571286 0.064326555 0.99470466
-1.0831445 0.80790037 0.065561786 0.99460322
-1.0849805 0.89753902 0.068320274 0.99437684
-1.0854882 0.92117184 0.069075622 0.99431485
-1.0860254 0.94535154 0.069859505 0.99425048
-9.6251659 8.5937691 0.62606239 0.94963825
-9.7195892 8.9000874 0.63942951 0.94859117
-14.826474 15.396201 1.0370758 0.91796279
-14.58497 15.531396 1.0337518 0.9182145
-14.34496 15.665732 1.0306122 0.91845244
-14.106367 15.799267 1.0276557 0.91867673
-13.869102 15.932079 1.0248778 0.9188875
-13.398252 16.195663 1.0198464 0.9192692
-13.262012 17.779394 1.0761982 0.91500336
-11.701035 16.105087 0.96586263 0.92337334
-10.819053 16.136875 0.94263798 0.92514592
-10.493466 16.084648 0.93177831 0.92597318
-11.616181 18.304102 1.0518259 0.91684419
-11.33917 19.451347 1.0924227 0.91377902
-10.721025 19.501434 1.0797559 0.91473466
-10.428379 20.152802 1.1009606 0.91313529
-5.5553417 12.619463 0.66899216 0.94627941
3.3864062 10.885879 0.55314237 0.95537108
1.3232226 0.91147459 0.077960052 0.993586
1.3227539 0.88684571 0.077269778 0.99364263
1.321875 0.83889645 0.07596302 0.99374986
1.3210839 0.79250973 0.074747808 0.99384952
1.3207031 0.76989257 0.074172936 0.9938966
1.3203321 0.74759763 0.073618658 0.99394208
1.319961 0.72564453 0.073084451 0.99398595
1.3307323 0.70994139 0.073180467 0.99397802
1.3719629 0.70994139 0.074951664 0.99383277
1.4607714 0.70993161 0.078803673 0.99351686
1.6127148 0.70994139 0.085494801 0.99296832
1.7931249 0.70994139 0.09357246 0.99230647
1.9312695 -0.65446287 0.098938674 0.99186707
1.930918 -0.68149412 0.099350661 0.99183327
1.8611132 -0.70996094 0.096647069 0.99205464
1.6692773 -0.70995116 0.08801353 0.99276185
1.4607812 -0.70996094 0.078803249 0.9935168
1.4152441 -0.70997071 0.076823309 0.99367923
1.3307031 -0.70996094 0.073180161 0.99397808
1.3214746 -0.81555665 0.07534454 0.99380046
1.3219043 -0.838916 0.075963095 0.99374974
1.3227539 -0.88687497 0.077269897 0.99364257
1.3232129 -0.91149414 0.077959858 0.993586
2.0019042 -3.9907422 0.21662529 0.98227906
1.9257617 -3.962451 0.21375839 0.98251146
1.8750488 -3.9847069 0.21367179 0.98251855
3.1672754 -8.3030567 0.43117422 0.96503747
2.9357324 -8.3179731 0.42798078 0.9652918
2.8181543 -8.3164206 0.42604437 0.96544605
2.7016308 -8.3148584 0.42419302 0.9655937
2.4661424 -8.2937307 0.41981956 0.96594226
2.7592773 -15.521899 0.76491904 0.93881655
0.44783202 -3.9428222 0.19253357 0.98423421
-5.1626563 -22.433252 1.1168973 0.91193473
-1.0109863 -3.9374902 0.19724128 0.98385185
-4.2877731 -8.822485 0.47593811 0.96147847
-4.2840333 -8.5400782 0.46357086 0.96246034
-4.2545118 -8.2217865 0.44916365 0.96360582
-4.3815427 -8.2127876 0.45164001 0.96340853
-4.7949219 -8.2252874 0.46194488 0.9625895
-4.9333396 -8.2234516 0.4652867 0.96232402
-2.4717479 -4.0052147 0.22835578 0.98132831
-1.0854785 -0.92120117 0.069075428 0.99431479
-1.081543 -0.72512692 0.063177451 0.9947989
-1.1187109 -0.70997071 0.064286232 0.99470788
-1.1834277 -0.70998043 0.06695877 0.99448848
-1.2178613 -0.70997071 0.068396911 0.99437046
-1.253828 -0.70996094 0.069909401 0.9942463
-1.2913867 -0.70996094 0.071501844 0.99411571
-1.3719823 -0.70996094 0.074951477 0.99383265
-1.4152832 -0.70996094 0.076823421 0.99367911
-1.6127343 -0.70996094 0.085494533 0.9929682
-1.721123 -0.65654296 0.089375988 0.99265009
-12.959667 -4.0315428 0.65851599 0.94709778
-17.12084 4.8576074 0.81407171 0.93121892
-1.7251464 0.68302733 0.084872931 0.992598
-1.5087206 0.70994139 0.076272354 0.99334562
-1.2914063 0.70993161 0.067410432 0.99411649
-1.2538378 0.70993161 0.065908924 0.99424708
-1.2178808 0.70994139 0.064483181 0.99437124
-1.1834472 0.70993161 0.063127249 0.99448925
-1.1504296 0.70993161 0.061836965 0.99460161
-1.0797461 0.76391602 0.060502242 0.99471784
-1.0801269 0.78473634 0.061071318 0.9946683
-1.0813769 0.84969723 0.062908173 0.99450833
-1.0817969 0.87225586 0.063566245 0.99445105
-1.0822558 0.89528316 0.064249039 0.99439162
-1.0832226 0.94293946 0.065692827 0.99426591
-9.625205 8.5938377 0.59023887 0.94964439
-15.314355 15.123075 0.98452091 0.91742742
-14.826455 15.396191 0.97772741 0.91797316
-14.58495 15.531386 0.97459662 0.91822481
-13.633105 16.06419 0.96377522 0.91909504
-13.398242 16.195673 0.96148461 0.91927928
-13.286025 16.477324 0.96821433 0.91873777
-11.701045 16.105078 0.91057575 0.923383
-11.118232 16.140839 0.89653814 0.92452043
-11.616172 18.304121 0.99163109 0.91685456
-11.33917 19.451357 1.0299056 0.91378975
-11.011553 19.447002 1.0222691 0.91440094
-10.428389 20.152782 1.0379554 0.9131462
-5.5553417 12.619463 0.63070798 0.9462862
1.3205664 0.93432617 0.073997803 0.99354351
1.3201367 0.90932614 0.073326685 0.9936018
1.3196875 0.88478512 0.072679058 0.99365819
1.3184863 0.8136816 0.070872307 0.9938153
1.3181055 0.79074216 0.070312306 0.99386406
1.3177539 0.76818359 0.069772601 0.99391097
1.3170702 0.72407228 0.068751104 0.99399984
1.3307323 0.70994139 0.068992689 0.99397886
1.4152539 0.70993161 0.07242737 0.99368012
1.4607714 0.70993161 0.074294314 0.9935177
1.6692773 0.70994139 0.082977481 0.9927628
1.9353906 0.71054685 0.094308354 0.99177855
1.9360937 -0.65610349 0.093509443 0.99184787
1.9357421 -0.6832031 0.093900107 0.99181402
1.8611132 -0.70996094 0.091116674 0.99205565
1.6692773 -0.70995116 0.082976915 0.9927628
1.6126856 -0.70995116 0.080601841 0.99296927
1.5592675 -0.70995116 0.078370973 0.99316317
