# .PCD v0.7 - Point Cloud Data file format
VERSION 0.7
FIELDS x y z intensity
SIZE 4 4 4 4
TYPE F F F F
COUNT 1 1 1 1
WIDTH 1079
HEIGHT 1
VIEWPOINT 0 0 0 1 0 0 0
POINTS 1079
DATA ascii
1.5592773 -0.70995116 -0.03085514 0.99316913
1.5087304 -0.70995116 -0.030028533 0.9933514
1.4152734 -0.70997071 -0.028514823 0.99368554
1.3307323 -0.70996094 -0.027162742 0.9939841
1.2913867 -0.70997071 -0.026539611 0.99412167
1.270293 -0.71930665 -0.026290054 0.99417681
1.2702343 -0.76204097 -0.026676254 0.99409145
1.2701952 -0.78389645 -0.026880417 0.99404639
1.2701465 -0.8060742 -0.027091788 0.99399978
1.2700489 -0.8515234 -0.027537726 0.99390131
1.2699707 -0.89853513 -0.02801647 0.99379551
1.2699121 -0.92265624 -0.028268814 0.99373984
3.3923535 -3.9972656 -0.094418027 0.97924411
3.3012011 -3.9904785 -0.093269311 0.97949386
3.254746 -4.0365233 -0.09338253 0.9794693
2.8675292 -4.0529199 -0.089412041 0.98033369
6.4022655 -10.982563 -0.22894187 0.9504137
1.806787 -3.9683788 -0.078526229 0.98270708
1.7615038 -4.0014744 -0.078737184 0.98266113
6.3370309 -15.435962 -0.3005257 0.93542403
9.0828314 -22.940649 -0.44435275 0.90600616
1.4251562 -4.0380273 -0.077118106 0.98301458
1.3689355 -4.0397458 -0.07681644 0.98308045
2.5865233 -8.3146095 -0.15681759 0.96576363
2.2745702 -8.8588963 -0.16471756 0.96407044
2.9278514 -15.348389 -0.28139716 0.939403
2.5267382 -15.329194 -0.27979353 0.93973792
0.61121094 -4.0225391 -0.073274381 0.98385429
2.1247461 -16.818886 -0.30530363 0.9344275
0.39993164 -3.964951 -0.071767576 0.98418355
0.34771484 -3.9427831 -0.071282119 0.98428982
0.29852539 -3.9518065 -0.071371764 0.98427022
0.25189453 -4.0038962 -0.072249524 0.98407829
0.85234374 -16.942587 -0.30550981 0.9343847
0.42642578 -16.962471 -0.30557883 0.9343704
-0.050527342 -4.0208788 -0.072418176 0.98404133
-0.6398828 -16.965302 -0.30575147 0.93433475
-1.06625 -16.947783 -0.30582047 0.93432009
-1.2792773 -16.934862 -0.30585495 0.9343133
-1.4921679 -16.919458 -0.3058894 0.93430573
-1.7048632 -16.901279 -0.30592382 0.93429857
-1.9173242 -16.880415 -0.30595821 0.93429148
-2.1295214 -16.856894 -0.30599254 0.93428427
-2.3414061 -16.830585 -0.30602685 0.93427759
-2.9750977 -16.73604 -0.30612931 0.93425608
-3.1855567 -16.699223 -0.30616337 0.93424886
-0.86920899 -4.0067286 -0.073836476 0.98373145
-4.2301269 -16.475298 -0.30633226 0.93421394
-1.0752636 -3.9795799 -0.074239306 0.98364341
-1.2298633 -3.9534667 -0.074564166 0.98357236
-5.2591014 -16.185879 -0.30649856 0.93417978
-5.4627051 -16.120342 -0.30653146 0.93417257
-1.5822754 -3.9963768 -0.077406809 0.98295134
-8.7128706 -21.223061 -0.41316625 0.91230345
-9.2452927 -21.001596 -0.41325223 0.91228676
-9.5094728 -20.885967 -0.41329491 0.91227788
-9.9124022 -21.064995 -0.41926852 0.91106796
-4.3607907 -8.9726801 -0.17967308 0.9608745
-4.3533397 -8.4128218 -0.17059234 0.96281314
-4.5147557 -8.2122946 -0.16877314 0.96320206
-4.6591697 -8.2283688 -0.17029418 0.96287692
-2.3930371 -3.9889941 -0.083774909 0.98156214
-5.0635643 -8.2050095 -0.17363983 0.96216154
-5.2058692 -8.2031155 -0.17496987 0.96187711
-2.6222069 -3.9111133 -0.084802128 0.98133808
-11.395859 -16.106859 -0.35533461 0.9240998
-11.699922 -16.103569 -0.35847679 0.92345488
-12.329003 -16.102348 -0.36523411 0.92206985
-13.657402 -16.092886 -0.38012233 0.91902524
-14.005673 -16.089003 -0.38415474 0.91820174
-15.095908 -16.075499 -0.39714712 0.91555589
-15.864072 -16.064701 -0.40660247 0.91363454
-16.484179 -16.278368 -0.41723427 0.9114821
-4.079463 -3.9284961 -0.10199558 0.97759712
-4.1368847 -3.8848143 -0.10220333 0.97755212
-1.0387597 -0.90425777 -0.024802284 0.99450541
-1.0388477 -0.85942382 -0.024281349 0.99462062
-1.0389649 -0.81641603 -0.023796272 0.99472767
-1.0390429 -0.77504879 -0.023344878 0.99482751
-1.0391015 -0.75495118 -0.023130683 0.99487478
-1.0391406 -0.7352246 -0.022924155 0.99492037
-1.0391699 -0.71582031 -0.0227248 0.99496448
-1.058916 -0.70996094 -0.022959709 0.99491256
-1.0882128 -0.70995116 -0.023399925 0.99481535
-1.1187109 -0.70997071 -0.023861464 0.99471325
-1.1504102 -0.70995116 -0.024345435 0.99460638
-1.1834277 -0.70997071 -0.024853401 0.99449408
-1.2178613 -0.70996094 -0.025387153 0.99437618
-1.2538183 -0.70996094 -0.025948791 0.99425215
-1.3307323 -0.70998043 -0.027162818 0.99398404
-1.4152734 -0.70996094 -0.028514976 0.99368554
-1.460791 -0.70997071 -0.0292498 0.9935233
-1.7292968 -0.70996094 -0.033666074 0.99254924
-1.776709 -0.703457 -0.034413643 0.99238431
-1.7766309 -0.65229493 -0.03408413 0.99245697
-21.052362 -7.4302344 -0.40205976 0.91455752
-21.144756 -7.1653514 -0.40207443 0.91455483
-21.233847 -6.8993063 -0.40208858 0.91455209
-13.072783 -4.0667186 -0.24656162 0.94670117
-21.401943 -6.363945 -0.40211523 0.91454667
-21.480938 -6.094707 -0.40212771 0.91454393
-21.697266 -5.2812009 -0.4021619 0.91453689
-21.762508 -5.0082712 -0.40217215 0.91453463
-18.671318 -4.0505371 -0.344078 0.92641324
-18.66581 -3.8043945 -0.34307808 0.92662102
-21.937265 -4.1847754 -0.4021996 0.9145292
-21.988701 -3.9088769 -0.40220764 0.91452706
-24.333897 9.7656248e-06 -0.50567299 0.9072324
-24.331982 0.30576172 -0.5056724 0.9072324
-24.316309 0.91711915 -0.50566918 0.90723354
-24.302616 1.2226074 -0.50566667 0.90723443
-24.264051 1.8329296 -0.50565976 0.90723503
-24.209774 2.4420409 -0.50565034 0.90723705
-24.17704 2.7460644 -0.50564468 0.90723753
-24.140059 3.0495899 -0.50563836 0.90723962
-24.099697 3.3526757 -0.50563151 0.90724009
-24.055244 3.6551757 -0.505624 0.90724164
-24.007109 3.9571385 -0.50561589 0.90724272
-23.89913 4.5589843 -0.50559777 0.90724629
-20.843037 4.5216503 -0.44320905 0.91820937
-19.586151 4.507412 -0.41765177 0.92273813
-18.773525 4.5695505 -0.40151691 0.92560911
-18.714111 4.8049607 -0.40150702 0.92561108
-17.21751 4.8850389 -0.37191176 0.93089956
-18.372929 5.9697266 -0.40145057 0.92562097
-18.29582 6.1998925 -0.40143782 0.92562348
-17.962793 6.3397851 -0.3958461 0.92662024
-1.7775097 0.67803711 -0.039534379 0.99241751
-1.7775586 0.70375973 -0.039728276 0.99238032
-1.7293066 0.70993161 -0.038846854 0.99254882
-1.6692969 0.70993161 -0.037696149 0.99276876
-1.6127148 0.70993161 -0.036616895 0.99297506
-1.5087304 0.70994139 -0.034650039 0.9933511
-1.15042 0.70993161 -0.028092079 0.99460608
-1.0882226 0.70993161 -0.027000923 0.99481511
-1.058916 0.70993161 -0.026492767 0.99491239
-1.0384473 0.73468751 -0.02643425 0.99492359
-1.0382324 0.81582028 -0.027439194 0.99473113
-1.0381249 0.85877925 -0.027997894 0.99462414
-1.0380762 0.88094723 -0.028292693 0.99456763
-1.0380077 0.90357423 -0.028598441 0.99450916
-1.0379297 0.92670894 -0.028915176 0.99444854
-1.0378711 0.95037109 -0.029243888 0.99438554
-9.939043 9.3333883 -0.28333226 0.94691175
-9.8202438 9.4568357 -0.28331289 0.94691563
-9.7000189 9.5788765 -0.28329328 0.9469189
-9.4549513 9.8182516 -0.28325331 0.946926
-9.2056837 10.575 -0.29135641 0.94545007
-9.1946774 11.403233 -0.30440342 0.94307798
-9.1867771 11.998427 -0.3140299 0.9413321
-9.1739063 12.966376 -0.33007377 0.93842912
-9.1693258 13.311563 -0.33590102 0.93737686
-9.1645803 13.669218 -0.34199035 0.9362781
-9.1436911 15.241718 -0.36935744 0.93135798
-9.1319141 16.127441 -0.38513565 0.92853284
-8.410224 17.304775 -0.3998253 0.92591059
-7.9712205 17.507431 -0.39975402 0.92592376
-5.5669141 12.645801 -0.2871252 0.94622058
-6.8531246 17.965351 -0.39957249 0.92595565
-6.6261911 18.04829 -0.39953566 0.92596257
-6.1694336 18.205849 -0.39946151 0.92597532
-5.4772949 18.420147 -0.39934921 0.92599577
-5.2449512 18.485928 -0.39931151 0.92600191
-5.13624 20.004345 -0.42918837 0.92069113
-5.1100488 20.994062 -0.44901034 0.91718441
-5.0947657 22.13833 -0.47207505 0.91312033
-2.4249315 24.039795 -0.50209993 0.90785736
-1.8196875 24.088427 -0.50200182 0.90787452
-1.5166894 24.10704 -0.50195277 0.90788305
-0.60681641 24.140146 -0.50180542 0.90790826
-0.30341795 24.143379 -0.50175625 0.90791726
0.30336913 24.138672 -0.50165802 0.90793437
0.60659176 24.130606 -0.50160897 0.90794295
1.2125781 24.1029 -0.50151086 0.90796053
1.515205 24.083544 -0.50146186 0.90796858
2.1195312 24.033182 -0.50136405 0.90798563
2.722285 23.967646 -0.50126654 0.90800279
2.9700878 23.510654 -0.49245051 0.90954524
2.93958 21.130215 -0.44332922 0.91818786
2.9150097 19.183994 -0.40323561 0.92530346
3.8246777 18.765263 -0.39797294 0.92624104
4.0596876 18.713554 -0.39792499 0.92624927
4.2939844 18.658672 -0.39787722 0.92625833
4.9924216 18.477032 -0.39773482 0.92628342
3.2037303 10.774111 -0.23358135 0.95602512
3.3484569 10.763877 -0.23425446 0.95590144
5.9116797 18.194286 -0.39754745 0.92631686
6.3655372 18.035742 -0.39745495 0.92633349
6.5909472 17.952343 -0.39740896 0.92634135
6.8487401 11.748398 -0.2825934 0.94704622
6.8400292 11.083554 -0.2706531 0.94922608
6.8179784 9.6364841 -0.24530414 0.95386964
7.4954782 8.6104002 -0.23722892 0.95535415
9.5991116 8.1463966 -0.2616269 0.95087689
10.34164 8.1263571 -0.27331638 0.94873935
1.269043 0.92200196 -0.032597046 0.99374384
1.2691113 0.89790034 -0.032306135 0.99379945
1.2691504 0.87420899 -0.032025453 0.99385327
1.2693945 0.76151365 -0.030761909 0.99409503
1.2694433 0.74000973 -0.030535048 0.99413842
1.2694921 0.71881837 -0.030316619 0.99418026
1.3719823 0.70992184 -0.032101478 0.99383861
1.4608008 0.70992184 -0.03375145 0.993523
1.5087206 0.70993161 -0.034650002 0.99335116
1.5592871 0.70993161 -0.035603561 0.99316877
1.612705 0.70993161 -0.036617048 0.99297506
2.0018456 0.67835939 -0.043923415 0.99157917
2.0017869 0.6504004 -0.043739051 0.99161434
18.248808 5.4263182 -0.3956317 0.92665833
18.315477 5.1965528 -0.39563084 0.92665863
18.379257 4.9659667 -0.39563048 0.92665887
18.553545 4.2697654 -0.39563239 0.92665821
19.652197 4.0054297 -0.41678244 0.92289275
23.687569 3.5993261 -0.49789351 0.90859252
23.769999 3.0028319 -0.49788082 0.90859449
23.91041 1.5043066 -0.49785969 0.90859902
23.940674 0.90294921 -0.4978554 0.90859896
23.950117 0.60205078 -0.49785423 0.90859902
23.957548 -0 -0.49785364 0.9085995
23.95579 -0.30107421 -0.49785426 0.90859902
23.940664 -0.90299803 -0.49785736 0.90859896
23.927422 -1.2037402 -0.49785981 0.90859902
23.890165 -1.8047071 -0.49786648 0.90859699
23.837666 -2.4045312 -0.49787563 0.90859556
23.730936 -3.3013964 -0.49789387 0.90859246
23.688076 -3.5994334 -0.49790111 0.90859061
23.641132 -3.896826 -0.49790904 0.90859008
21.340567 -4.0709276 -0.45146763 0.91675019
18.554081 -4.2699313 -0.39564329 0.92665613
18.499374 -4.5028415 -0.39565241 0.92665458
18.381201 -4.9665527 -0.39567205 0.92665136
18.317871 -5.1972656 -0.39568254 0.92664933
18.251631 -5.427197 -0.39569351 0.92664737
2.0018554 -0.67837888 -0.043923415 0.99157912
1.9337499 -0.70997071 -0.042807084 0.99179226
1.7293164 -0.70996094 -0.038846739 0.99254876
1.4607714 -0.70997071 -0.03375103 0.993523
1.3719727 -0.70996094 -0.032101363 0.99383861
1.2695117 -0.71886718 -0.030316543 0.99418008
1.2694433 -0.74004883 -0.030535124 0.99413836
1.2694043 -0.76155269 -0.030761909 0.99409497
1.2693261 -0.80554688 -0.031240348 0.9940033
1.2692578 -0.82806641 -0.031492766 0.99395508
1.2692285 -0.85095704 -0.031754263 0.99390495
1.2691211 -0.89792967 -0.032306135 0.99379933
1.2690625 -0.92203122 -0.032596931 0.99374372
1.2690039 -0.94658202 -0.032898482 0.99368602
10.354941 -7.9283786 -0.27101433 0.9491601
10.08539 -7.9250193 -0.26654664 0.9499771
9.8245697 -7.9217672 -0.26226199 0.95076072
3.3923535 -3.9972656 -0.10894749 0.97924304
3.3012011 -3.9904785 -0.10762268 0.97949278
6.4026756 -10.9833 -0.26418975 0.95040786
6.3984962 -11.300127 -0.2698552 0.94937176
6.3941212 -11.630908 -0.27581501 0.94828326
9.5816402 -19.10078 -0.44407138 0.91805708
1.8663086 -3.9661229 -0.091087416 0.98261595
1.8068066 -3.968369 -0.09061069 0.98270619
8.2801952 -19.469097 -0.43965361 0.9188382
3.1677735 -8.3043308 -0.18469936 0.96506512
3.0482225 -8.3027487 -0.18379752 0.96523267
2.9361913 -8.3192577 -0.18333054 0.96531922
1.3669238 -4.0337696 -0.088506617 0.98310435
2.5865037 -8.3146191 -0.18095046 0.96576178
2.2560546 -8.3497162 -0.17973529 0.96598786
2.9327929 -14.389404 -0.30517021 0.94293904
2.7520311 -14.426616 -0.30519953 0.94293332
0.6121484 -4.0285645 -0.084677391 0.98382944
2.024492 -14.552251 -0.30531746 0.94291204
1.841621 -14.577969 -0.30534708 0.94290662
1.658457 -14.601381 -0.3053768 0.94290119
0.39995116 -3.9649315 -0.082811967 0.98418278
0.25189453 -4.0038867 -0.083368108 0.98407745
0.32313475 -12.853843 -0.26719591 0.94985807
9.7656248e-06 -14.708066 -0.30564544 0.94285291
-0.92397457 -14.686298 -0.30579504 0.9428255
-1.1085547 -14.675038 -0.30582491 0.94281977
-1.4773047 -14.645331 -0.30588457 0.94280922
-1.6613672 -14.627021 -0.30591434 0.94280386
-1.8452148 -14.606425 -0.30594409 0.94279844
-2.0288281 -14.583515 -0.3059738 0.94279295
-2.395117 -14.530762 -0.30603307 0.94278216
-2.5777733 -14.500834 -0.30606261 0.9427771
-2.7600684 -14.468794 -0.30609208 0.94277132
-0.81787109 -4.0127439 -0.085102692 0.98374897
-0.86884761 -4.0050974 -0.085164562 0.98373711
-1.0752441 -3.9795604 -0.08566349 0.98364264
-1.1664063 -3.9226561 -0.085043103 0.98376018
-1.2298437 -3.9534667 -0.086039118 0.98357153
-4.5560155 -14.021987 -0.30638242 0.94271892
-4.732285 -13.964927 -0.30641091 0.9427138
-4.9078512 -13.905629 -0.30643925 0.94270867
-5.2567186 -13.780439 -0.30649561 0.94269848
-7.7784667 -18.289454 -0.41301185 0.92356282
-8.0084372 -18.191948 -0.41304895 0.92355597
-4.3829393 -8.7372894 -0.20312938 0.9616465
-4.3533592 -8.4128075 -0.19684337 0.96281123
-4.5147557 -8.2122946 -0.19474585 0.96320015
-2.3230274 -3.984951 -0.095853612 0.98171479
-4.9341111 -8.2247162 -0.19931209 0.96235377
-2.5781932 -3.9519432 -0.09805546 0.98129869
-2.6222069 -3.9111133 -0.097852364 0.98133707
-11.39037 -16.099121 -0.40981755 0.92413098
-11.69789 -16.100756 -0.41357073 0.92346376
-11.983438 -16.065308 -0.41650528 0.92294389
-12.185331 -15.914726 -0.41653782 0.92293799
-3.129668 -3.9828124 -0.10526134 0.97993827
-3.2058203 -3.9758787 -0.10613365 0.97977358
-12.779336 -15.447602 -0.41663352 0.92292154
-13.543457 -14.790444 -0.41675651 0.92289919
-3.7291894 -3.9711816 -0.11320663 0.9784404
-4.079453 -3.9285057 -0.11769165 0.97759593
-4.1368847 -3.8848143 -0.11793072 0.97755092
-1.0379199 -0.92672849 -0.0289151 0.99444848
-1.0382812 -0.79500973 -0.027174491 0.99478173
-1.0383203 -0.77453125 -0.026918754 0.99483079
-1.0384375 -0.73471677 -0.026434097 0.99492353
-1.1187011 -0.70997071 -0.027533416 0.99471301
-1.1504004 -0.70996094 -0.028092079 0.99460608
-1.2538183 -0.70996094 -0.029941712 0.99425185
-1.4152734 -0.70996094 -0.032902945 0.99368519
-1.5592871 -0.70996094 -0.035603371 0.99316871
-1.7292968 -0.70996094 -0.038846739 0.99254882
-1.7775195 -0.67806637 -0.039534073 0.9924174
-17.848389 -6.0483007 -0.3916201 0.92737466
-17.78084 -5.7773533 -0.38851473 0.92792934
-18.044424 -5.3655663 -0.39120299 0.92744917
-18.722206 -4.8070602 -0.40167966 0.92558008
-19.744736 -3.5099707 -0.4167417 0.9228999
-21.181532 -3.4914062 -0.44610766 0.91769707
-22.921963 -3.4829979 -0.48180231 0.91141194
-24.140615 -3.0496776 -0.50564498 0.90723753
-24.210049 -2.44208 -0.50565553 0.90723604
-24.264189 -1.8329492 -0.50566369 0.90723449
-24.30287 -1.2226367 -0.5056693 0.90723348
-21.450293 -0 -0.50520611 0.91775483
-21.448603 0.269541 -0.50520551 0.91775483
-21.434961 0.80844724 -0.50520271 0.91775519
-21.422987 1.0777344 -0.50520051 0.91775566
-21.366699 1.884375 -0.50519055 0.91775727
-21.279854 2.6882617 -0.50517559 0.91775966
-21.205038 3.2221093 -0.50516295 0.91776162
-21.162567 3.4882519 -0.5051558 0.91776282
-20.843018 4.5216503 -0.50232232 0.91820461
-19.574795 4.5048046 -0.47308525 0.92277658
-18.445948 4.4898143 -0.44712889 0.92685413
-16.570116 4.4771681 -0.40426031 0.93362886
-16.324532 4.8541307 -0.40112007 0.93412721
-16.196571 5.2625875 -0.40109888 0.93413043
-1.7784082 0.70410156 -0.045049094 0.99237621
-1.6692969 0.70993161 -0.04272392 0.99276829
-1.6127343 0.70993161 -0.041501008 0.99297452
-1.5592773 0.70994139 -0.040352248 0.99316835
-1.5087304 0.70994139 -0.039271697 0.99335068
-1.4608008 0.70993161 -0.038253058 0.99352258
-1.4152637 0.70993161 -0.037291717 0.99368489
-1.3307519 0.70993161 -0.035523489 0.99398339
-1.2913965 0.70993161 -0.034708709 0.99412102
-1.2178515 0.70994139 -0.033201523 0.99437565
-1.1187011 0.70992184 -0.031205826 0.99471277
-1.0377831 0.71484375 -0.029679755 0.99497068
-1.0376953 0.75389647 -0.030209389 0.99488115
-1.0376172 0.7739746 -0.030488318 0.99483401
-1.0375488 0.79441404 -0.030777663 0.99478519
-1.0374414 0.83650386 -0.031387709 0.99468201
-1.0372461 0.90291989 -0.032389145 0.99451286
-1.0370996 0.94964844 -0.033119734 0.99438941
-9.2309961 8.6684961 -0.29824752 0.95059568
-9.2251463 9.109931 -0.30536076 0.94944769
-9.2189846 9.5732517 -0.31302345 0.9482125
-9.2157907 9.8138275 -0.31707668 0.94755965
-9.2124996 10.060732 -0.32128912 0.94688195
-9.2056837 10.575 -0.33021653 0.94544679
-9.2021093 10.843076 -0.33495009 0.94468683
-9.1984568 11.119003 -0.33987761 0.94389659
-9.1907806 11.696191 -0.35034809 0.94221926
-9.1826267 12.310469 -0.36171722 0.94040084
-9.17834 12.632891 -0.36777321 0.93943393
-9.1739063 12.966357 -0.3740955 0.93842548
-9.1693163 13.311552 -0.38069999 0.93737316
-9.0988083 14.337402 -0.39993995 0.93431443
-8.9172363 14.449512 -0.39991042 0.93431926
-8.734355 14.559375 -0.39988071 0.93432379
-8.5500488 14.666875 -0.39985076 0.93432862
-8.3644333 14.772021 -0.3998206 0.9343335
-7.9893064 14.975195 -0.39975962 0.93434346
-7.6093454 15.169013 -0.3996979 0.93435276
-6.2438183 15.770048 -0.39947617 0.93438816
-6.0446677 15.845976 -0.39944381 0.93439335
-5.8445992 15.919384 -0.39941135 0.93439853
-5.2391696 16.124443 -0.39931312 0.93441391
-5.1852245 16.668222 -0.41113493 0.9325394
-5.1714258 17.391571 -0.42733923 0.92997575
-5.1565332 18.174316 -0.44494402 0.92719841
-5.1300778 19.980272 -0.48584723 0.92077804
-5.0460839 20.731289 -0.50252783 0.91817254
-4.7847948 20.791348 -0.50248545 0.91817898
-4.5227246 20.847929 -0.50244296 0.91818613
-4.2600684 20.901524 -0.5024004 0.91819209
-3.4683495 21.041708 -0.50227201 0.91821271
-2.9379785 21.118671 -0.50218606 0.91822588
-2.4059277 21.182198 -0.50209987 0.9182393
-1.8725097 21.232431 -0.50201344 0.91825235
-1.3381348 21.268896 -0.50192684 0.91826665
-1.0706543 21.282305 -0.50188351 0.91827303
-0.8030566 21.292265 -0.50184017 0.91827971
-0.26769531 21.30204 -0.50175351 0.91829324
0 21.301884 -0.50171018 0.91829997
0.26766601 21.298378 -0.50166684 0.91830665
0.53523439 21.291395 -0.50162351 0.9183138
1.3369921 21.250713 -0.50149375 0.91833359
1.8702539 21.20665 -0.50140744 0.91834748
2.1364257 21.179756 -0.50136435 0.9183538
2.4021776 21.149317 -0.50132138 0.91836089
2.6675391 21.115751 -0.50127846 0.91836727
2.9324219 21.078749 -0.50123554 0.91837394
2.8895409 17.530195 -0.41844973 0.93138117
3.9958692 16.416611 -0.39793918 0.934632
4.2013574 16.363251 -0.3978973 0.93463916
4.4062204 16.307577 -0.39785552 0.9346453
3.1000683 10.92621 -0.26749456 0.95557451
5.2178612 16.058857 -0.39769009 0.93467176
5.6186523 15.919492 -0.3976084 0.93468434
5.8176169 15.845937 -0.39756787 0.93469107
6.0156837 15.770048 -0.39752746 0.93469721
6.4088082 15.610732 -0.39744735 0.93470997
6.6037889 15.527383 -0.39740759 0.9347164
6.7998533 10.714834 -0.29888821 0.95049196
6.8199997 9.6393652 -0.27810773 0.95385343
6.9065819 9.5060644 -0.27674434 0.95407438
6.9923043 9.374053 -0.2754378 0.95428622
7.0772362 9.2432518 -0.27418676 0.95448917
7.3276367 8.8576174 -0.27075186 0.95504612
7.4097848 8.7311325 -0.26971081 0.95521498
7.4954882 8.6104097 -0.26887265 0.95535141
7.6376266 8.5542288 -0.27009124 0.95515323
8.2451849 8.349453 -0.27637354 0.95413446
8.4016504 8.2967186 -0.27810085 0.9538545
8.5600977 8.24331 -0.27989477 0.95356387
8.7206154 8.189209 -0.28175548 0.95326239
10.597099 8.1137991 -0.31435692 0.94799954
1.2681738 0.92137694 -0.036919784 0.99374771
1.2683105 0.87363279 -0.03627285 0.99385691
1.2685058 0.80500001 -0.035384331 0.99400687
1.2685449 0.7828418 -0.035108719 0.99405348
1.2686621 0.73955077 -0.034586027 0.9941417
1.2687012 0.71835935 -0.034338377 0.99418354
1.2914063 0.70993161 -0.03470844 0.99412102
1.3307421 0.70993161 -0.03552353 0.99398345
1.5087206 0.70993161 -0.039271507 0.99335074
1.612705 0.70993161 -0.041501008 0.99297464
1.6693066 0.70993161 -0.042723693 0.99276829
1.8611327 0.70993161 -0.046914786 0.99206173
2.0040135 0.70728517 -0.050053101 0.99153304
2.0039356 0.67906249 -0.049833946 0.99156994
2.0038867 0.65108395 -0.049624939 0.9916051
16.054941 4.9943943 -0.39600691 0.93493897
16.285429 4.1813865 -0.39600161 0.93493962
16.630829 4.047998 -0.40313181 0.93380791
18.495049 4.0122948 -0.44573379 0.9270739
20.877441 3.4412596 -0.49834871 0.91882455
20.956806 2.9154394 -0.49833643 0.91882646
20.991669 2.6518555 -0.49833107 0.91882694
21.023018 2.3878319 -0.49832624 0.91882807
21.05126 2.123457 -0.49832198 0.91882849
21.076172 1.8587402 -0.49831825 0.9188289
21.097569 1.5937207 -0.49831504 0.91882998
21.115908 1.3284863 -0.49831235 0.91883004
21.150761 0.53166991 -0.49830756 0.91883081
21.155771 0.26583984 -0.49830702 0.91883081
21.155771 -0.26587889 -0.49830759 0.91883081
21.150879 -0.53168947 -0.49830866 0.91883039
21.130928 -1.0630566 -0.49831247 0.9188301
21.051367 -2.1234863 -0.49832648 0.91882807
21.02334 -2.3878906 -0.49833128 0.91882688
20.991787 -2.6518848 -0.4983367 0.91882646
20.957109 -2.9155078 -0.49834257 0.91882533
20.919033 -3.1786621 -0.49834904 0.91882455
20.833183 -3.7034569 -0.49836349 0.91882217
20.785303 -3.9650195 -0.49837154 0.91882104
19.878252 -4.0515137 -0.4778049 0.92203671
18.507294 -4.0149512 -0.44602847 0.9270274
17.381201 -4 -0.42006943 0.93112487
16.428192 -3.9987109 -0.39822036 0.93458742
16.354101 -4.1990428 -0.39767066 0.93467444
16.232334 -4.3859081 -0.39601937 0.93493682
16.176348 -4.5896583 -0.39602867 0.93493521
16.117802 -4.7926855 -0.39603835 0.9349336
2.0038671 -0.65112305 -0.049624786 0.9916051
2.0039551 -0.67909181 -0.049834173 0.99156982
2.0040526 -0.70731443 -0.050052755 0.99153286
1.8611034 -0.70996094 -0.046914596 0.99206179
1.7931347 -0.70996094 -0.04542198 0.99231327
1.6692871 -0.70996094 -0.042723693 0.99276829
1.6127245 -0.70996094 -0.041500587 0.99297452
1.5087304 -0.70995116 -0.039271239 0.99335068
1.4607714 -0.70997071 -0.038252831 0.99352258
1.4152734 -0.70997071 -0.037291449 0.99368477
1.2686132 -0.76106441 -0.034842681 0.99409831
1.2685351 -0.78287107 -0.035108566 0.99405348
1.268496 -0.80503905 -0.035384215 0.99400681
1.2684277 -0.82753903 -0.035669975 0.99395859
1.2681934 -0.92140621 -0.036919706 0.99374759
10.357773 -7.9305563 -0.30724379 0.94914353
9.08957 -7.9125876 -0.28383362 0.95292622
8.8589649 -7.9097166 -0.27971515 0.95359319
8.4097853 -7.8973141 -0.27170798 0.95489013
8.2051954 -7.9015527 -0.26829043 0.95544559
7.9988766 -7.8989744 -0.26477021 0.95601732
7.7978611 -7.8964648 -0.26137963 0.95656794
7.6191111 -7.9117479 -0.25869644 0.95700383
3.3012109 -3.9904883 -0.12197708 0.97949147
6.4308591 -8.8513527 -0.25768411 0.95716876
6.427793 -9.0850143 -0.26211306 0.95644861
2.7210643 -4.0585351 -0.11508381 0.98063928
6.4178514 -9.8374367 -0.27664158 0.95409095
6.4142771 -10.10728 -0.28194124 0.95323247
9.4846582 -16.270132 -0.44356468 0.92741674
9.2624025 -16.357929 -0.44275114 0.92754513
2.2237694 -4.0450196 -0.10871731 0.98170042
8.5913868 -16.602787 -0.44029167 0.9279322
8.3663769 -16.67816 -0.43946883 0.92806214
8.1407223 -16.750278 -0.43864116 0.92819303
1.8068066 -3.968369 -0.10269615 0.98270512
7.3001757 -17.164789 -0.43932459 0.92808551
6.3370504 -15.435996 -0.39300337 0.9354167
3.167783 -8.3043404 -0.20933393 0.96506298
3.0482323 -8.3027582 -0.20831187 0.96523052
2.9362011 -8.3192625 -0.20778379 0.96531707
1.368418 -4.0381737 -0.10042122 0.98308504
1.3114452 -4.036211 -0.099954031 0.98316294
2.5865135 -8.3146238 -0.20508501 0.96575969
2.3530762 -8.2935305 -0.20304149 0.96609503
2.2560546 -8.349741 -0.20370811 0.96598572
2.2745898 -8.8589306 -0.21541697 0.96406627
2.2444725 -9.2212257 -0.22352174 0.96273959
2.9059179 -12.627138 -0.30517268 0.94947779
2.7472656 -12.66375 -0.3051984 0.9494735
1.9483496 -10.213598 -0.24489179 0.95925087
0.66340816 -4.0248241 -0.096073262 0.98381144
0.39995116 -3.9649315 -0.093857154 0.98418182
0.34771484 -3.9427733 -0.093222275 0.98428804
0.63353515 -12.593306 -0.29697791 0.9508006
0.47728515 -12.65437 -0.29825288 0.95059466
0.31955078 -12.711382 -0.29947692 0.95039678
-0.1630664 -12.977295 -0.30566999 0.9493975
-0.15139648 -4.0141797 -0.094610594 0.98405588
-0.65224606 -12.965273 -0.30574921 0.94938481
-1.1407422 -12.934755 -0.30582827 0.94937229
-1.7898241 -12.865605 -0.30593327 0.94935501
-1.9515039 -12.843135 -0.30595943 0.94935107
-2.2740428 -12.792241 -0.30601159 0.94934255
-2.7552733 -12.700654 -0.30608943 0.94933003
-1.0752538 -3.9795506 -0.097089037 0.98364168
-1.2298633 -3.9534667 -0.097514838 0.98357046
-4.018672 -12.368227 -0.30629367 0.94929725
-4.1741309 -12.317807 -0.30631876 0.94929302
-4.3289452 -12.26539 -0.30634376 0.94928896
-4.6365623 -12.154692 -0.30639347 0.94928098
-4.7892966 -12.096396 -0.30641815 0.94927716
-1.6407714 -3.9966991 -0.10175541 0.98286223
-4.2131639 -9.5706301 -0.24628609 0.95902377
-4.277451 -9.3946972 -0.24312207 0.95953929
-7.4654589 -15.864922 -0.41295856 0.9322502
-4.3829298 -8.7372847 -0.23022436 0.96164417
-4.3533397 -8.4127979 -0.22309864 0.96280903
-4.3821874 -8.214057 -0.2192703 0.96343529
-4.5147657 -8.2122993 -0.22072051 0.96319789
-2.3258398 -3.989785 -0.10876933 0.98169166
-2.6921484 -3.90833 -0.11177574 0.98119062
-10.243242 -14.477773 -0.41770601 0.93149948
-10.408945 -14.326709 -0.41708815 0.93159717
-10.745214 -14.033867 -0.41630262 0.93172276
-10.921445 -13.898647 -0.41633102 0.93171841
-3.2057128 -3.9757323 -0.1202866 0.9797731
-11.609101 -13.335942 -0.41644177 0.93170065
-11.776524 -13.189868 -0.41646874 0.93169636
-12.427539 -12.584736 -0.41657346 0.93167949
-12.585429 -12.428271 -0.41659889 0.93167573
-4.1368847 -3.8848143 -0.13365997 0.97754955
-1.0370996 -0.94967771 -0.03311966 0.99438936
-1.0371581 -0.92604488 -0.032747649 0.99445224
-1.0373144 -0.88034177 -0.032043457 0.99457121
-1.0374511 -0.83653319 -0.031387977 0.99468189
-1.037627 -0.77399415 -0.03048851 0.99483395
-1.0376757 -0.75393552 -0.030209159 0.99488115
-1.0377442 -0.73422849 -0.029939689 0.99492663
-1.0377734 -0.71487302 -0.029679755 0.99497062
-1.0589062 -0.70997071 -0.030026283 0.99491203
-1.1187011 -0.70997071 -0.031205902 0.99471265
-1.1504004 -0.70995116 -0.031838644 0.99460578
-1.2178515 -0.70997071 -0.033201255 0.99437559
-1.2538183 -0.70995116 -0.033935469 0.99425155
-1.3307323 -0.70998043 -0.035523489 0.99398339
-1.460791 -0.70997071 -0.038252868 0.99352252
-1.5087109 -0.70997071 -0.039271466 0.99335068
-1.5593066 -0.70996094 -0.040352363 0.99316823
-1.6127343 -0.70997071 -0.041500892 0.99297446
-1.6692969 -0.70997071 -0.042723767 0.99276823
-1.7292968 -0.70996094 -0.044028241 0.99254841
-1.7783984 -0.70413083 -0.045049019 0.99237621
-1.7783691 -0.67839843 -0.044828679 0.99241334
-1.7783495 -0.65291011 -0.044617653 0.99244887
-13.072754 -4.066709 -0.32244891 0.94669533
-16.331553 -4.8562498 -0.40129259 0.93409979
-16.504169 -4.2375684 -0.40131992 0.9340952
-16.606035 -3.8216014 -0.40133598 0.93409294
-19.728485 -3.5070899 -0.4719393 0.92295635
-21.16288 -3.4883299 -0.50516325 0.91776162
-21.205263 -3.2221386 -0.50516987 0.91776079
-21.389051 -1.6157616 -0.50519788 0.91775596
-21.407772 -1.346875 -0.50520062 0.91775554
-21.423105 -1.0777441 -0.50520283 0.91775519
-21.434961 -0.80844724 -0.50520444 0.91775519
-19.17746 -0 -0.50483811 0.92613393
-19.175947 0.24097656 -0.50483757 0.92613393
-19.139355 1.2041309 -0.5048306 0.92613488
-19.122549 1.444541 -0.50482762 0.92613554
-19.054071 2.1641893 -0.50481582 0.92613721
-18.879473 3.3561327 -0.50478625 0.92614138
-18.835566 3.5930662 -0.50477886 0.92614228
-18.788662 3.8294139 -0.50477105 0.92614329
-18.445948 4.4898047 -0.49975941 0.92684925
-16.52828 4.4658494 -0.45070294 0.93378633
-14.357431 5.0673046 -0.4008013 0.94089592
-1.7791991 0.65318358 -0.049892806 0.99244481
-1.7792578 0.70444334 -0.050375745 0.99237204
-1.6692969 0.70993161 -0.047752533 0.99276781
-1.5592773 0.70994139 -0.045101929 0.99316794
-1.4608008 0.70993161 -0.042755622 0.99352211
-1.4152637 0.70993161 -0.041681059 0.99368447
-1.3719629 0.70993161 -0.040665548 0.99383789
-1.3307519 0.70993161 -0.039704628 0.99398297
-1.2913965 0.70993161 -0.038793791 0.9941206
-1.253828 0.70993161 -0.037929915 0.99425113
-1.2178515 0.70994139 -0.03710945 0.99437523
-1.1187011 0.70992184 -0.034878995 0.99471241
-1.0369726 0.75339842 -0.033742104 0.99488431
-1.036709 0.83590817 -0.035057638 0.99468541
-1.0366309 0.8575781 -0.035416719 0.99463111
-1.0365722 0.87967771 -0.035789069 0.99457479
-1.0363183 0.94894528 -0.036990318 0.99439323
-9.2310152 8.6684866 -0.33334976 0.95059234
-9.2280951 8.886611 -0.33725172 0.95002878
-9.2189941 9.5732517 -0.34986633 0.94820899
-9.2091303 10.314336 -0.36399636 0.9461745
-9.1984472 11.118994 -0.37988111 0.9438929
-9.1946583 11.403213 -0.38561279 0.94307089
-9.1867476 11.998398 -0.39780295 0.94132483
-9.0837593 12.177939 -0.39993984 0.94101924
-8.773818 12.400859 -0.39988941 0.94102615
-8.4583006 12.615762 -0.39983809 0.94103372
-8.1375189 12.822637 -0.39978591 0.94104129
-7.9752245 12.923057 -0.39975956 0.94104493
-7.8117185 13.021435 -0.39973298 0.9410485
-7.4810057 13.211816 -0.39967921 0.94105637
-7.3138571 13.303808 -0.39965206 0.94106054
-7.1456151 13.393769 -0.39962471 0.94106436
-6.9762597 13.481563 -0.3995972 0.94106835
-6.8058496 13.567256 -0.39956951 0.94107217
-6.6343555 13.650771 -0.39954165 0.9410761
-6.2883105 13.811172 -0.39948547 0.94108438
-5.9384274 13.962939 -0.39942864 0.94109219
-5.5848336 14.105644 -0.39937127 0.94110078
-5.4213672 14.212041 -0.40042129 0.94095033
-5.2102928 14.762431 -0.4121078 0.93928027
-5.175498 16.637022 -0.45866102 0.93265688
-5.1650681 17.370176 -0.47704977 0.93005413
-5.1537695 18.164619 -0.49704924 0.92723101
-4.9792967 18.428514 -0.50251949 0.9264605
-4.7469821 18.488272 -0.50248182 0.92646569
-4.5139356 18.545038 -0.50244397 0.92647111
-3.8109081 18.697754 -0.50233001 0.92648715
-2.8657618 18.859882 -0.50217682 0.92650867
-2.6283398 18.892948 -0.50213832 0.92651409
-2.3905566 18.923115 -0.50209981 0.92651922
-2.1524024 18.950214 -0.50206119 0.92652458
-0.95790035 19.040625 -0.50186765 0.92655188
-0.71849608 19.049696 -0.50182891 0.9265573
-0.23952147 19.058701 -0.50175136 0.92656857
-9.7656248e-06 19.058838 -0.50171256 0.92657363
0.23948242 19.05579 -0.50167382 0.92657936
0.4788574 19.049805 -0.50163502 0.92658484
0.95728511 19.02873 -0.50155759 0.92659605
1.6734277 18.974823 -0.50144166 0.92661208
2.1494238 18.923876 -0.50136465 0.92662287
2.6239061 18.861053 -0.50128788 0.92663348
2.8604686 18.825068 -0.50124967 0.9266392
2.8687205 16.137568 -0.43147314 0.93651944
3.391289 14.736211 -0.39806345 0.94128758
3.5758398 14.691015 -0.39802581 0.94129312
3.9431736 14.593838 -0.39795098 0.94130355
3.0967577 10.91456 -0.29865381 0.95561779
3.2020116 10.76835 -0.29573882 0.95604253
3.3471875 10.759766 -0.29663429 0.95591229
5.0284863 14.247393 -0.39772972 0.94133532
5.2066603 14.181797 -0.3976934 0.94134045
5.5603418 14.043858 -0.3976213 0.94135106
6.428359 13.660976 -0.39744437 0.94137615
6.5989356 13.577909 -0.39740962 0.94138122
6.7998533 10.714834 -0.33406946 0.95048863
7.4955077 8.6104193 -0.30052245 0.95534831
1.267246 0.94526362 -0.041618157 0.99369395
1.2674609 0.87305665 -0.040514983 0.9938606
1.2676075 0.82696289 -0.039842263 0.99396217
1.2676758 0.80446285 -0.039523277 0.99401039
1.2677441 0.78233397 -0.039215583 0.99405682
1.2677832 0.76053709 -0.038918648 0.99410176
1.2914063 0.70993161 -0.038793676 0.9941206
1.4152832 0.70993161 -0.041680947 0.99368441
1.5087206 0.70993161 -0.043893624 0.99335027
1.5592871 0.70993161 -0.045101777 0.99316788
1.7292968 0.70994139 -0.049210206 0.99254787
1.7931249 0.70993161 -0.050768394 0.99231285
1.9337499 0.70993161 -0.054227334 0.99179125
2.0060546 0.67978513 -0.055757903 0.99156046
14.375049 4.4718165 -0.39630255 0.94153947
14.430068 4.2908201 -0.39630148 0.94153959
14.482597 4.1090722 -0.39629364 0.9415406
15.78413 4.0526657 -0.42898518 0.93687356
16.588135 4.0376267 -0.44942188 0.93396765
18.563524 3.7835252 -0.49872303 0.92699516
18.652313 3.3157518 -0.49870914 0.92699677
18.692158 3.0810351 -0.49870294 0.92699808
18.794521 2.3742969 -0.49868712 0.92699987
18.822685 2.1379101 -0.49868283 0.92700058
18.8479 1.9011914 -0.49867895 0.92700118
18.937147 0.47602537 -0.49866608 0.92700273
18.941641 0.23801757 -0.49866557 0.92700273
18.943125 -9.7656248e-06 -0.49866557 0.92700273
18.937147 -0.47603515 -0.49866706 0.92700273
18.919287 -0.95179683 -0.49867046 0.92700243
18.889648 -1.4269726 -0.49867576 0.92700148
18.82287 -2.137959 -0.49868736 0.92699987
18.794687 -2.3743358 -0.49869215 0.92699921
18.763622 -2.6103516 -0.49869743 0.92699832
18.729511 -2.845957 -0.49870321 0.92699766
18.692539 -3.0811327 -0.49870944 0.92699665
18.652479 -3.3158007 -0.49871621 0.92699611
18.507284 -4.0149608 -0.49852869 0.92702258
14.710283 -3.9746678 -0.40112618 0.9408493
14.482861 -4.1091895 -0.39630234 0.94153953
14.430409 -4.290947 -0.39631101 0.94153821
14.375664 -4.4720411 -0.3963201 0.94153702
2.0060546 -0.67980468 -0.055757828 0.99156046
1.6692871 -0.70996094 -0.047752302 0.99276781
1.6127245 -0.70996094 -0.046385307 0.99297404
1.5087304 -0.70995116 -0.043893509 0.99335021
1.3307323 -0.70996094 -0.039704245 0.99398297
1.2913867 -0.70997071 -0.038793638 0.9941206
1.2678516 -0.73910153 -0.038632393 0.99414498
1.2678027 -0.76056641 -0.03891876 0.99410164
1.2677441 -0.78236324 -0.039215621 0.99405676
1.2673242 -0.92079097 -0.041237183 0.99375141
8.4097853 -7.8973241 -0.30369464 0.95488703
6.8638377 -7.8848143 -0.27519232 0.95903301
3.3923535 -3.9972851 -0.13801201 0.9792403
3.3012109 -3.9904883 -0.136334 0.9794901
3.2547557 -4.0365233 -0.13649948 0.97946554
6.4395504 -8.1949902 -0.27436349 0.95915377
9.9624701 -13.712177 -0.44618475 0.93442845
2.647002 -4.0574317 -0.12752949 0.98080188
8.9891596 -14.164643 -0.44163093 0.93507534
8.7964163 -14.253716 -0.44092491 0.93517542
8.4082422 -14.423623 -0.43950358 0.93537748
2.2263868 -4.0497656 -0.12165569 0.98167789
7.2986326 -15.017607 -0.43955207 0.93537086
1.8663281 -3.9661131 -0.11538734 0.98261368
1.7615331 -4.0014844 -0.11509082 0.98265785
5.9263377 -14.435664 -0.41078866 0.93946862
3.167783 -8.3043509 -0.23397276 0.96506053
3.0482128 -8.3027582 -0.23283049 0.9652282
2.8186231 -8.3177004 -0.23118865 0.96546894
1.3106836 -4.0338864 -0.11165436 0.9831714
2.4665332 -8.2950344 -0.22781189 0.96596479
2.2444921 -9.2212305 -0.24983104 0.96273702
2.6003418 -11.299253 -0.30522075 0.9546653
2.4583106 -11.331855 -0.30524382 0.95466208
1.8112891 -9.4950972 -0.25446102 0.9620598
0.66442382 -4.0308595 -0.10754257 0.98378623
1.3094336 -11.528355 -0.30543002 0.9546352
0.39995116 -3.9649315 -0.10490417 0.98418075
0.34771484 -3.9427733 -0.10419414 0.98428696
0.29852539 -3.9517968 -0.10432521 0.98426735
0.58319336 -11.592285 -0.30554768 0.95461816
0.43750975 -11.599628 -0.30557129 0.95461458
0.29173827 -11.605063 -0.30559486 0.9546113
0.14589843 -11.608745 -0.30561852 0.95460778
0 -11.610566 -0.30564213 0.95460433
-0.15150391 -4.0168943 -0.10581771 0.98404408
-0.87498045 -11.58292 -0.30578378 0.95458388
-1.1659765 -11.559062 -0.30583087 0.95457697
-1.8901953 -11.467456 -0.30594805 0.95455992
-0.76458007 -4.0081053 -0.1074139 0.98380542
-2.6075096 -11.330396 -0.30606404 0.95454323
-1.2298633 -3.9534667 -0.10899242 0.98356938
-3.7337108 -11.018095 -0.30624607 0.95451659
-3.8721287 -10.971065 -0.30626842 0.95451355
-4.1472068 -10.871865 -0.30631289 0.95450711
-4.2838087 -10.819687 -0.30633491 0.95450383
-4.4197559 -10.765786 -0.30635688 0.95450062
-1.6984766 -3.9936328 -0.11424305 0.98278469
-4.0401759 -8.873559 -0.25666338 0.96173757
-4.3779101 -9.3035297 -0.2706717 0.95969218
-4.3607616 -8.9726562 -0.26261774 0.96086758
-4.3533397 -8.4127979 -0.24935636 0.96280652
-4.3821874 -8.214057 -0.24507768 0.96343285
-2.1941893 -3.9911914 -0.11989655 0.98194051
-2.2574413 -3.9867675 -0.120606 0.98183459
-4.934082 -8.2247066 -0.25248387 0.96234906
-5.0635548 -8.2049952 -0.25381169 0.96215475
-5.2058396 -8.2031002 -0.25575739 0.96187037
-2.6222167 -3.9111133 -0.12395649 0.98133469
-2.6921778 -3.9083495 -0.12493141 0.98118925
-9.386445 -12.58375 -0.41326612 0.93911493
-3.4600194 -3.9747069 -0.13872325 0.97913456
-3.546494 -3.9721289 -0.14017753 0.97891808
-10.825566 -11.528061 -0.41631296 0.93868178
-11.113134 -11.253691 -0.41635925 0.93867487
-11.254268 -11.113765 -0.41638196 0.93867165
-4.079453 -3.9285057 -0.14908889 0.97759306
-4.1368847 -3.8848143 -0.1493912 0.977548
-1.0363183 -0.94896483 -0.036990393 0.99439317
-1.0367187 -0.8359375 -0.035057411 0.99468529
-1.036787 -0.81470704 -0.034710884 0.99473774
-1.0368555 -0.7938965 -0.034376562 0.99478829
-1.0369238 -0.77347654 -0.034053687 0.99483705
-1.0369824 -0.75341797 -0.033742025 0.99488419
-1.0370898 -0.71438473 -0.03315109 0.9949736
-1.0882324 -0.70996094 -0.034204062 0.99481434
-1.1187011 -0.70997071 -0.034878846 0.99471229
-1.1834179 -0.70997071 -0.036328848 0.99449313
-1.2178711 -0.70997071 -0.037109032 0.99437511
-1.2538086 -0.70996094 -0.03792984 0.99425113
-1.2914063 -0.70996094 -0.038793791 0.99412054
-1.4152734 -0.70995116 -0.0416811 0.99368441
-1.460791 -0.70997071 -0.042754974 0.99352211
-1.6692969 -0.70997071 -0.047752455 0.99276775
-1.7792578 -0.70447266 -0.05037567 0.99237204
-1.7791991 -0.65322262 -0.049892731 0.99244475
-14.363623 -5.0695019 -0.40097418 0.94087118
-14.487148 -4.7071776 -0.40099382 0.9408685
-13.072743 -4.066709 -0.36039951 0.94669181
-14.706621 -3.9736814 -0.40102854 0.94086355
-16.37962 -3.5533886 -0.44121596 0.93513376
-17.36458 -3.5391991 -0.46651343 0.9315449
-18.879814 -3.3562207 -0.50479347 0.92614007
-18.958622 -2.8807714 -0.50480568 0.92613846
-18.993505 -2.6423242 -0.50481111 0.9261378
-19.080107 -1.9246386 -0.50482434 0.9261359
-19.102959 -1.6847167 -0.5048278 0.92613524
-19.122725 -1.4445508 -0.50483078 0.92613488
-19.139442 -1.2041601 -0.50483322 0.92613459
-19.171415 -0.48193359 -0.50483757 0.92613387
-19.175957 -0.24097656 -0.50483811 0.92613387
-17.338614 0.21789062 -0.50454009 0.93296343
-17.317852 0.87120116 -0.50453603 0.93296427
-17.305546 1.0887696 -0.50453383 0.93296427
-17.228466 1.9568359 -0.50452042 0.93296617
-17.202383 2.1731446 -0.50451595 0.93296671
-17.107695 2.8198826 -0.50449991 0.9329688
-16.988564 3.462539 -0.50447994 0.93297142
-16.943506 3.675703 -0.50447243 0.93297219
-16.895664 3.888242 -0.50446451 0.93297344
-16.845215 4.1001854 -0.5044561 0.9329744
-16.791992 4.3114548 -0.50444722 0.93297583
-13.642754 4.4327831 -0.41739225 0.94421285
-1.7800391 0.65349609 -0.055173643 0.9924407
-1.7800781 0.67901367 -0.055435371 0.992405
-1.6127343 0.70993161 -0.051271055 0.99297351
-1.4608008 0.70993161 -0.047258642 0.99352163
-1.15042 0.70993161 -0.039334372 0.99460495
-1.1187011 0.70992184 -0.038552247 0.994712
-1.058916 0.70993161 -0.037094954 0.99491131
-1.0364063 0.71388668 -0.036618002 0.99497658
-1.0363379 0.73320311 -0.036938515 0.99493283
-1.0362011 0.77291989 -0.037614517 0.99484032
-1.0361328 0.79331052 -0.037970655 0.99479157
-1.03583 0.87906247 -0.039530028 0.99457818
-1.0355761 0.94823241 -0.040855825 0.99439687
-9.2310152 8.6684866 -0.36845887 0.95058864
-9.2189741 9.5732327 -0.38671303 0.94820523
-9.2157907 9.8137989 -0.39172083 0.94755226
-9.2124996 10.060713 -0.39692459 0.9468745
-9.0246677 10.367022 -0.39993218 0.94648278
-8.8932028 10.479043 -0.39991081 0.94648558
-8.7603121 10.589365 -0.39988914 0.94648856
-8.4905272 10.805019 -0.39984524 0.9464941
-8.2153902 11.01376 -0.39980045 0.94649988
-8.0758791 11.115479 -0.39977774 0.94650292
-7.7930956 11.313613 -0.39973176 0.94650888
-7.6498632 11.409931 -0.39970848 0.9465121
-7.5054393 11.504501 -0.39968497 0.94651508
-7.3598633 11.597226 -0.39966133 0.94651812
-7.2130957 11.688076 -0.39963743 0.94652134
-7.0652246 11.77708 -0.39961341 0.9465245
-6.9162693 11.864247 -0.39958918 0.94652754
-6.766201 11.949492 -0.3995648 0.94653076
-6.6151171 12.032832 -0.39954025 0.94653392
-6.1557322 12.271298 -0.39946562 0.94654369
-5.8446875 12.420576 -0.39941514 0.94655013
-5.6877928 12.492275 -0.39938965 0.94655335
-5.2395701 12.762695 -0.40143287 0.94628757
-5.2305565 13.210811 -0.41342849 0.94472778
-5.2209373 13.68663 -0.42623124 0.94306576
-5.2107129 14.192832 -0.43992022 0.94129181
-5.2008786 14.735868 -0.45469126 0.93938166
-5.1924901 15.322948 -0.47075549 0.93730855
-5.183486 15.953125 -0.48807764 0.93507844
-5.130322 16.491816 -0.50254601 0.93321961
-4.9223633 16.553886 -0.50251228 0.9332239
-4.7136521 16.61334 -0.50247842 0.93322814
-4.504209 16.670166 -0.50244439 0.93323237
-4.2940526 16.724209 -0.50241035 0.93323714
-4.0833106 16.775761 -0.50237614 0.93324131
-3.8719139 16.824629 -0.50234187 0.9332456
-3.6599414 16.87079 -0.50230747 0.93325007
-3.4474022 16.914267 -0.50227302 0.93325454
-2.806875 17.0287 -0.50216919 0.93326777
-2.5924902 17.061348 -0.50213444 0.93327254
-2.3777344 17.091455 -0.50209969 0.93327683
-1.7314941 17.165352 -0.50199491 0.93329024
-1.5155468 17.184483 -0.50195992 0.93329501
-1.2993847 17.201054 -0.50192493 0.93329918
-1.0830566 17.214804 -0.50188988 0.93330377
-0.86659175 17.225927 -0.50185484 0.93330795
-0.43335935 17.239815 -0.50178468 0.93331712
-0.21669921 17.242676 -0.50174958 0.93332171
0.21665038 17.240282 -0.50167942 0.93333066
0.43327147 17.234932 -0.50164437 0.93333536
0.64974606 17.226923 -0.50160927 0.93333989
0.86612302 17.21619 -0.50157428 0.93334436
1.0823144 17.202831 -0.50153929 0.93334854
1.5140625 17.167734 -0.50146943 0.93335778
1.7295312 17.146152 -0.50143456 0.93336231
2.3740723 17.065292 -0.50133026 0.93337548
2.8516698 14.948896 -0.44281164 0.94091767
2.8462012 13.964531 -0.41467956 0.94456512
2.9010546 13.372725 -0.39815906 0.94671392
3.0686913 13.334346 -0.39813006 0.94671732
3.2357128 13.293554 -0.398096 0.94672191
3.4022069 13.250703 -0.39806205 0.94672638
3.5681152 13.205732 -0.39802822 0.94673097
3.0756445 10.840146 -0.32786512 0.95591033
3.2011328 10.765469 -0.32679769 0.95605075
3.3465331 10.757686 -0.32781211 0.95591736
4.2257419 13.005488 -0.39789411 0.94674808
4.5504589 12.892998 -0.39782798 0.94675684
5.0319333 12.709229 -0.39772978 0.94676948
5.6623044 12.436318 -0.39760131 0.94678628
6.1255665 12.211171 -0.39750692 0.94679856
6.5799313 11.968838 -0.39741439 0.94681054
6.7292967 11.884296 -0.39738399 0.94681454
7.4955077 8.6104193 -0.33217025 0.95534497
1.2666992 0.84925777 -0.044374388 0.9939158
1.2667675 0.82641602 -0.044009473 0.99396569
1.2669238 0.78184569 -0.043317985 0.99406016
1.267041 0.73859376 -0.042673796 0.99414831
1.2670996 0.71746093 -0.042368852 0.99418998
1.2914063 0.70993161 -0.0428796 0.99412012
1.3719823 0.70992184 -0.044948235 0.99383736
1.4152832 0.70993161 -0.046070747 0.99368393
1.5087206 0.70993161 -0.048516653 0.99334979
1.5592871 0.70993161 -0.04985176 0.99316734
1.6693066 0.70993161 -0.052781601 0.99276721
1.7931249 0.70993161 -0.056115303 0.99231225
2.0081737 0.680498 -0.061695289 0.99155092
2.0080762 0.65244138 -0.061435658 0.99158639
13.1629 4.0947361 -0.40110466 0.94633019
13.731621 4.0831347 -0.41683871 0.94428468
14.346816 4.0705566 -0.43392548 0.94206816
16.713505 3.846328 -0.49902251 0.93367159
16.84585 3.213496 -0.49900177 0.9336744
16.920889 2.7890821 -0.49899006 0.93367594
16.954453 2.5762208 -0.49898487 0.93367648
17.013563 2.1492968 -0.49897575 0.93367749
17.061914 1.7210351 -0.49896833 0.93367863
17.099569 1.2917187 -0.49896273 0.93367934
17.14665 0.21545897 -0.49895626 0.93368042
17.126493 -0.86160153 -0.49896064 0.93367988
17.099716 -1.2917383 -0.49896544 0.93367881
17.062059 -1.7210742 -0.498972 0.93367803
17.013632 -2.1493359 -0.49898031 0.93367726
16.954571 -2.5762694 -0.49899033 0.933676
16.760536 -3.6360157 -0.49902284 0.93367147
14.67288 -3.9645605 -0.44224608 0.94099081
13.941845 -3.9556737 -0.42167845 0.94365644
13.013096 -4.0481739 -0.39654028 0.94692445
2.0082617 -0.70881832 -0.061966818 0.99151391
1.6692871 -0.70996094 -0.052781601 0.99276727
1.6127245 -0.70996094 -0.051270712 0.99297351
1.4607714 -0.70997071 -0.047258034 0.99352169
1.3719727 -0.70996094 -0.044948041 0.9938373
1.2913867 -0.70997071 -0.042879257 0.99412012
1.2670312 -0.73864257 -0.042673796 0.99414825
1.2669824 -0.76008785 -0.042990226 0.99410498
1.266914 -0.78187495 -0.043317869 0.99406016
1.2668555 -0.80398434 -0.043657567 0.99401373
1.2666211 -0.8725 -0.044752426 0.99386412
1.2664648 -0.92016602 -0.04554962 0.9937551
1.2663867 -0.94464844 -0.045970116 0.99369764
11.38541 -10.165434 -0.44411585 0.94074947
10.918301 -10.514267 -0.44105101 0.94114608
10.498672 -10.902119 -0.44040161 0.94123071
10.221699 -11.162842 -0.44040763 0.94122905
9.9367476 -11.414834 -0.4403564 0.94123584
3.3923144 -3.9972851 -0.15254708 0.97923881
3.2547362 -4.0365524 -0.15087539 0.97946393
8.9136133 -12.268564 -0.44125542 0.94111991
8.5786715 -12.454058 -0.44003052 0.94127822
2.6421387 -4.0499315 -0.14070091 0.9808355
2.4304786 -4.0514159 -0.13746944 0.98127145
2.2929883 -4.0495114 -0.13540684 0.98154992
7.2825584 -13.246953 -0.43985549 0.94130057
7.1341405 -13.372285 -0.44100761 0.94115168
6.3291602 -12.617105 -0.41072151 0.94507951
6.170527 -12.696485 -0.41074726 0.94507593
5.5262012 -12.99377 -0.4108519 0.94506246
5.3628612 -13.063042 -0.41087845 0.94505894
2.9362011 -8.319253 -0.25669909 0.96531218
2.8186231 -8.3176804 -0.25553694 0.96546638
2.3530955 -8.2935009 -0.25084054 0.96609026
2.2560742 -8.3497505 -0.25166464 0.96598077
2.2746093 -8.8589602 -0.26613009 0.96406096
2.2444921 -9.2212791 -0.27614394 0.96273404
2.3528709 -10.223843 -0.3052597 0.95888692
0.76815426 -4.0267286 -0.11927833 0.98372948
1.5220605 -10.01689 -0.29480681 0.96026629
1.4199219 -10.206606 -0.29984018 0.95960164
1.3156152 -10.414165 -0.30542785 0.95886451
1.1847363 -10.430547 -0.30544904 0.95886189
0.34771484 -3.9427831 -0.11516811 0.98428571
0.29853514 -3.9518065 -0.11531258 0.9842661
0.25191405 -4.0038962 -0.11673141 0.98407412
0.52763671 -10.488008 -0.30555552 0.95884788
0.39583007 -10.494535 -0.30557686 0.95884508
0.26392576 -10.499468 -0.3055982 0.95884204
-0.13200195 -10.504141 -0.30566233 0.95883363
-0.2640039 -10.502343 -0.3056837 0.95883101
-0.20196289 -4.014658 -0.11696247 0.98404294
-0.79157227 -10.478774 -0.30576909 0.95881963
-1.1862206 -10.443682 -0.30583298 0.95881116
-1.3174413 -10.428681 -0.3058542 0.95880836
-1.5793164 -10.393686 -0.30589655 0.95880288
-2.100127 -10.304023 -0.3059808 0.95879185
-2.2296093 -10.277539 -0.30600172 0.95878905
-2.3587401 -10.249429 -0.30602261 0.95878619
-2.6159179 -10.1883 -0.30606419 0.95878071
-1.1160644 -3.9337206 -0.11897694 0.98377031
-1.2298633 -3.9534764 -0.12047149 0.98356807
-3.2515917 -10.007304 -0.30616692 0.95876712
-3.7512693 -9.8338718 -0.30624765 0.95875657
-3.8747852 -9.7866163 -0.30626759 0.95875388
-1.7571777 -3.9915917 -0.12689903 0.98269904
-4.1264844 -8.4906101 -0.27468318 0.96292764
-2.1295702 -3.9916797 -0.131641 0.98205835
-2.1914356 -3.9862597 -0.13235961 0.98196131
-4.6591601 -8.2283592 -0.27513838 0.96286744
-2.578203 -3.9519238 -0.13729607 0.98129493
-8.4890814 -11.380693 -0.41311952 0.94476765
-8.6318941 -11.273735 -0.41314253 0.94476473
-8.7733593 -11.165019 -0.41316536 0.94476169
-3.4565332 -3.9706738 -0.15317687 0.97915387
-9.733613 -10.629828 -0.41938198 0.94395512
-10.094785 -10.222456 -0.41802886 0.94413012
-10.211699 -10.084189 -0.41759357 0.94418716
-4.1369238 -3.8848143 -0.16512614 0.97754622
-1.0356641 -0.92469722 -0.040397719 0.99445945
-1.0357519 -0.90164059 -0.039956056 0.99451989
-1.03583 -0.87907225 -0.039529875 0.99457818
-1.0360059 -0.83535153 -0.038722571 0.99468857
-1.0360742 -0.81414062 -0.038339805 0.99474096
-1.0361524 -0.79333985 -0.037970733 0.99479145
-1.0362011 -0.77294922 -0.037614439 0.9948402
-1.0362793 -0.75291991 -0.037270356 0.99488723
-1.0363574 -0.73324215 -0.036938436 0.99493265
-1.0364063 -0.71392578 -0.036618154 0.99497652
-1.0589062 -0.70997071 -0.03709507 0.99491125
-1.0882128 -0.70995116 -0.037806585 0.99481398
