# .PCD v0.7 - Point Cloud Data file format
VERSION 0.7
FIELDS x y z intensity
SIZE 4 4 4 4
TYPE F F F F
COUNT 1 1 1 1
WIDTH 1085
HEIGHT 1
VIEWPOINT 0 0 0 1 0 0 0
POINTS 1085
DATA ascii
-6.936162 -2.4480567 -0.50001311 0.97094071
-6.966279 -2.3606737 -0.50000614 0.97094107
-6.9952927 -2.2729101 -0.49999937 0.97094148
-7.0232129 -2.1848047 -0.49999291 0.97094184
-7.0757422 -2.0075684 -0.49998066 0.9709425
-7.1003122 -1.9184765 -0.49997494 0.97094291
-7.1237793 -1.8290918 -0.49996942 0.97094321
-7.1461229 -1.7394042 -0.49996421 0.97094351
-7.1673532 -1.6494336 -0.49995926 0.97094381
-7.2242479 -1.3780956 -0.49994591 0.97094452
-7.2708883 -1.1048046 -0.49993491 0.97094518
-7.2841406 -1.0133399 -0.49993178 0.97094542
-7.3170409 -0.73807615 -0.49992391 0.97094584
-7.3332224 -0.55395508 -0.49992004 0.97094607
-7.3447852 -0.36951172 -0.49991721 0.97094625
-7.351748 -0.18480468 -0.49991542 0.97094625
-7.0651269 0.088779293 -0.49998084 0.9720642
-7.0606542 0.26629883 -0.49998167 0.97206426
-7.0517774 0.44366211 -0.49998355 0.97206408
-7.0384178 0.6207422 -0.49998641 0.97206402
-7.0206637 0.7974121 -0.49999031 0.97206378
-6.9718847 1.1491895 -0.50000107 0.97206312
-6.956943 1.236709 -0.50000447 0.97206295
-6.9408884 1.3240331 -0.50000805 0.97206283
-6.923779 1.4111718 -0.50001186 0.97206253
-6.9055371 1.4980761 -0.50001591 0.97206235
-6.8443456 1.7573242 -0.50002968 0.97206163
-6.8218164 1.8432226 -0.50003475 0.97206128
-6.7981639 1.9288086 -0.50004011 0.97206104
-6.7734962 2.0141113 -0.50004572 0.97206062
-6.6640625 2.3520117 -0.50007039 0.97205931
-1.7929296 0.65823239 -0.13514964 0.99237037
-1.7931347 0.70993161 -0.13646759 0.99229628
-1.7293359 0.70994139 -0.13228035 0.99253178
-1.5087402 0.70994139 -0.11798923 0.9933359
-1.4608105 0.70993161 -0.1149292 0.99350816
-1.4152734 0.70993161 -0.11204113 0.99367088
-1.3720019 0.70994139 -0.10931137 0.99382448
-1.3307323 0.70994139 -0.10672813 0.9939701
-1.2913965 0.70994139 -0.1042799 0.99410796
-1.2538183 0.70995116 -0.10195759 0.99423879
-1.1834375 0.70994139 -0.097654417 0.99448127
-1.1187011 0.70994139 -0.093756594 0.99470103
-1.0882324 0.70994139 -0.091943279 0.99480325
-1.0258691 0.74531251 -0.089726903 0.99492812
-1.0257128 0.76505858 -0.090546377 0.99488193
-1.0255274 0.78518552 -0.091395453 0.99483407
-1.0249804 0.84791988 -0.094130211 0.99467993
-1.0247949 0.86967772 -0.095108561 0.99462473
-1.0243847 0.91458982 -0.097173572 0.99450839
-1.0241504 0.93778318 -0.098263279 0.99444705
-5.1551366 4.8409667 -0.50041384 0.97204036
-5.0940232 4.905498 -0.50042778 0.97203964
-4.9059472 5.0944529 -0.5004707 0.97203726
-4.7766504 5.2164354 -0.50050026 0.97203565
-4.6443357 5.3351464 -0.50053048 0.97203398
-4.3709373 5.5624509 -0.50059295 0.97203058
-3.8662694 5.9262986 -0.50070828 0.9720242
-3.7916307 5.9746189 -0.50072539 0.97202325
-3.564121 6.1139159 -0.50077742 0.97202039
-3.4871287 6.1584473 -0.50079501 0.97201937
-3.4095995 6.2019725 -0.50081277 0.97201848
-3.3314941 6.2445602 -0.50083065 0.97201753
-3.1737401 6.3267579 -0.50086671 0.97201556
-3.0941014 6.3663669 -0.50088495 0.97201455
-3.0139842 6.4049997 -0.50090325 0.97201347
-2.9333594 6.4425974 -0.50092173 0.97201246
-2.8522949 6.4791989 -0.50094032 0.97201139
-2.7707324 6.5147653 -0.50095898 0.97201043
-2.6887598 6.5493259 -0.50097775 0.9720093
-2.6063573 6.5828319 -0.50099659 0.97200829
-2.3566601 6.6771383 -0.50105375 0.97200519
-2.1882813 6.7347751 -0.50109231 0.9720031
-2.1035547 6.7620115 -0.50111169 0.97200197
-1.9331152 6.8132715 -0.50115079 0.97199982
-1.8474315 6.837285 -0.5011704 0.97199875
-1.7614257 6.8602343 -0.50119013 0.97199768
-1.5885839 6.9028807 -0.5012297 0.97199547
-1.2399511 6.9750977 -0.50130957 0.97199106
-1.0643653 7.0045996 -0.50134981 0.97198892
-0.88806641 7.0296969 -0.50139022 0.97198671
-0.62256837 7.0590429 -0.50145108 0.97198331
-0.35611328 7.0783591 -0.50151217 0.97197992
-0.26715821 7.0825391 -0.50153255 0.9719789
0.089062497 7.0881834 -0.50161427 0.97197431
0.35622069 7.0806637 -0.50167555 0.97197092
0.44516599 7.0759277 -0.50169599 0.97196978
0.5340625 7.0700293 -0.50171632 0.97196877
0.71162111 7.0549707 -0.50175709 0.97196645
0.80025387 7.0457516 -0.50177741 0.97196531
0.97712886 7.0239844 -0.50181806 0.97196311
1.1534277 6.9977636 -0.50185847 0.9719609
1.2413379 6.9829884 -0.50187868 0.97195983
1.3290331 6.9671383 -0.50189877 0.97195864
1.4165235 6.9501562 -0.50191891 0.97195756
1.503828 6.9320898 -0.50193894 0.97195643
2.1926465 6.748281 -0.50209713 0.97194779
2.2773633 6.7204785 -0.50211656 0.9719466
2.3617089 6.6915817 -0.50213593 0.97194558
2.5293262 6.6306152 -0.50217444 0.9719435
2.8596971 6.4961329 -0.50225037 0.97193938
3.0222752 6.4226952 -0.50228775 0.9719373
3.3416502 6.2636619 -0.50236118 0.97193319
3.6526854 6.0887108 -0.50243264 0.97192925
3.7290332 6.0425291 -0.50245023 0.9719283
3.8799803 5.9473243 -0.50248498 0.97192639
3.9545312 5.8982911 -0.50250214 0.9719255
4.1744432 5.7456541 -0.50255269 0.97192264
4.3884568 5.584785 -0.50260198 0.97191995
4.4584374 5.5293651 -0.50261807 0.97191906
4.6641111 5.3579102 -0.50266546 0.97191644
4.7312303 5.2990332 -0.5026809 0.97191554
4.7975583 5.2393064 -0.50269616 0.97191483
4.9280076 5.1173925 -0.50272626 0.97191316
4.9920702 5.0552149 -0.50274098 0.97191238
5.1795115 4.8638964 -0.50278419 0.97190994
5.3004003 4.732461 -0.50281203 0.97190839
5.3595896 4.6655955 -0.50282568 0.97190768
5.4179587 4.5980077 -0.50283915 0.9719069
5.4754491 4.5296874 -0.50285238 0.97190613
5.5320997 4.4606347 -0.50286549 0.97190541
5.6427341 4.3204393 -0.502891 0.97190398
1.2534863 0.93501949 -0.11066002 0.99374878
1.2540917 0.86384761 -0.10775825 0.9939121
1.2542578 0.84092772 -0.10685711 0.99396288
1.2544433 0.81838864 -0.10598736 0.99401182
1.2549218 0.75285155 -0.10355549 0.99414885
1.2550585 0.73163086 -0.10280102 0.99419147
1.2552246 0.71074218 -0.10207306 0.99423236
1.4607519 0.70994139 -0.11492908 0.9935084
1.5087011 0.70994139 -0.11798912 0.99333608
1.5592675 0.70994139 -0.12123653 0.99315327
1.6126856 0.70994139 -0.12468742 0.99295914
1.6692675 0.70994139 -0.1283619 0.99275237
1.9337401 0.70993161 -0.14576645 0.99177366
2.0237012 0.71423829 -0.15185945 0.9914313
6.7895703 2.1121192 -0.50315636 0.9718895
6.8156738 2.0266602 -0.50316244 0.97188914
6.8646188 1.8547851 -0.50317383 0.97188842
6.8874607 1.7683886 -0.50317919 0.97188812
6.9298534 1.5947851 -0.50318909 0.97188765
6.9852242 1.3325 -0.50320208 0.97188687
7.0166111 1.1565624 -0.50320947 0.97188646
7.0435448 0.97988278 -0.50321585 0.9718861
7.0659962 0.80256832 -0.50322121 0.97188592
7.0975289 0.44654295 -0.50322878 0.97188538
7.1025977 0.35731444 -0.50323004 0.97188532
7.1110253 0.089345701 -0.50323224 0.97188532
7.1115818 -9.7656248e-06 -0.50323248 0.97188532
7.1110253 -0.089365229 -0.50323242 0.97188532
7.1065331 -0.26803711 -0.50323159 0.97188532
7.1026073 -0.35731444 -0.50323081 0.97188532
7.0166306 -1.1565722 -0.50321198 0.9718864
7.0014939 -1.2446387 -0.50320858 0.97188658
6.9494433 -1.5076171 -0.5031969 0.97188723
6.9299121 -1.5948046 -0.50319248 0.97188741
6.9092383 -1.681748 -0.50318784 0.97188771
6.8646774 -1.8548144 -0.50317782 0.97188818
6.8407617 -1.9409082 -0.50317246 0.97188848
6.8157325 -2.0266893 -0.50316679 0.97188884
6.7896481 -2.1121385 -0.50316089 0.9718892
1.6692675 -0.70995116 -0.1283619 0.99275237
1.612705 -0.70995116 -0.12468772 0.99295902
1.5592675 -0.70995116 -0.12123641 0.99315327
1.5087109 -0.70995116 -0.11798942 0.99333602
1.4607519 -0.70996094 -0.1149295 0.99350834
1.3719531 -0.70995116 -0.1093119 0.99382466
1.3307323 -0.70997071 -0.1067284 0.99397004
1.2913769 -0.70997071 -0.1042802 0.99410802
1.2549218 -0.75286132 -0.10355541 0.99414885
1.2547754 -0.77436525 -0.10433739 0.99410474
1.2544433 -0.81841797 -0.10598736 0.99401176
1.2542578 -0.84094727 -0.10685722 0.99396288
1.2538965 -0.88717771 -0.1086916 0.99385953
1.2537109 -0.91088867 -0.10965855 0.99380505
5.0267577 -3.8488281 -0.44799593 0.97493213
4.7690625 -3.8454003 -0.43350661 0.97573298
4.4156542 -3.8439159 -0.41426748 0.97679734
4.3077049 -3.8461425 -0.40864092 0.97710884
4.1150975 -3.8643553 -0.39945951 0.97761738
4.0660934 -3.9156444 -0.39944834 0.97761804
4.0164647 -3.9663184 -0.39943701 0.97761863
3.9152832 -4.0657716 -0.39941391 0.97761995
3.7589159 -4.2100587 -0.39937821 0.97762197
3.542207 -4.3930759 -0.39932868 0.97762465
3.4866209 -4.4370995 -0.39931598 0.97762531
2.8175781 -3.9824121 -0.34520301 0.98062789
2.761416 -4.0089064 -0.34446409 0.9806689
2.7335155 -4.0771484 -0.34734738 0.98050863
2.8409178 -4.8733888 -0.39916834 0.97763354
2.7173729 -4.9429102 -0.39914009 0.97763503
2.5288672 -5.0412693 -0.39909694 0.97763741
2.4652147 -5.0724511 -0.39908239 0.9776383
2.4011912 -5.1028419 -0.39906776 0.97763914
2.3368065 -5.1324315 -0.39905304 0.97763985
2.2069335 -5.1891403 -0.39902326 0.97764152
2.1414549 -5.2162595 -0.39900827 0.97764242
2.0095508 -5.2680469 -0.39897808 0.97764403
1.8763866 -5.3164549 -0.3989476 0.97764581
1.3428711 -3.9627929 -0.29607871 0.98336154
1.2463672 -4.0066209 -0.29691747 0.98331481
1.6066504 -5.4031935 -0.39888579 0.97764915
1.4016894 -5.4592676 -0.39883888 0.97765177
1.3329296 -5.4762301 -0.39882311 0.97765267
1.263955 -5.4923339 -0.39880732 0.9776535
1.1947851 -5.5075583 -0.39879146 0.9776544
0.98624021 -5.5480175 -0.39874366 0.97765702
0.91641599 -5.5597558 -0.39872769 0.97765791
0.56538087 -5.6052051 -0.39864722 0.97766232
0.49488279 -5.6116309 -0.39863104 0.97766328
0.42432615 -5.6171775 -0.39861488 0.97766417
0.35371092 -5.6218162 -0.3985987 0.97766513
0.2830078 -5.6256051 -0.39858249 0.97766596
0.14152344 -5.6304979 -0.39855003 0.97766769
-0.070771486 -5.6311326 -0.39850131 0.97767043
-0.10000976 -3.9781053 -0.28158787 0.98416936
-0.19850585 -3.9455273 -0.27954599 0.98428321
-0.25045899 -3.9808984 -0.28225291 0.98413229
-0.42415038 -5.6144333 -0.39842027 0.97767496
-0.49462891 -5.6084275 -0.39840412 0.97767586
-0.56503904 -5.6015525 -0.39838794 0.97767669
-0.70557618 -5.5851364 -0.39835569 0.97767848
-0.84563476 -5.5651755 -0.39832354 0.97768033
-0.91546875 -5.5538864 -0.39830753 0.97768122
-1.1240137 -5.5147753 -0.39825964 0.97768384
-1.2621484 -5.4843454 -0.3982279 0.97768563
-1.3309082 -5.4678416 -0.39821211 0.97768646
-1.5358593 -5.4131641 -0.39816508 0.97768903
-1.8723632 -5.3050098 -0.3980878 0.97769338
-1.5818261 -3.9951952 -0.30405992 0.98291683
-1.6175684 -3.9400487 -0.30138594 0.98306572
-1.7387109 -3.9496582 -0.30536789 0.982844
-2.3305664 -5.1186619 -0.39798248 0.97769916
-2.5215235 -5.0266209 -0.39793861 0.97770166
-2.5844042 -4.9943652 -0.3979241 0.97770244
-2.6468847 -4.961318 -0.39790976 0.97770315
-2.7089062 -4.9274902 -0.39789549 0.97770399
-2.8924022 -4.8213573 -0.39785331 0.97770637
-3.0124414 -4.7468357 -0.39782569 0.97770786
-3.0717578 -4.708447 -0.39781207 0.97770858
-3.1305664 -4.6693068 -0.39779854 0.97770941
-3.2466991 -4.5888672 -0.39777178 0.97771084
-3.3039746 -4.5475488 -0.39775863 0.97771162
-3.089746 -4.0353613 -0.35963798 0.97982591
-3.0969434 -3.9411621 -0.3546845 0.98010105
-3.5824413 -4.33042 -0.39769453 0.97771513
-3.6364648 -4.2849216 -0.39768207 0.97771579
-3.6899121 -4.2387595 -0.39766979 0.97771651
-3.7427635 -4.1919336 -0.3976576 0.97771716
-3.7950389 -4.1444335 -0.39764556 0.97771782
-3.8466895 -4.0963182 -0.39763367 0.97771847
-3.9481738 -3.9981053 -0.39761028 0.97771984
-4.0471678 -3.8974121 -0.39758745 0.9777211
-1.0241601 -0.93781251 -0.098263167 0.99444693
-1.0251563 -0.82661128 -0.093185954 0.99473315
-1.0253515 -0.80571288 -0.092274971 0.99478447
-1.0255176 -0.78520507 -0.091395378 0.99483407
-1.0260254 -0.72591794 -0.088935815 0.99497271
-1.0306933 -0.70995116 -0.088560142 0.99499387
-1.0589062 -0.70996094 -0.09021309 0.99490076
-1.0882519 -0.70997071 -0.091943435 0.99480307
-1.1504102 -0.70996094 -0.095658414 0.99459374
-1.2914063 -0.70996094 -0.10428028 0.9941079
-1.3307421 -0.70995116 -0.10672836 0.99397004
-1.4152832 -0.70996094 -0.11204132 0.99367076
-1.5593164 -0.70995116 -0.12123657 0.9931531
-1.6127441 -0.70995116 -0.12468772 0.9929589
-1.7293457 -0.70995116 -0.13228081 0.99253172
-1.7931249 -0.70995116 -0.13646796 0.99229634
-1.7930273 -0.68396485 -0.13579467 0.99233413
-6.6930761 -2.268086 -0.50006866 0.97205937
-6.7477927 -2.0991309 -0.50005597 0.97206002
-6.7982516 -1.9288379 -0.50004423 0.97206068
-6.8444333 -1.7573534 -0.50003344 0.97206128
-6.8658786 -1.6711913 -0.50002843 0.97206163
-6.8862696 -1.5847558 -0.50002366 0.97206193
-6.9985352 -0.97361326 -0.49999723 0.97206324
-7.0301266 -0.70913082 -0.49998972 0.97206378
-7.0384665 -0.62073243 -0.49998769 0.97206384
-7.0517869 -0.44366211 -0.49998447 0.97206402
-7.0567675 -0.35499999 -0.49998325 0.9720642
-7.0606737 -0.26629883 -0.49998224 0.9720642
-6.7989645 -0 -0.50004196 0.97309911
-6.7968163 0.17085937 -0.50004232 0.97309911
-6.7941599 0.25625977 -0.50004286 0.97309905
-6.785615 0.42690429 -0.50004458 0.97309887
-6.779707 0.51214844 -0.50004584 0.97309893
-6.7727637 0.5973047 -0.50004739 0.97309881
-6.7455077 0.85214841 -0.50005335 0.97309852
-6.7343163 0.93685544 -0.50005585 0.97309834
-6.7220602 1.0214062 -0.50005853 0.97309816
-6.7087107 1.1058105 -0.50006151 0.9730981
-6.6788964 1.2740527 -0.50006813 0.97309774
-6.6624217 1.3579004 -0.50007188 0.97309744
-6.6448727 1.4415234 -0.50007576 0.97309732
-6.6262989 1.5249219 -0.50007999 0.97309703
-6.5859962 1.6909863 -0.50008905 0.97309661
-6.5415721 1.8560058 -0.50009906 0.97309595
-6.5177832 1.9380761 -0.50010443 0.97309577
-6.4929686 2.0198534 -0.50011003 0.97309554
-6.4403124 2.1824317 -0.50012189 0.97309494
-1.6127343 0.70994139 -0.12959422 0.99295753
-1.5087402 0.70994139 -0.12263248 0.99333459
-1.4608105 0.70993161 -0.1194519 0.99350691
-1.4152734 0.70993161 -0.11645038 0.99366963
-1.2913965 0.70994139 -0.10838413 0.99410683
-1.2538183 0.70994139 -0.10596996 0.99423766
-1.2178613 0.70993161 -0.10367732 0.994362
-1.1834375 0.70994139 -0.10149719 0.99448019
-1.1187011 0.70994139 -0.097446099 0.99469995
-1.0589355 0.70994139 -0.093763009 0.99489969
-1.0306641 0.70993161 -0.092045017 0.99499303
-1.025332 0.72541988 -0.092374034 0.99497509
-1.0250098 0.76454097 -0.094045982 0.99488437
-1.0240527 0.86905271 -0.098781206 0.99462754
-1.0238671 0.89124995 -0.099833257 0.99457037
-1.0234082 0.93709958 -0.10205524 0.99444991
-4.9015622 4.7201853 -0.50047213 0.97307634
-4.7205663 4.9019728 -0.50051343 0.97307414
-4.5328708 5.0768456 -0.50055635 0.97307175
-4.4688282 5.1335449 -0.50057095 0.9730711
-4.3386817 5.2445407 -0.5006007 0.97306949
-4.2057519 5.3522458 -0.50063103 0.97306788
-4.1383104 5.4048338 -0.50064647 0.97306705
-4.0701952 5.4565916 -0.50066203 0.97306615
-4.0014257 5.5074801 -0.50067776 0.97306532
-3.9320214 5.5574999 -0.50069362 0.97306454
-3.8619921 5.6066403 -0.50070965 0.97306371
-3.7201366 5.7022848 -0.50074208 0.97306198
-3.6483104 5.7487693 -0.50075853 0.97306108
-3.5758789 5.7943554 -0.50077504 0.97306025
-3.4293749 5.8827734 -0.50080854 0.97305852
-3.3553026 5.9256153 -0.50082546 0.97305751
-3.2806835 5.9675193 -0.50084257 0.97305661
-2.7444141 6.2341795 -0.5009653 0.97305012
-2.6659667 6.2683983 -0.50098324 0.97304916
-2.5077538 6.3338571 -0.50101948 0.97304732
-2.4280565 6.3650975 -0.50103772 0.97304636
-2.3479784 6.3953514 -0.50105608 0.97304535
-2.2675292 6.4245996 -0.50107449 0.97304428
-2.1866796 6.4528222 -0.50109297 0.97304338
-2.1054981 6.4800391 -0.50111157 0.97304231
-2.0239844 6.5062108 -0.50113022 0.97304142
-1.9421289 6.5313964 -0.501149 0.97304034
-1.8599707 6.5555272 -0.50116783 0.97303939
-1.7775195 6.5786328 -0.50118673 0.97303832
-1.6947851 6.6006832 -0.50120568 0.97303736
-1.5284863 6.6417089 -0.50124371 0.97303534
-1.444961 6.660625 -0.5012629 0.97303438
-1.3611914 6.678535 -0.5012821 0.97303325
-1.1930176 6.711123 -0.5013206 0.97303134
-0.42815429 6.8052731 -0.5014959 0.97302198
-0.17138672 6.8173728 -0.50155485 0.97301888
-9.7656248e-06 6.8200779 -0.50159413 0.97301674
0.08570312 6.8197947 -0.5016138 0.97301573
0.17137694 6.8184471 -0.50163347 0.97301471
0.34271485 6.8125196 -0.50167274 0.97301263
0.51383787 6.8022947 -0.50171196 0.97301048
0.68469727 6.7877636 -0.50175118 0.97300839
0.76994139 6.7788963 -0.50177079 0.97300738
0.85510743 6.7689157 -0.50179029 0.97300643
1.1097461 6.7326951 -0.50184876 0.97300321
1.2786914 6.7031641 -0.50188756 0.9730013
1.4468359 6.6694336 -0.50192612 0.97299922
1.6141211 6.631494 -0.50196457 0.97299713
1.697373 6.6109276 -0.50198364 0.97299618
1.9455566 6.5429978 -0.50204068 0.97299314
2.0277245 6.5182714 -0.50205952 0.97299212
2.3530176 6.409111 -0.50213426 0.97298819
2.4334667 6.3792868 -0.50215274 0.97298712
2.593164 6.3165622 -0.50218946 0.97298527
2.7512794 6.2498631 -0.50222576 0.9729833
3.062295 6.1045995 -0.50229722 0.97297949
3.2905176 5.9854684 -0.50234973 0.97297674
3.4401367 5.9013085 -0.50238413 0.97297484
3.8045213 5.6745896 -0.50246793 0.97297049
3.8756542 5.6265039 -0.50248432 0.97296965
3.9462011 5.577539 -0.50250053 0.9729687
4.0160937 5.5276952 -0.50251663 0.97296786
4.0853515 5.476953 -0.50253254 0.97296709
4.1539941 5.4253712 -0.50254834 0.97296619
4.4871483 5.1546192 -0.50262505 0.97296208
4.6155467 5.0405078 -0.50265461 0.97296059
4.6786618 4.9822655 -0.50266916 0.97295976
4.7410254 4.923213 -0.50268358 0.97295904
4.8026562 4.863379 -0.50269777 0.97295827
4.8635154 4.8028026 -0.50271177 0.97295749
5.0415134 4.6164646 -0.50275278 0.97295523
5.0992479 4.5528517 -0.50276607 0.97295463
5.3221092 4.291328 -0.50281751 0.97295189
5.4285545 4.1564355 -0.50284207 0.97295052
1.2526464 0.93439454 -0.11493687 0.9937517
1.2528515 0.91026366 -0.11389736 0.99380803
1.2532617 0.86328125 -0.11192493 0.9939149
1.2536132 0.81784177 -0.11008666 0.99401462
1.2539648 0.77384764 -0.10837406 0.99410743
1.2544239 0.71029294 -0.10602379 0.99423486
1.3307226 0.70993161 -0.11092823 0.99396896
1.3719434 0.70994139 -0.11361309 0.99382347
1.4152343 0.70994139 -0.11645042 0.99366975
1.4607519 0.70994139 -0.11945217 0.99350709
1.5592675 0.70994139 -0.12600742 0.9931519
1.6692675 0.70994139 -0.13341339 0.99275094
1.729287 0.70994139 -0.13748634 0.99253047
1.7931151 0.70995116 -0.14183895 0.99229479
1.8611034 0.70995116 -0.14650024 0.99204266
1.9337401 0.70993161 -0.15150306 0.991772
2.0236328 0.71421874 -0.15783013 0.99142987
6.5317383 2.031914 -0.50309736 0.97293711
6.5809078 1.8671777 -0.5031088 0.97293639
6.7500877 1.1126269 -0.50314844 0.97293442
6.7759957 0.94264644 -0.50315452 0.97293413
6.7976365 0.77209961 -0.50315964 0.97293377
6.8068357 0.68661129 -0.50316185 0.97293359
6.814961 0.60101563 -0.50316381 0.97293347
6.8220019 0.51534176 -0.50316554 0.97293335
6.8279395 0.42958006 -0.50316697 0.97293335
6.8393164 0.17191406 -0.50316983 0.97293323
6.8414941 -9.7656248e-06 -0.50317055 0.97293317
6.8409667 -0.085966796 -0.50317049 0.97293311
6.8393455 -0.17192383 -0.50317025 0.97293311
6.8366308 -0.25786132 -0.50316972 0.97293317
6.8068457 -0.68661129 -0.50316334 0.97293359
6.7976465 -0.77210933 -0.50316131 0.97293371
6.7636228 -1.0277442 -0.5031538 0.97293407
6.7501364 -1.1126367 -0.50315076 0.97293425
6.7355661 -1.197373 -0.50314754 0.97293442
6.6855078 -1.4503515 -0.50313634 0.97293502
6.6667185 -1.5342284 -0.5031321 0.9729352
6.6259274 -1.70125 -0.50312293 0.97293568
6.5568848 -1.9497168 -0.50310737 0.97293657
1.7931151 -0.70995116 -0.14183933 0.99229479
1.7292968 -0.70994139 -0.13748668 0.99253041
1.612705 -0.70995116 -0.12959442 0.99295765
1.5592675 -0.70995116 -0.12600754 0.9931519
1.5087109 -0.70995116 -0.1226329 0.99333465
1.3719531 -0.70995116 -0.11361366 0.99382341
1.2544239 -0.71032226 -0.10602367 0.9942348
1.2542578 -0.73120117 -0.10677928 0.99419391
1.2539648 -0.77386719 -0.10837413 0.99410737
1.2538086 -0.79570311 -0.10921539 0.99406171
1.2536035 -0.81786132 -0.11008682 0.99401462
1.2534473 -0.84039062 -0.11098972 0.99396557
1.2526464 -0.93438476 -0.11493701 0.9937517
4.895781 -3.8470995 -0.45793661 0.97533613
4.7690625 -3.8454101 -0.45056665 0.97572815
4.646328 -3.8437793 -0.44349891 0.97610426
4.5273438 -3.8421874 -0.43671784 0.9764654
4.299922 -3.83916 -0.42395449 0.97714525
4.1918454 -3.8384373 -0.41802448 0.9774614
3.7667284 -3.9114745 -0.39937967 0.97845572
3.7171679 -3.9583983 -0.39936835 0.97845626
3.6670408 -4.0046778 -0.3993569 0.97845685
3.513164 -4.1396875 -0.39932176 0.97845876
3.4607909 -4.1833692 -0.39930978 0.97845942
3.4078221 -4.2263966 -0.39929765 0.97846013
3.3543749 -4.2687693 -0.3992855 0.97846061
3.1907811 -4.391748 -0.39924806 0.9784627
2.8175781 -3.9824023 -0.35879126 0.98062408
2.7614062 -4.0089064 -0.35802025 0.98066509
2.8503418 -4.618711 -0.39917022 0.97846687
2.6739647 -4.7223825 -0.3991299 0.97846901
2.6143358 -4.7554588 -0.39911628 0.97846973
2.5542674 -4.7877731 -0.39910251 0.97847044
2.4937987 -4.8193359 -0.39908871 0.97847122
2.4329882 -4.8501172 -0.39907476 0.97847188
2.3717577 -4.8801169 -0.39906073 0.97847271
2.3101659 -4.9093652 -0.39904666 0.97847348
2.1859081 -4.9655175 -0.3990182 0.97847497
2.1232617 -4.9924121 -0.39900386 0.97847575
2.0602734 -5.0185447 -0.39898947 0.97847646
1.4802636 -5.2172265 -0.39885664 0.97848362
1.0159277 -5.3256836 -0.39875025 0.97848928
0.94886714 -5.337832 -0.3987349 0.97849011
0.88170898 -5.3491211 -0.39871946 0.97849089
0.61169922 -5.3858299 -0.39865759 0.97849423
0.54398435 -5.3928905 -0.39864206 0.978495
0.47614256 -5.3990817 -0.39862654 0.9784959
0.40826172 -5.4044433 -0.39861098 0.97849667
0.34031248 -5.4089255 -0.39859539 0.97849751
0.27229491 -5.4125586 -0.39857978 0.97849834
0.20424804 -5.4153419 -0.39856419 0.97849917
9.7656248e-06 -5.4185448 -0.39851734 0.97850174
-0.14881836 -3.9451365 -0.29035807 0.9842903
-0.25046873 -3.9808984 -0.29336032 0.98412913
-0.40807617 -5.4018846 -0.39842373 0.97850668
-0.47591797 -5.3961229 -0.39840814 0.97850752
-0.54365236 -5.389502 -0.39839262 0.97850835
-0.8808105 -5.3437009 -0.39831522 0.97851247
-1.0814941 -5.3061032 -0.39826918 0.97851485
-1.1480469 -5.2918944 -0.39825389 0.97851568
-1.2805371 -5.2609472 -0.39822349 0.97851741
-1.3465039 -5.2442479 -0.39820835 0.97851819
-1.4777539 -5.2083592 -0.39817816 0.9785198
-1.6728222 -5.1483984 -0.3981334 0.97852212
-1.8015527 -5.1043458 -0.39810383 0.97852373
-1.5818261 -3.9951952 -0.31602672 0.98291343
-1.6683788 -3.9228125 -0.31351802 0.98304784
-2.4866893 -4.8055372 -0.39794636 0.97853214
-2.546787 -4.7737403 -0.39793253 0.97853285
-2.6064942 -4.7411814 -0.39791882 0.97853363
-2.6657715 -4.7079 -0.39790514 0.97853434
-2.9556346 -4.5304685 -0.3978385 0.97853786
-3.0683594 -4.454463 -0.39781258 0.97853929
-3.2337401 -4.3352442 -0.39777449 0.97854131
-3.089746 -4.0353613 -0.37379202 0.97982192
-3.1488183 -3.9051659 -0.36894882 0.98008084
-3.4470606 -4.1667676 -0.3977254 0.97854394
-3.5504687 -4.0785937 -0.39770159 0.97854519
-3.6013379 -4.0335255 -0.39768985 0.97854584
-3.6516502 -3.9878416 -0.39767829 0.97854638
-3.8469336 -3.7989061 -0.39763328 0.97854888
-3.8942676 -3.7501464 -0.39762238 0.97854948
-3.978369 -3.7359276 -0.40138367 0.97834879
-1.0238476 -0.89126951 -0.099833407 0.99457037
-1.0240625 -0.86907226 -0.098780856 0.99462748
-1.0244434 -0.82604492 -0.096785769 0.99473572
-1.0246191 -0.80514646 -0.095839955 0.9947871
-1.0248339 -0.78466797 -0.094927289 0.99483651
-1.0250098 -0.7645703 -0.094045982 0.99488431
-1.025332 -0.72543943 -0.092373997 0.99497503
-1.0306933 -0.70995116 -0.092045479 0.99499291
-1.1504102 -0.70996094 -0.09942314 0.99459267
-1.2538183 -0.70996094 -0.10597026 0.9942376
-1.2914063 -0.70996094 -0.10838444 0.99410671
-1.3307519 -0.70994139 -0.11092872 0.99396884
-1.3719921 -0.70994139 -0.11361366 0.99382329
-1.4608008 -0.70995116 -0.11945251 0.99350691
-1.5087304 -0.70995116 -0.1226332 0.99333459
-1.5592968 -0.70995116 -0.12600791 0.99315178
-1.6127441 -0.70995116 -0.12959488 0.99295753
-1.7939941 -0.71028316 -0.14190754 0.99229109
-1.7938964 -0.68429685 -0.14120738 0.99232888
-1.793789 -0.65856445 -0.14053616 0.99236518
-6.412529 -2.2632422 -0.50013304 0.97309428
-6.4930367 -2.0198729 -0.50011432 0.97309524
-6.5643358 -1.7736425 -0.50009769 0.97309613
-6.5860348 -1.6909961 -0.50009263 0.97309643
-6.6449218 -1.441543 -0.50007886 0.97309709
-6.6624413 -1.3579199 -0.50007474 0.97309738
-6.694375 -1.1900293 -0.50006723 0.97309774
-6.7455468 -0.85214841 -0.50005513 0.9730984
-6.7556834 -0.76732421 -0.50005275 0.97309852
-6.7647653 -0.6823535 -0.50005054 0.97309864
-6.7727833 -0.59729493 -0.50004864 0.97309875
-6.779736 -0.51214844 -0.50004697 0.97309881
-6.7984471 -0.085439451 -0.5000422 0.97309905
-6.5515819 -0 -0.50009871 0.97405982
-6.5510545 0.082314454 -0.50009876 0.97405988
-6.5495114 0.16463867 -0.500099 0.97405982
-6.5433202 0.32917967 -0.50010026 0.97405976
-6.5386715 0.41137695 -0.50010121 0.97405976
-6.5329981 0.49351561 -0.50010246 0.9740597
-6.5262985 0.57555664 -0.50010389 0.97405964
-6.5000587 0.82114255 -0.50010967 0.97405928
-6.4507422 1.1467187 -0.50012064 0.97405869
-6.419961 1.3084863 -0.50012749 0.97405839
-6.3851461 1.4694238 -0.50013536 0.97405803
-6.3463378 1.6294531 -0.50014406 0.97405744
-6.3254099 1.709082 -0.50014877 0.97405726
-6.3035154 1.7884473 -0.50015372 0.97405696
-6.2805858 1.867539 -0.50015891 0.97405678
-6.2318163 2.0248241 -0.50016987 0.97405618
-6.2059569 2.102998 -0.50017577 0.97405583
-6.179111 2.1808398 -0.50018185 0.97405559
-1.7946484 0.65887696 -0.14593036 0.99236
-1.7293359 0.70994139 -0.14269379 0.99252874
-1.6692969 0.70994139 -0.13846676 0.99274933
-1.5593066 0.70995116 -0.13078071 0.99315035
-1.1187011 0.70994139 -0.10113758 0.99469888
-1.0882324 0.70994139 -0.099181287 0.9948011
-1.0306641 0.70993161 -0.09553165 0.99499202
-1.0244824 0.74430662 -0.09666042 0.99493289
-1.0243164 0.7640332 -0.097542033 0.99488676
-1.0241308 0.78410155 -0.098455429 0.99483901
-1.0239356 0.80458981 -0.099401549 0.99478954
-1.0235254 0.84670895 -0.1013974 0.99468529
-1.0231055 0.89061522 -0.10354038 0.99457324
-1.0228808 0.91327149 -0.10467094 0.99451411
-1.0226562 0.93640625 -0.10584316 0.99445289
-4.779736 4.4884567 -0.50050032 0.97403926
-4.6656737 4.6073828 -0.50052637 0.974038
-4.6075292 4.6657715 -0.50053966 0.97403729
-4.5486622 4.7234278 -0.50055307 0.97403657
-4.42875 4.836504 -0.50058049 0.97403526
-4.3060546 4.9465723 -0.50060844 0.97403377
-4.2436719 5.0004196 -0.50062275 0.97403306
-4.180625 5.0534959 -0.50063717 0.97403234
-4.1169138 5.1058006 -0.50065172 0.97403151
-4.0525489 5.1572657 -0.50066644 0.97403079
-3.9875488 5.2079391 -0.50068128 0.97403002
-3.7887597 5.355 -0.5007267 0.97402775
-3.7212889 5.4023633 -0.50074214 0.97402692
-3.653203 5.4488769 -0.50075769 0.97402614
-3.445586 5.5832224 -0.50080514 0.9740237
-3.304414 5.6683984 -0.50083745 0.97402209
-3.0887206 5.7894921 -0.5008868 0.97401953
-3.01583 5.8280368 -0.50090349 0.97401869
-2.8686035 5.9023829 -0.50093716 0.97401696
-2.7942967 5.9381738 -0.50095415 0.97401607
-2.7195506 5.9730172 -0.50097126 0.97401524
-2.6443553 6.0069237 -0.50098848 0.97401434
-2.4927635 6.0719042 -0.50102317 0.97401255
-2.2623925 6.1621776 -0.50107592 0.97400987
-2.1848536 6.190361 -0.50109369 0.97400892
-2.1069531 6.2175488 -0.50111151 0.97400802
-2.0287304 6.2437501 -0.50112945 0.97400713
-1.950166 6.2689648 -0.50114739 0.97400624
-1.8713281 6.2932129 -0.50116551 0.97400522
-1.5529883 6.3802147 -0.50123841 0.97400153
-1.4727539 6.3994627 -0.50125676 0.97400057
-1.3115624 6.4349217 -0.50129372 0.97399873
-1.2306445 6.4511228 -0.50131226 0.97399777
-0.74135739 6.5269723 -0.50142437 0.97399199
-0.65930665 6.5360155 -0.50144321 0.97399104
-0.57714844 6.5440235 -0.50146204 0.97399008
-0.41253906 6.556953 -0.50149977 0.97398818
-0.33012694 6.5618649 -0.50151867 0.97398722
-0.24763672 6.565752 -0.50153756 0.97398621
-2.9296874e-05 6.5711327 -0.50159436 0.97398341
0.082578123 6.5708885 -0.50161332 0.97398233
0.33021483 6.5638571 -0.50167012 0.97397941
0.41267577 6.5594234 -0.50168908 0.97397852
0.49509764 6.5539842 -0.50170797 0.97397745
0.65967774 6.5399413 -0.50174576 0.9739756
0.90582031 6.5111718 -0.50180221 0.97397268
1.069209 6.486836 -0.5018397 0.97397077
1.3939941 6.4258785 -0.50191426 0.97396696
1.4746972 6.4080663 -0.5019328 0.97396612
1.5551562 6.389287 -0.50195128 0.97396511
1.7153612 6.3486524 -0.50198805 0.9739632
1.9536425 6.2801561 -0.50204277 0.97396046
2.1110156 6.2295408 -0.50207895 0.97395855
2.1891699 6.2027245 -0.50209689 0.97395772
2.3445313 6.1462107 -0.50213259 0.97395581
2.42167 6.1164551 -0.5021503 0.97395498
2.4984374 6.0857811 -0.50216794 0.97395396
2.5747752 6.054111 -0.50218552 0.97395313
2.7263184 5.9879003 -0.50222027 0.97395134
2.8014257 5.9533787 -0.50223756 0.97395045
2.9503613 5.881494 -0.50227183 0.97394872
3.0241601 5.8441501 -0.50228876 0.97394782
3.0974414 5.8058887 -0.50230563 0.97394699
3.1702733 5.7666993 -0.50232238 0.97394609
3.2426074 5.7265916 -0.50233901 0.9739452
3.4564648 5.6008592 -0.50238818 0.9739427
3.5266795 5.557158 -0.50240433 0.97394192
3.5963476 5.512578 -0.50242037 0.97394109
4.19666 5.0729003 -0.50255853 0.97393399
4.3230567 4.9661131 -0.50258768 0.97393256
4.3852439 4.9115329 -0.50260198 0.97393185
4.4467382 4.8561716 -0.50261611 0.97393113
4.5075488 4.8000684 -0.50263011 0.9739303
4.567627 4.7431641 -0.50264394 0.97392964
4.6856346 4.6271191 -0.50267118 0.97392827
4.800703 4.5081544 -0.50269765 0.9739269
4.8570895 4.4475975 -0.5027107 0.97392619
4.912715 4.3863182 -0.50272352 0.97392559
4.9675684 4.3243361 -0.50273609 0.97392499
5.1790915 4.0696874 -0.50278491 0.97392237
5.2299314 4.004375 -0.50279665 0.97392184
1.2517968 0.9337402 -0.11920982 0.99375468
1.2520019 0.90964842 -0.11813236 0.99381095
1.2522168 0.88596678 -0.11709186 0.99386525
1.2524316 0.86270505 -0.11608783 0.99391764
1.2526171 0.83984375 -0.11511837 0.99396831
1.252793 0.81732422 -0.11418239 0.99401724
1.252959 0.79516602 -0.11327907 0.99406451
1.2531347 0.77336913 -0.11240722 0.99411005
1.2534961 0.73072267 -0.11075409 0.9941963
1.2537793 0.70993161 -0.1099842 0.99423665
1.2913672 0.70995116 -0.11248939 0.9941057
1.3307226 0.70993161 -0.11513034 0.99396771
1.3719434 0.70994139 -0.1179169 0.99382222
1.4152343 0.70994139 -0.12086136 0.99366844
1.4607519 0.70994139 -0.12397693 0.99350572
1.5087011 0.70994139 -0.1272776 0.99333334
1.5592675 0.70994139 -0.13078076 0.99315053
1.6126856 0.70994139 -0.13450339 0.99295628
1.6692675 0.70994139 -0.13846694 0.99274945
1.729287 0.70994139 -0.14269423 0.99252892
1.7931151 0.70995116 -0.14721179 0.99229324
1.8611034 0.70995116 -0.15204969 0.99204099
2.0235546 0.71418941 -0.16380282 0.99142843
2.0235741 0.65749997 -0.16241509 0.99150074
6.3168359 1.87833 -0.50304818 0.97390896
6.3833494 1.6389648 -0.50306374 0.97390813
6.4226365 1.4780566 -0.50307286 0.97390771
6.4578609 1.3162206 -0.50308114 0.97390723
6.4889746 1.1535351 -0.50308847 0.97390693
6.5279784 0.90815425 -0.50309765 0.9739064
6.5388865 0.82605469 -0.50310028 0.97390634
6.5722461 0.49647459 -0.50310826 0.97390592
6.5779977 0.41384766 -0.50310963 0.9739058
6.5826855 0.33115235 -0.50311083 0.97390574
6.5863376 0.2484082 -0.50311178 0.97390574
6.5905075 0.082822263 -0.50311291 0.97390568
6.5905075 -0.082841799 -0.50311309 0.97390568
6.5779881 -0.41386718 -0.50311059 0.9739058
6.5722556 -0.49648437 -0.50310934 0.97390586
6.5654883 -0.57902342 -0.50310785 0.97390592
6.5488181 -0.74382812 -0.50310421 0.9739061
6.503037 -1.0719043 -0.50309408 0.97390664
6.4739552 -1.2349805 -0.50308758 0.97390699
6.4408007 -1.3972753 -0.50308013 0.97390729
6.4226756 -1.4780761 -0.50307602 0.97390753
6.3833985 -1.6389941 -0.50306726 0.97390795
6.3169041 -1.8783593 -0.50305223 0.97390872
2.0235839 -0.6857422 -0.16309294 0.99146527
2.0235741 -0.71419919 -0.16380271 0.99142832
1.8611327 -0.70995116 -0.15205008 0.99204087
1.7931151 -0.70995116 -0.14721195 0.99229324
1.7292968 -0.70995116 -0.14269458 0.99252886
1.5592675 -0.70995116 -0.13078102 0.99315047
1.4607519 -0.70996094 -0.12397736 0.99350572
1.3719531 -0.70995116 -0.11791717 0.99382216
1.2534863 -0.73074216 -0.11075401 0.9941963
1.25333 -0.75188476 -0.11156601 0.99415392
1.2531543 -0.77337891 -0.11240738 0.99410993
1.2529882 -0.79518551 -0.11327922 0.99406433
1.252793 -0.81732422 -0.11418239 0.99401724
1.2526073 -0.83983397 -0.11511841 0.99396837
1.2524219 -0.86271483 -0.11608788 0.99391764
1.2522362 -0.88598633 -0.11709224 0.99386513
1.2520117 -0.90965819 -0.11813232 0.99381089
1.2518066 -0.9337793 -0.11920974 0.99375457
5.0267673 -3.8488281 -0.48326454 0.97492206
4.8957715 -3.8470995 -0.47528282 0.97533107
4.7690625 -3.8454101 -0.46763361 0.97572321
4.646328 -3.8437793 -0.46029863 0.97609937
4.5273438 -3.8421972 -0.45325992 0.97646058
4.4119139 -3.8406737 -0.44650331 0.97680742
3.9823046 -3.8349512 -0.42201507 0.97806537
3.8836913 -3.8352051 -0.41664046 0.9783417
3.6068456 -3.8409276 -0.40219516 0.97908461
3.5329199 -3.8582127 -0.399326 0.97923231
3.3418651 -4.0396485 -0.40019587 0.97918749
3.2832227 -4.0718651 -0.39926895 0.97923517
3.1796484 -4.152832 -0.39924529 0.97923648
3.074121 -4.2311716 -0.39922115 0.97923768
2.8175976 -3.9823925 -0.37238127 0.98062009
2.7614062 -4.0088964 -0.37158215 0.98066115
2.7334862 -4.0771189 -0.37469128 0.98050088
2.8019433 -4.4151564 -0.39915892 0.97924089
2.7461524 -4.449873 -0.39914614 0.97924155
2.6332812 -4.5171876 -0.39912036 0.97924286
2.5762401 -4.5497751 -0.39910731 0.97924352
2.3440626 -4.6728516 -0.39905417 0.97924626
2.2257323 -4.7299609 -0.39902708 0.97924763
2.1060255 -4.7840819 -0.39899969 0.979249
2.0456641 -4.8099999 -0.39898589 0.97924978
1.9240038 -4.8595409 -0.39895806 0.97925121
1.7393261 -4.9280858 -0.39891574 0.97925335
1.2899219 -3.97 -0.31863615 0.98339367
1.2463769 -4.0066013 -0.32029143 0.98330808
1.489287 -5.0085254 -0.39885849 0.97925633
1.2993164 -5.0605564 -0.39881495 0.97925854
1.2355762 -5.0762892 -0.39880037 0.97925931
1.1716309 -5.0912399 -0.39878571 0.97926003
1.0432519 -5.1186914 -0.3987563 0.97926158
0.91423827 -5.14291 -0.39872673 0.97926307
0.84950191 -5.1537986 -0.39871192 0.97926384
0.78464842 -5.1638865 -0.39869705 0.97926456
0.71964842 -5.1731348 -0.39868212 0.97926539
0.52411133 -5.1959958 -0.39863729 0.97926772
0.32786131 -5.2114744 -0.39859232 0.97926998
0.26237303 -5.2149801 -0.3985773 0.97927082
0.19677734 -5.2176852 -0.39856228 0.97927153
0.065595701 -5.2205763 -0.39853218 0.97927308
-0.065624997 -5.2201953 -0.39850208 0.97927463
-0.14881836 -3.9451268 -0.30135718 0.98428708
-0.39318359 -5.2047849 -0.39842695 0.9792785
-0.45852539 -5.1992383 -0.39841193 0.97927928
-0.65409178 -5.1776657 -0.39836708 0.97928166
-0.78396481 -5.1592188 -0.39833727 0.97928309
-0.91327149 -5.1375098 -0.39830756 0.97928464
-0.9777441 -5.1254296 -0.39829275 0.97928542
-1.0420312 -5.1125584 -0.39827803 0.97928613
-1.1701074 -5.0843749 -0.39824861 0.97928768
-1.2973926 -5.0529881 -0.39821938 0.97928923
-1.3607422 -5.0361032 -0.39820483 0.97928995
-1.4238769 -5.0184278 -0.39819035 0.97929066
-1.4867773 -4.9999804 -0.39817587 0.97929132
-1.6739745 -4.9398437 -0.39813289 0.97929358
-1.7974511 -4.8958693 -0.39810455 0.97929507
-1.8587695 -4.8727245 -0.39809042 0.97929579
-1.5818456 -3.9952245 -0.32799762 0.9829098
-1.6175684 -3.9400682 -0.32511276 0.98305881
-1.7387304 -3.9496582 -0.32940757 0.98283702
-2.1606934 -4.7455664 -0.39802104 0.97929937
-2.2200682 -4.7178807 -0.39800742 0.97930008
-2.2791016 -4.6894336 -0.39799383 0.97930086
-2.3377635 -4.6602831 -0.39798033 0.97930145
-2.3960741 -4.6303806 -0.39796695 0.97930217
-2.5686328 -4.5363278 -0.39792728 0.97930419
-2.792959 -4.4009666 -0.39787567 0.97930682
-2.8479395 -4.3653903 -0.39786303 0.97930747
-2.9024901 -4.3291111 -0.39785048 0.97930813
-3.0101659 -4.2545314 -0.39782569 0.9793095
-3.0633006 -4.2162499 -0.39781344 0.9793101
-3.1159375 -4.1773047 -0.39780134 0.97931069
-3.1488183 -3.9051659 -0.38292468 0.98007673
-3.3214843 -4.0149999 -0.39775401 0.97931314
-3.4338477 -3.9446094 -0.39920774 0.97923833
-3.5186522 -3.8425975 -0.39770862 0.9793154
-3.5665526 -3.7979589 -0.3976976 0.979316
-3.6139061 -3.752744 -0.39768669 0.97931653
-3.6927049 -3.7394042 -0.40115806 0.97913796
-3.7825878 -3.735332 -0.40578929 0.9788996
-1.0226562 -0.93642575 -0.10584293 0.99445283
-1.0229003 -0.9132812 -0.10467098 0.99451405
-1.0231249 -0.89063478 -0.10354053 0.99457312
-1.0233203 -0.86844724 -0.10244969 0.99463022
-1.0246484 -0.72496092 -0.095809206 0.99497736
-1.0306933 -0.70995116 -0.095532261 0.99499184
-1.0589062 -0.70996094 -0.097314909 0.99489868
-1.1504102 -0.70996094 -0.10318916 0.99459153
-1.2178808 -0.70997071 -0.10760494 0.99436069
-1.253828 -0.70995116 -0.10998455 0.99423641
-1.2914159 -0.70996094 -0.11248974 0.99410546
-1.4152832 -0.70996094 -0.12086181 0.9936682
-1.5087304 -0.70995116 -0.12727813 0.99333322
-1.5592968 -0.70995116 -0.13078125 0.99315035
-1.6693164 -0.70996094 -0.1384674 0.99274921
-1.7293457 -0.70995116 -0.1426947 0.99252868
-1.7948925 -0.71063477 -0.14735511 0.99228567
-1.7946484 -0.65887696 -0.14593029 0.99236
-6.1791697 -2.1808691 -0.50018644 0.97405529
-6.2318554 -2.0248632 -0.50017422 0.97405601
-6.2567282 -1.9463574 -0.50016844 0.9740563
-6.280654 -1.8675684 -0.5001629 0.97405648
-6.3662791 -1.5495801 -0.50014287 0.97405756
-6.4507618 -1.1467187 -0.50012308 0.97405863
-6.4646192 -1.0655664 -0.50011981 0.97405875
-6.4774704 -0.98425782 -0.50011677 0.97405887
-6.4892774 -0.90277344 -0.50011396 0.97405905
-6.5000973 -0.8211621 -0.5001114 0.9740591
-6.5098629 -0.73940426 -0.50010908 0.97405928
-6.538691 -0.41136718 -0.5001021 0.9740597
-6.5433202 -0.32917967 -0.50010097 0.97405976
-6.5469432 -0.24693359 -0.50010008 0.97405976
-6.5495019 -0.16463867 -0.50009942 0.97405988
-6.321455 -0 -0.50015152 0.97495413
-6.3194823 0.15884766 -0.50015181 0.97495407
-6.3169923 0.23826171 -0.50015229 0.97495401
-6.303545 0.47617185 -0.50015509 0.97495395
-6.2970896 0.55533201 -0.50015652 0.97495383
-6.289629 0.63444334 -0.50015813 0.97495377
-6.2613182 0.87105465 -0.50016439 0.97495353
-6.2499313 0.94967771 -0.50016689 0.97495329
-6.2375097 1.0281445 -0.50016969 0.97495329
-6.209795 1.1845703 -0.50017583 0.97495294
-6.1608787 1.4178125 -0.50018686 0.97495234
-6.1032128 1.6490527 -0.50019979 0.97495174
-6.0820899 1.7256151 -0.50020456 0.97495145
-6.0599508 1.8019433 -0.50020957 0.97495127
-6.0368943 1.8779687 -0.50021476 0.97495103
-6.0129004 1.9537011 -0.50022024 0.97495067
-5.9879394 2.0291212 -0.50022584 0.97495043
-5.9620309 2.1042285 -0.50023168 0.97495019
-1.7957519 0.71098632 -0.15281025 0.9922803
-1.7293359 0.70994139 -0.14790398 0.99252713
-1.6692969 0.70994139 -0.14352229 0.99274778
-1.5593066 0.70995116 -0.13555564 0.99314886
-1.4608105 0.70993161 -0.12850341 0.99350417
-1.4152734 0.70993161 -0.12527439 0.99366695
-1.3719823 0.70994139 -0.12222236 0.99382073
-1.3307421 0.70995116 -0.1193338 0.99396628
-1.253828 0.70994139 -0.1139999 0.99423522
-1.1504102 0.70995116 -0.10695667 0.9945904
-1.1187011 0.70994139 -0.10483028 0.99469769
-1.0882324 0.70994139 -0.10280281 0.99479997
-1.0589355 0.70994139 -0.1008678 0.99489754
-1.0239648 0.72445309 -0.099241294 0.99497968
-1.023789 0.74379879 -0.10012256 0.99493521
-1.0236132 0.7634961 -0.10103508 0.9948892
-1.0232421 0.80402344 -0.10295963 0.99479198
-1.0230273 0.82485348 -0.10397445 0.9947409
-1.0223633 0.88997066 -0.10724372 0.99457598
-1.021914 0.93572265 -0.10962673 0.9944557
-4.2730761 4.6664844 -0.50061637 0.97493112
-4.1546679 4.7726464 -0.50064337 0.97492981
-4.0944629 4.8245993 -0.50065714 0.97492921
-4.0336423 4.8758106 -0.50067103 0.9749285
-3.9721484 4.9262695 -0.5006851 0.97492778
-3.9100585 4.9759178 -0.50069928 0.97492707
-3.6555078 5.1666894 -0.50075746 0.97492427
-3.5247655 5.2572265 -0.50078732 0.97492272
-3.3917284 5.3444824 -0.50081778 0.97492123
-3.3244042 5.3868456 -0.50083315 0.97492045
-3.0499315 5.5477734 -0.50089592 0.97491735
-2.9800487 5.5858297 -0.50091195 0.97491664
-2.8389256 5.6593356 -0.50094426 0.97491497
-2.7676756 5.694736 -0.50096053 0.97491419
-2.695996 5.729248 -0.50097692 0.97491336
-2.5513282 5.7955761 -0.50101006 0.97491175
-2.4783788 5.827373 -0.50102675 0.97491091
-2.4050293 5.858252 -0.50104356 0.97491008
-2.2572167 5.9172263 -0.50107735 0.97490847
-2.182744 5.9453516 -0.5010944 0.97490752
-2.1079493 5.9725099 -0.50111157 0.97490668
-2.0328026 5.9987302 -0.50112873 0.97490585
-1.8815331 6.0483103 -0.50116342 0.97490424
-1.575498 6.1360841 -0.50123352 0.97490072
-1.4983398 6.1556053 -0.50125116 0.97489983
-1.3432422 6.1917672 -0.50128669 0.97489804
-1.2653906 6.2083592 -0.50130457 0.97489721
-1.0306054 6.2523241 -0.50135839 0.97489452
-0.87321287 6.2767091 -0.50139439 0.97489274
-0.79429686 6.2874122 -0.50141251 0.97489184
-0.71525389 6.2971191 -0.50143063 0.97489095
-0.63609374 6.3058395 -0.50144875 0.97489005
-0.55680662 6.3135743 -0.50146699 0.9748891
-0.4774707 6.3202829 -0.50148511 0.97488827
-0.31848633 6.3307519 -0.50152159 0.97488648
-0.23893555 6.3344822 -0.50153983 0.97488558
-0.15933594 6.3372068 -0.50155813 0.97488469
-1.953125e-05 6.3396778 -0.50159466 0.97488284
0.079667971 6.3394141 -0.5016129 0.97488195
0.23896484 6.3358688 -0.50164944 0.97488016
0.55708009 6.3167968 -0.50172246 0.97487646
0.8738867 6.2817383 -0.50179517 0.97487289
0.95277339 6.2704492 -0.50181323 0.97487211
1.0315429 6.2582226 -0.50183129 0.97487116
1.1885644 6.2307811 -0.50186735 0.97486937
1.2668164 6.2155566 -0.50188535 0.97486854
1.4227344 6.1822267 -0.50192112 0.97486663
1.5003418 6.1640525 -0.50193894 0.97486585
1.5777246 6.1449313 -0.5019567 0.97486502
1.7317773 6.1037793 -0.50199211 0.97486323
1.8084179 6.081748 -0.50200969 0.97486234
1.8847558 6.0587597 -0.50202721 0.97486144
1.9608203 6.0348144 -0.50204468 0.97486055
2.2618651 5.9294825 -0.50211388 0.97485715
2.4840038 5.8406053 -0.5021649 0.97485465
2.6301563 5.7767282 -0.50219846 0.97485304
2.9881737 5.6010938 -0.50228077 0.97484899
3.1282129 5.52458 -0.50231302 0.97484732
3.1974804 5.4850097 -0.50232887 0.9748466
3.3345118 5.4032617 -0.50236046 0.97484505
3.402246 5.3610935 -0.50237602 0.97484428
3.4694629 5.3180957 -0.50239146 0.97484344
3.7970996 5.0905075 -0.50246686 0.97483981
3.8608885 5.0425487 -0.50248158 0.97483903
3.9240527 4.9937696 -0.50249612 0.97483838
3.9866111 4.9442186 -0.50251049 0.9748376
4.0485349 4.8938575 -0.50252473 0.97483695
4.1098242 4.8427343 -0.50253886 0.97483623
4.3484473 4.6306248 -0.50259382 0.97483349
4.4064059 4.5757422 -0.50260717 0.97483283
4.4636717 4.5201268 -0.50262034 0.97483218
4.5202441 4.4638085 -0.50263339 0.97483146
4.6312208 4.3490138 -0.50265896 0.97483027
4.6856346 4.2905955 -0.50267148 0.97482961
4.7921972 4.1716795 -0.50269604 0.97482842
4.8957419 4.050127 -0.50271994 0.97482729
4.9962206 3.9260058 -0.50274312 0.9748261
1.2513964 0.88539058 -0.12128658 0.99386793
1.2515918 0.86213863 -0.12024707 0.99392039
1.2519825 0.81677735 -0.11827473 0.99401987
1.2521777 0.79466796 -0.11733963 0.99406689
1.2523534 0.77288085 -0.11643703 0.99411243
1.2527051 0.73027343 -0.11472568 0.99419868
1.4152343 0.70994139 -0.12527466 0.99366707
1.4607714 0.70995116 -0.12850353 0.99350429
1.5592675 0.70994139 -0.13555576 0.99314904
1.7931151 0.70995116 -0.15258694 0.99229157
2.0234864 0.6857031 -0.16904217 0.9914639
2.0235252 0.6574707 -0.16833913 0.99149913
6.0937009 1.8119922 -0.5029971 0.97481352
6.1374216 1.6583105 -0.50300729 0.9748131
6.1578612 1.5810742 -0.50301206 0.97481275
6.2132325 1.3478906 -0.503025 0.97481215
6.2297363 1.2697167 -0.50302887 0.97481191
6.2452245 1.1913378 -0.50303251 0.97481179
6.28583 0.95512694 -0.5030421 0.97481126
6.2973437 0.87606442 -0.50304478 0.97481126
6.317451 0.71754879 -0.50304961 0.9748109
6.3335252 0.5585742 -0.50305343 0.97481078
6.3455954 0.39922851 -0.50305641 0.97481066
6.3501368 0.3194629 -0.50305748 0.97481054
6.3561912 0.15977539 -0.50305909 0.97481042
6.3576951 0.079902343 -0.50305951 0.97481042
6.3581738 -0 -0.50305969 0.97481048
6.3561816 -0.15978515 -0.50305939 0.97481042
6.353662 -0.23964843 -0.50305891 0.97481048
6.3501563 -0.3194629 -0.5030582 0.97481048
6.3456149 -0.39922851 -0.50305724 0.97481054
6.3335447 -0.55856442 -0.50305462 0.97481072
6.3079004 -0.796875 -0.50304902 0.97481108
6.28583 -0.95514649 -0.50304413 0.97481126
6.2597752 -1.112793 -0.50303835 0.97481149
6.2452831 -1.1913574 -0.50303507 0.97481155
6.2132711 -1.3478906 -0.50302792 0.97481197
6.1957712 -1.4258691 -0.50302398 0.97481227
6.1773143 -1.5035839 -0.50301981 0.97481245
6.1578903 -1.5810839 -0.50301546 0.97481263
6.1161132 -1.7353125 -0.50300598 0.97481304
6.0937595 -1.8120117 -0.50300097 0.97481328
6.0704293 -1.888418 -0.50299573 0.97481364
2.0235059 -0.68572265 -0.16904232 0.99146378
1.9337499 -0.70995116 -0.16298324 0.99176848
1.8611327 -0.70995116 -0.15760152 0.9920392
1.7292968 -0.70995116 -0.14790469 0.99252725
1.6692675 -0.70996094 -0.14352317 0.99274784
1.5592675 -0.70995116 -0.13555618 0.99314904
1.3719531 -0.70995116 -0.12222251 0.99382079
1.3307226 -0.70996094 -0.11933414 0.99396634
1.2913769 -0.70996094 -0.11659725 0.99410433
1.2525195 -0.75142574 -0.11556606 0.99415636
1.2523632 -0.77288085 -0.11643711 0.99411237
1.2515918 -0.86213863 -0.12024707 0.99392039
1.2513964 -0.88539058 -0.12128662 0.99386793
1.2511718 -0.90903318 -0.12236351 0.99381375
5.0267673 -3.8488379 -0.50090957 0.9749167
4.8957911 -3.8470995 -0.4926371 0.97532576
4.7690525 -3.8454101 -0.48470873 0.97571808
4.6463184 -3.8437793 -0.47710532 0.97609431
4.5273438 -3.8421972 -0.46980914 0.97645557
4.0852537 -3.8363183 -0.44340003 0.97776425
3.9823046 -3.8349512 -0.43742412 0.97806066
3.6892772 -3.8310547 -0.42080939 0.97888511
3.5983496 -3.8318553 -0.41589713 0.97912902
3.4244921 -3.8354492 -0.40681502 0.97957999
3.2165625 -3.888164 -0.39925346 0.97995573
3.1673436 -3.928164 -0.39924219 0.97995633
3.1176562 -3.9675391 -0.39923087 0.97995687
3.0674317 -4.006289 -0.39921939 0.97995752
3.0167773 -4.044404 -0.3992078 0.97995806
2.9656346 -4.0818748 -0.39919612 0.97995865
2.8175976 -3.9823925 -0.38597658 0.98061597
2.7334862 -4.0771189 -0.38837162 0.98049676
2.7564745 -4.225215 -0.39914829 0.97996104
2.7030663 -4.2593946 -0.39913607 0.97996163
2.5403905 -4.357832 -0.39909887 0.97996348
2.4853516 -4.3892579 -0.3990863 0.97996414
2.4299023 -4.4200292 -0.3990736 0.97996473
2.3740916 -4.4500489 -0.39906082 0.97996545
2.3179297 -4.479404 -0.399048 0.97996598
2.2613866 -4.5080271 -0.39903504 0.97996664
2.2044921 -4.5359373 -0.39902201 0.9799673
2.089668 -4.5896091 -0.39899573 0.97996855
2.0317285 -4.6153417 -0.39898247 0.97996932
1.9150097 -4.664629 -0.39895576 0.97997057
1.7970507 -4.7109766 -0.39892876 0.97997189
1.3428515 -3.9628222 -0.33104941 0.98335117
1.2463574 -4.0066113 -0.33198619 0.9833045
1.4367871 -4.8319626 -0.39884624 0.979976
1.2534961 -4.8821678 -0.39880428 0.97997808
1.1920313 -4.8973532 -0.39879021 0.9799788
1.0685059 -4.9254103 -0.3987619 0.97998017
0.88201171 -4.9616404 -0.39871916 0.97998238
0.75698239 -4.9818945 -0.39869052 0.97998375
0.63152343 -4.9989843 -0.39866176 0.97998518
0.56862301 -5.0063477 -0.39864734 0.97998589
0.44258788 -5.0187011 -0.39861843 0.97998726
0.37950194 -5.0236716 -0.39860398 0.97998804
0.1898535 -5.0338573 -0.39856046 0.97999018
0.12659179 -5.0356641 -0.39854595 0.9799909
0.063281246 -5.0366797 -0.39853144 0.97999161
-1.953125e-05 -5.0368848 -0.39851692 0.97999239
-0.14881836 -3.9451365 -0.31236029 0.98428369
-0.44238281 -5.0161328 -0.39841545 0.9799974
-0.50537109 -5.0099902 -0.39840099 0.97999817
-0.75634766 -4.9775486 -0.39834341 0.98000103
-0.88113278 -4.9566112 -0.39831474 0.98000246
-1.2517383 -4.8751364 -0.39822966 0.98000658
-1.3128515 -4.8588376 -0.39821562 0.98000735
-1.4344336 -4.8239646 -0.3981877 0.98000872
-1.5550878 -4.7860742 -0.39816001 0.98001009
-1.6747656 -4.7451463 -0.3981325 0.98001146
-1.7341894 -4.7235641 -0.39811885 0.98001218
-1.7933496 -4.7012401 -0.39810526 0.98001283
-1.6175684 -3.9400682 -0.33698383 0.98305523
-2.0846679 -4.5785937 -0.39803833 0.98001611
-2.1419628 -4.5518847 -0.39802513 0.98001677
-2.4231639 -4.4076953 -0.39796051 0.98001999
-2.5873144 -4.3128123 -0.39792272 0.98002189
-2.6412108 -4.2798338 -0.39791033 0.98002255
-2.747793 -4.2118554 -0.3978858 0.98002368
-2.9042969 -4.1049314 -0.3978498 0.98002547
-2.9555762 -4.0679784 -0.39783803 0.98002607
-3.0063574 -4.0304003 -0.39782634 0.98002672
-3.0964062 -3.9405077 -0.39651054 0.98009211
-3.1481934 -3.9043846 -0.39682585 0.98007643
