# .PCD v0.7 - Point Cloud Data file format
VERSION 0.7
FIELDS x y z intensity
SIZE 4 4 4 4
TYPE F F F F
COUNT 1 1 1 1
WIDTH 1081
HEIGHT 1
VIEWPOINT 0 0 0 1 0 0 0
POINTS 1081
DATA ascii
-6.1560645 14.474707 -0.50129467 0.93899083
-5.9738183 14.551201 -0.50130492 0.93898964
-5.7906151 14.625439 -0.50131524 0.93898839
-5.6064844 14.697333 -0.50132561 0.93898726
-5.4214649 14.766885 -0.50133604 0.93898618
-5.2355857 14.834179 -0.50134653 0.93898487
-5.0489063 14.899189 -0.50135702 0.93898332
-4.6730566 15.021923 -0.50137824 0.93898112
-4.4840426 15.079795 -0.50138891 0.93897974
-4.2942772 15.135234 -0.50139958 0.93897867
-3.7210252 15.287373 -0.501432 0.93897462
-3.5286913 15.333222 -0.50144285 0.93897349
-3.1423924 15.417783 -0.50146466 0.93897069
-2.9484668 15.456347 -0.50147563 0.93896955
-2.7540526 15.492529 -0.5014866 0.93896824
-2.5592186 15.526269 -0.50149763 0.93896687
-2.363955 15.55748 -0.50150871 0.93896586
-2.1683397 15.586367 -0.50151974 0.93896425
-1.9723535 15.612734 -0.50153089 0.93896294
-1.5794336 15.658017 -0.50155312 0.93896049
-1.185498 15.693466 -0.50157541 0.93895787
-0.98824215 15.70748 -0.50158662 0.9389565
-0.39553711 15.734629 -0.50162023 0.93895251
-0.1977832 15.738691 -0.50163144 0.93895125
-9.7656248e-06 15.740244 -0.50164264 0.93895012
0.19779296 15.739404 -0.50165385 0.93894857
0.79092771 15.721826 -0.50168753 0.93894458
0.98845702 15.711055 -0.50169873 0.93894303
1.1858106 15.697695 -0.50170994 0.93894196
1.314248 14.902167 -0.47677439 0.9418866
1.4116406 12.42832 -0.39863646 0.95117396
1.5395312 11.066377 -0.3560808 0.95627046
2.4981151 12.256816 -0.39865521 0.95117176
2.8054004 12.190303 -0.39865974 0.95117122
3.1108887 12.116103 -0.39866424 0.95117062
3.2629101 12.076094 -0.3986665 0.9511705
3.7158008 11.944765 -0.39867324 0.95116955
4.0148535 11.847724 -0.39867774 0.95116913
4.1634278 11.796474 -0.39867994 0.9511686
4.311367 11.743252 -0.39868218 0.95116848
4.4585938 11.688184 -0.39868438 0.95116836
4.6051559 11.631318 -0.39868659 0.951168
4.7509961 11.572607 -0.39868879 0.95116764
4.8960252 11.512002 -0.39869097 0.95116764
5.9414744 8.6255274 -0.33380508 0.9589498
7.2882714 8.1629591 -0.34875777 0.95715028
9.0872364 8.1135254 -0.38824806 0.95241565
9.5441208 8.0997267 -0.39894256 0.95113742
9.6454096 7.9793649 -0.3989535 0.95113617
9.7452049 7.8577538 -0.39896438 0.9511348
9.9401369 7.6107907 -0.39898604 0.95113218
1.2657226 0.89550781 -0.04941307 0.99381417
1.2658007 0.87189454 -0.048984639 0.99386764
1.265957 0.82588863 -0.048172224 0.99396902
1.2660351 0.80344725 -0.047787208 0.99401706
1.2661035 0.78133786 -0.047415618 0.9940635
1.2662402 0.73814452 -0.046711121 0.99415147
1.2662988 0.71701169 -0.046377487 0.99419314
1.2914063 0.70996094 -0.046965674 0.99411958
1.3307421 0.70994139 -0.048068427 0.99398202
1.3719727 0.70993161 -0.049231835 0.99383688
1.4152734 0.70995116 -0.050461464 0.9936834
1.5087206 0.70993161 -0.053140447 0.99334919
1.5592871 0.70994139 -0.054602508 0.9931668
1.6127148 0.70995116 -0.056156844 0.99297297
1.6693066 0.70994139 -0.057811737 0.99276662
1.9337597 0.70994139 -0.065650515 0.99178988
2.0101659 0.65313476 -0.067361109 0.99157691
13.074286 4.0671778 -0.4363724 0.94667733
14.267383 4.0480175 -0.47264931 0.94237477
14.948379 4.0389743 -0.49348605 0.9399119
15.409697 3.3429589 -0.50253022 0.93884528
15.450605 3.1490819 -0.50253278 0.93884486
15.52497 2.7598145 -0.50253743 0.93884444
15.58955 2.3688183 -0.50254148 0.93884397
15.618213 2.1727636 -0.50254333 0.93884349
15.644287 1.9763184 -0.502545 0.93884343
15.667919 1.7795898 -0.50254655 0.93884331
15.737676 0.99013668 -0.50255138 0.93884283
15.757695 0.59432614 -0.50255293 0.93884242
15.767666 0.19814453 -0.50255394 0.93884236
15.768916 -9.7656248e-06 -0.50255418 0.93884236
15.767675 -0.19815429 -0.50255436 0.93884236
15.763916 -0.39628905 -0.50255436 0.93884242
15.748984 -0.79228514 -0.50255388 0.93884242
15.737793 -0.99013668 -0.50255346 0.93884242
15.724111 -1.1878222 -0.50255293 0.93884236
15.707939 -1.3853222 -0.50255221 0.93884242
15.668066 -1.7796191 -0.50255036 0.93884277
15.644394 -1.9763573 -0.50254923 0.93884301
15.450781 -3.1491113 -0.50253952 0.9388442
15.409961 -3.342998 -0.50253737 0.93884426
14.750332 -3.9854784 -0.48694929 0.9406839
13.341201 -3.9670508 -0.44358423 0.94582063
2.0101562 -0.65315425 -0.067360952 0.99157697
2.0102832 -0.68122071 -0.06764587 0.99154139
2.010371 -0.70956051 -0.06794399 0.99150431
1.9337499 -0.70995116 -0.065650746 0.99178988
1.861123 -0.70996094 -0.063482702 0.99205989
1.7931151 -0.70996094 -0.061463162 0.9923116
1.6693066 -0.70996094 -0.057811584 0.99276656
1.6127245 -0.70996094 -0.056156807 0.99297291
1.5593066 -0.70995116 -0.05460266 0.99316669
1.5087304 -0.70995116 -0.053140104 0.99334913
1.460791 -0.70996094 -0.051761933 0.99352109
1.3307323 -0.70995116 -0.048068464 0.99398202
1.2914063 -0.70995116 -0.046966016 0.99411958
1.2662402 -0.73815429 -0.046711158 0.99415147
1.2661816 -0.75959957 -0.047056846 0.9941082
1.2661035 -0.78134763 -0.047415543 0.9940635
1.265957 -0.82588863 -0.048171997 0.99396902
1.2658691 -0.84871089 -0.048571318 0.99391925
1.2658007 -0.87191403 -0.048984602 0.99386764
1.2657129 -0.89549804 -0.049412839 0.99381417
1.265625 -0.91952145 -0.049856603 0.9937588
10.005146 -9.8802338 -0.44813669 0.94528008
9.8588667 -9.9835491 -0.44716781 0.94539499
9.7116404 -10.084873 -0.44620132 0.94550943
9.5634565 -10.184082 -0.44524089 0.94562382
9.4144526 -10.281284 -0.44428405 0.94573754
9.2645998 -10.37646 -0.4433296 0.94585073
8.962451 -10.560703 -0.44143763 0.94607574
8.6845999 -10.770649 -0.44094849 0.94613379
8.5461521 -10.875864 -0.44082355 0.94614857
8.4062109 -10.979018 -0.44068876 0.94616473
8.1281643 -11.18747 -0.44071716 0.94616157
7.9947557 -11.29977 -0.44114912 0.94611031
7.722949 -11.519009 -0.44198844 0.94601047
6.8154492 -12.036484 -0.44083399 0.94614774
6.1666989 -12.293193 -0.43831697 0.94644654
6.0246973 -12.396377 -0.43926117 0.94633424
1.8133301 -3.9826562 -0.13946441 0.98263943
1.758164 -3.9937987 -0.13906932 0.98268807
5.299746 -12.909336 -0.44474304 0.94568306
4.3016696 -12.188115 -0.41191649 0.94958895
3.8390234 -12.340839 -0.41189039 0.94959188
1.2060547 -4.0559764 -0.13485713 0.983208
1.1494043 -4.0510645 -0.13420345 0.98328876
1.0955371 -4.0546188 -0.13385387 0.98333186
3.0562205 -12.556118 -0.41184622 0.94959748
2.8981249 -12.593257 -0.41183725 0.94959855
0.8794238 -4.0537205 -0.1321965 0.98353654
0.82552731 -4.0502439 -0.13173454 0.98359358
1.2638476 -8.3174658 -0.26811969 0.96689165
0.2993457 -3.9625487 -0.12664512 0.98422235
0.25031251 -3.9785254 -0.12704585 0.98417294
0.48175779 -9.5766945 -0.30559388 0.96235228
-1.953125e-05 -9.5311279 -0.30375567 0.96257442
-0.36134765 -9.5804348 -0.30554602 0.9623583
-0.25408202 -4.0385642 -0.12896301 0.98393601
-0.35580078 -4.0345116 -0.12907852 0.98392177
-1.0818359 -9.5247602 -0.30550507 0.96236306
-0.6645996 -4.0321193 -0.13023685 0.9837786
-2.0319531 -9.3664455 -0.30545101 0.96236956
-2.1494532 -9.3399563 -0.3054443 0.9623704
-2.2666016 -9.3120308 -0.30543762 0.96237111
-1.1728516 -3.9443066 -0.13114391 0.98366654
-1.2283496 -3.9486718 -0.13179268 0.98358655
-3.0754492 -9.0755272 -0.30539146 0.96237671
-3.3023827 -8.9949656 -0.3053785 0.96237838
-3.5272264 -8.9087744 -0.30536565 0.96237993
-3.638828 -8.8635397 -0.30535927 0.96238077
-3.7498436 -8.8169479 -0.30535296 0.96238148
-1.8282909 -4.0155759 -0.14061649 0.98249722
-1.8868457 -4.0097461 -0.14123191 0.98242134
-2.0122559 -4.0113964 -0.14302616 0.98219997
-2.2059178 -4.0125194 -0.14592963 0.98184198
-4.7200685 -8.3358984 -0.30529737 0.96238822
-4.8243551 -8.2757711 -0.30529138 0.96238893
-4.9279099 -8.2143745 -0.30528545 0.96238947
-5.0402536 -8.1672068 -0.30586317 0.96231973
-2.6048143 -3.9927342 -0.15193343 0.98110205
-2.6407909 -3.9388084 -0.15113227 0.9812007
-2.7020311 -3.9226854 -0.15180244 0.9811179
-5.925293 -8.1554537 -0.3212702 0.96045971
-6.2411327 -8.1512547 -0.32718229 0.95974696
-6.4034958 -8.149106 -0.33030003 0.95937133
-6.5690231 -8.1469088 -0.33353096 0.95898217
-6.7378516 -8.1446629 -0.33687943 0.95857906
-8.8316603 -9.4047699 -0.41116828 0.94967818
-8.9490042 -9.2929296 -0.41116148 0.9496789
-9.0649023 -9.1795654 -0.41115481 0.94967985
-9.1793947 -9.0648041 -0.41114822 0.94968057
-4.1104589 -3.9583397 -0.18186606 0.97742116
-1.0348828 -0.9240039 -0.044215277 0.99446315
-1.0349902 -0.90098631 -0.043732069 0.99452341
-1.0352832 -0.83475584 -0.042383041 0.99469185
-1.0353613 -0.81357419 -0.041964684 0.99474412
-1.0354297 -0.79280269 -0.041560743 0.99479461
-1.0355078 -0.77240235 -0.041170958 0.9948433
-1.0355663 -0.75239259 -0.040794637 0.99489033
-1.0588964 -0.70996094 -0.040630188 0.9949109
-1.2537891 -0.70994139 -0.045919798 0.99425036
-1.3307421 -0.70995116 -0.048068505 0.99398202
-1.4152734 -0.70995116 -0.050461311 0.9936834
-1.460791 -0.70996094 -0.051761854 0.99352109
-1.5087402 -0.70995116 -0.053140182 0.99334908
-1.6692773 -0.70996094 -0.057811927 0.99276668
-1.7293164 -0.70996094 -0.059576873 0.99254662
-1.7809863 -0.70515621 -0.06104679 0.99236339
-1.7809374 -0.67936522 -0.060747411 0.99240071
-11.773583 -4.1553612 -0.39790595 0.95126098
-11.874063 -3.8581152 -0.39789993 0.95126188
-12.245712 -3.6413085 -0.40715888 0.95015663
-14.784189 -3.5985253 -0.48492649 0.94092274
-15.313388 -3.524121 -0.50079423 0.93904996
-15.356338 -3.3313963 -0.50079155 0.93905044
-15.396973 -3.138164 -0.50078905 0.9390505
-15.435117 -2.9444041 -0.50078672 0.93905079
-15.504111 -2.5555761 -0.50078237 0.93905127
-15.534961 -2.3605468 -0.5007804 0.93905145
-15.56333 -2.165117 -0.50077862 0.93905169
-15.589238 -1.9693847 -0.50077695 0.93905193
-15.612704 -1.7733203 -0.50077534 0.93905216
-15.633691 -1.5769922 -0.50077397 0.9390524
-15.66832 -1.1836035 -0.50077158 0.93905264
-15.681904 -0.98663086 -0.50077057 0.93905282
-15.693066 -0.78950197 -0.50076973 0.93905282
-14.457021 -0 -0.50083905 0.94377947
-14.455869 0.18165039 -0.50083894 0.94377947
-14.452451 0.36331055 -0.50083894 0.94377947
-14.446738 0.54489255 -0.50083905 0.94377947
-14.438769 0.72639644 -0.50083935 0.94377941
-14.415947 1.0890039 -0.50084025 0.94377947
-14.384072 1.450918 -0.50084168 0.94377929
-13.70084 1.5561523 -0.4776943 0.94630647
-13.534678 1.7098144 -0.4726119 0.94686216
-13.512119 1.8797656 -0.47261301 0.94686216
-13.48748 2.0494041 -0.47261423 0.94686198
-13.460634 2.21875 -0.47261557 0.9468621
-13.431747 2.3877051 -0.47261703 0.94686192
-13.367656 2.7245312 -0.47262031 0.94686127
-13.908828 3.9462988 -0.50086594 0.94377643
-13.858173 4.1207714 -0.50086868 0.94377625
-13.805361 4.2945995 -0.50087148 0.94377601
-13.625381 4.4271579 -0.49631935 0.94427234
-12.564521 4.4345312 -0.46159229 0.94806856
-1.7817773 0.6796875 -0.066065788 0.99239641
-1.7818457 0.70547849 -0.066390991 0.99235904
-1.729287 0.70994139 -0.064761236 0.99254608
-1.6693066 0.70995116 -0.062842712 0.9927659
-1.5087109 0.70995116 -0.057764776 0.9933486
-1.460791 0.70995116 -0.056266632 0.9935205
-1.4152832 0.70993161 -0.054852676 0.9936828
-1.3719823 0.70994139 -0.053516235 0.99383622
-1.3307323 0.70994139 -0.052251358 0.99398148
-1.2914063 0.70994139 -0.051053006 0.99411911
-1.2538086 0.70993161 -0.049915999 0.99424976
-1.1834277 0.70993161 -0.047809411 0.99449176
-1.1504004 0.70994139 -0.046831854 0.99460405
-1.0589062 0.70994139 -0.044165991 0.99491042
-1.0346289 0.81298828 -0.045584753 0.99474734
-1.0344336 0.85576171 -0.04650978 0.99464107
-1.034336 0.8778125 -0.046997681 0.99458498
-1.0342382 0.90032226 -0.047503393 0.99452686
-1.0341308 0.92333007 -0.04802784 0.99446666
-8.3732033 7.8629394 -0.39792502 0.95506775
-8.2738276 7.9676461 -0.39793053 0.95506722
-8.173193 8.0711031 -0.39793614 0.9550665
-7.8635058 8.3737593 -0.39795336 0.95506471
-7.6508298 8.5689745 -0.39796522 0.9550634
-7.433291 8.7588186 -0.39797735 0.95506203
-7.341826 8.8747263 -0.39902115 0.95494699
-7.2110643 8.9431343 -0.39798981 0.95506066
-7.0982323 9.0332031 -0.3979961 0.95505989
-6.9325094 9.5417767 -0.40859276 0.9538914
-6.9027538 9.7563477 -0.41403365 0.95329201
-6.7915134 11.00499 -0.44800532 0.94955796
-6.7797656 11.630127 -0.46636853 0.94754559
-6.7615137 12.673867 -0.49764132 0.94412822
-6.6498141 12.850761 -0.50126839 0.94373286
-6.4879198 12.933555 -0.50127751 0.94373184
-6.3250194 13.014287 -0.50128663 0.94373083
-5.9962301 13.169667 -0.50130516 0.94372857
-5.8303514 13.244208 -0.50131446 0.94372767
-4.9876952 13.585478 -0.50136191 0.94372243
-4.8166895 13.647305 -0.50137156 0.94372147
-4.6449122 13.70705 -0.50138128 0.94372028
-4.2991209 13.819912 -0.50140077 0.94371849
-4.1252246 13.873144 -0.50141054 0.9437173
-3.9506543 13.92417 -0.50142038 0.94371617
-3.2463086 14.106181 -0.50146019 0.94371188
-3.0688574 14.146162 -0.50147021 0.94371074
-2.5336328 14.252617 -0.50150049 0.94370753
-2.354414 14.283671 -0.50151062 0.94370621
-2.1747656 14.312383 -0.50152075 0.94370526
-1.6338671 14.385019 -0.50155139 0.94370204
-1.453037 14.404756 -0.50156158 0.94370073
-1.0906249 14.437265 -0.50158215 0.9436987
-0.9091211 14.450127 -0.50159246 0.94369757
-0.72748047 14.46082 -0.50160271 0.94369602
-0.18195312 14.478808 -0.50163364 0.94369286
-9.7656248e-06 14.480234 -0.50164396 0.94369179
0.18196289 14.479404 -0.50165433 0.9436906
0.36390623 14.476259 -0.50166464 0.94368953
0.54581052 14.47082 -0.50167495 0.94368845
0.72760743 14.463154 -0.50168526 0.9436872
1.0908886 14.440849 -0.50170594 0.94368511
1.2722851 14.426298 -0.5017162 0.94368398
1.4421972 11.41623 -0.39863926 0.95498896
1.5383984 11.058232 -0.3867842 0.95629799
1.6324121 10.743105 -0.37644863 0.95744044
2.1562598 11.303456 -0.39865127 0.95498776
2.2981348 11.275537 -0.39865336 0.95498753
2.4396582 11.24583 -0.39865547 0.95498729
2.5807714 11.214355 -0.39865756 0.95498699
2.7215037 11.181054 -0.39865965 0.95498693
3.1410644 11.070742 -0.39866588 0.9549861
3.2799315 11.030449 -0.39866793 0.95498592
3.5561328 10.944629 -0.39867204 0.95498556
3.6934276 10.899199 -0.39867413 0.95498508
3.9661717 10.802998 -0.39867821 0.95498484
4.1016502 10.752373 -0.39868027 0.95498455
4.2364259 10.700009 -0.39868224 0.95498449
5.0305467 10.35081 -0.39869422 0.95498312
5.2891212 10.22122 -0.39869818 0.9549827
7.2882714 8.1629591 -0.37910849 0.95714641
8.1922846 8.0899897 -0.39886767 0.95496386
8.4920111 7.7760544 -0.39889798 0.95496058
8.7797556 7.451035 -0.39892808 0.95495713
8.9646873 7.2284079 -0.39894801 0.95495492
9.0550194 7.1153512 -0.39895797 0.95495391
9.1439161 7.0011816 -0.39896789 0.9549529
1.2646778 0.94333005 -0.054657783 0.99370515
1.2649413 0.87131834 -0.053212203 0.99387121
1.2650293 0.84814453 -0.052763328 0.99392271
1.2651465 0.82534176 -0.052330054 0.99397236
1.2651953 0.80291992 -0.051912077 0.99402046
1.2653027 0.7808398 -0.051508751 0.99406672
1.2653711 0.75909179 -0.051119499 0.99411148
1.2654394 0.73767579 -0.050744057 0.99415463
1.460791 0.70994139 -0.056266442 0.9935205
1.5592871 0.70994139 -0.059354246 0.99316615
1.7293261 0.70994139 -0.064761199 0.9925459
1.9337597 0.70994139 -0.071363792 0.9917891
2.0125098 0.71029294 -0.073934935 0.99149454
2.0123925 0.68193358 -0.073609807 0.99153179
13.641503 4.0563378 -0.49303627 0.9446305
13.952637 3.9587109 -0.50244695 0.94360441
14.001435 3.7831151 -0.50244987 0.94360381
14.047949 3.6068847 -0.50245267 0.94360352
14.134316 3.2527635 -0.50245798 0.94360286
14.211679 2.8965623 -0.50246274 0.94360256
14.280136 2.5385351 -0.50246698 0.94360197
14.339462 2.1788671 -0.50247079 0.94360179
14.36582 1.9985156 -0.50247246 0.94360137
14.431035 1.4556738 -0.50247669 0.94360101
14.486073 0.72874999 -0.50248063 0.94360054
14.499883 0.36450195 -0.50248182 0.94360024
14.50332 0.18224609 -0.50248218 0.94360024
14.50331 -0.18225585 -0.50248253 0.9436003
14.499873 -0.36449218 -0.50248253 0.9436003
14.431132 -1.4556934 -0.50247985 0.94360059
14.389941 -1.8178809 -0.50247788 0.94360083
14.280273 -2.5385742 -0.5024724 0.94360143
14.211864 -2.8966112 -0.50246894 0.94360185
14.092402 -3.4301562 -0.50246274 0.94360256
14.048144 -3.6069629 -0.50246042 0.94360274
14.00165 -3.7831933 -0.50245798 0.94360298
13.341201 -3.9670508 -0.4821834 0.9458158
1.9337695 -0.70995116 -0.071363635 0.99178904
1.7931151 -0.70996094 -0.066811748 0.99231088
1.6693066 -0.70996094 -0.062842481 0.9927659
1.5593066 -0.70995116 -0.059354398 0.99316609
1.5087304 -0.70995116 -0.057764661 0.99334854
1.3307323 -0.70995116 -0.05225151 0.99398148
1.265498 -0.71657223 -0.050381582 0.99419624
1.2654296 -0.73767579 -0.050743978 0.99415463
1.2653515 -0.75911129 -0.051119383 0.99411148
1.2652929 -0.78084958 -0.051508673 0.99406672
1.2651953 -0.80292964 -0.051912114 0.99402046
1.2650293 -0.84815431 -0.052763328 0.99392271
1.2647461 -0.91890621 -0.054158781 0.99376249
1.2646582 -0.9433496 -0.054657895 0.99370515
5.530127 -4.2342091 -0.24128993 0.97250837
5.5258985 -4.3422165 -0.24346918 0.97226375
8.8760939 -7.3429198 -0.39908108 0.95494032
8.6885443 -7.5634961 -0.39907065 0.95494133
9.067812 -9.1825094 -0.44708177 0.94965959
8.9339056 -9.277236 -0.44619051 0.94975716
8.663496 -9.4611864 -0.44442734 0.94995111
8.5270605 -9.5504198 -0.44354564 0.95004737
6.8747263 -7.8973632 -0.36273262 0.95895904
7.9893746 -9.908432 -0.44095206 0.95033252
7.8577247 -9.9997559 -0.44058335 0.95037258
7.3220506 -10.348994 -0.43918613 0.95052612
6.5267086 -10.879443 -0.43952242 0.95048922
6.1019921 -11.099487 -0.43880031 0.95056832
4.8815427 -9.433589 -0.36797267 0.95837843
5.5857911 -11.493315 -0.44270208 0.95014012
5.4532228 -11.588725 -0.44370544 0.95003033
4.5158005 -10.999678 -0.4119274 0.95352393
3.8158202 -11.260454 -0.41188791 0.95352829
1.0399414 -4.0501952 -0.14486377 0.98340297
0.98589844 -4.0505075 -0.14441997 0.98345333
0.93206054 -4.0500488 -0.14397484 0.98350394
0.87795895 -4.0470605 -0.14346497 0.98356187
0.82502925 -4.0479102 -0.14311668 0.98360151
0.77303708 -4.0523829 -0.14291942 0.98362386
1.4758593 -8.30229 -0.29212767 0.96681315
1.3712109 -8.3188915 -0.29208255 0.96681821
1.263828 -8.3174658 -0.29145184 0.96688867
1.0503906 -8.3146238 -0.29033467 0.96701336
0.83658201 -8.2938032 -0.28878292 0.96718687
0.3505078 -3.9743164 -0.13821751 0.98415828
0.25031251 -3.9785254 -0.13810158 0.98417145
0.44319335 -8.8099117 -0.30559084 0.96531057
0.33246094 -8.814599 -0.30558458 0.96531129
0 -8.8203125 -0.30556571 0.96531343
-0.33243164 -8.8135347 -0.30554685 0.9653154
-0.44315428 -8.8084908 -0.30554056 0.96531606
-0.30503905 -4.0379395 -0.14028606 0.98392314
-0.35558593 -4.0321193 -0.14022732 0.98392975
-0.40659177 -4.0309472 -0.14035416 0.98391545
-0.45801756 -4.0326462 -0.14060307 0.9838872
-0.50943357 -4.0327148 -0.14081657 0.98386282
-0.61219728 -4.0290232 -0.14118153 0.98382145
-0.66368163 -4.0263181 -0.14136715 0.98380023
-0.716582 -4.0309668 -0.14183575 0.98374707
-1.8693163 -8.6168213 -0.30545941 0.96532524
-2.0852051 -8.566802 -0.30544713 0.96532655
-2.1926367 -8.5397406 -0.30544099 0.96532726
-2.7242577 -8.3843746 -0.30541065 0.96533066
-2.9339745 -8.3129196 -0.30539867 0.96533209
-3.0381639 -8.2752638 -0.30539274 0.96533263
-3.1418359 -8.2362938 -0.30538681 0.96533322
-3.245039 -8.1959906 -0.30538091 0.96533388
-3.3621092 -8.189497 -0.30668822 0.96518803
-3.4823241 -8.1878958 -0.30824444 0.9650147
-1.9506054 -4.013545 -0.15459381 0.98229808
-2.076123 -4.0120897 -0.1564986 0.98208195
-4.4939451 -8.1744623 -0.32316387 0.96335274
-4.627656 -8.1726952 -0.32536796 0.96310753
-4.7632031 -8.1708784 -0.32765204 0.96285331
-4.9007225 -8.1690626 -0.33002335 0.96258962
-5.1818943 -8.1653223 -0.33502886 0.96203309
-5.7715626 -8.1574945 -0.34618187 0.96079415
-6.0817575 -8.1533737 -0.35238373 0.96010602
-6.4034958 -8.149106 -0.35904303 0.95936763
-6.5690231 -8.1469088 -0.36255509 0.95897847
-6.8472362 -7.8657713 -0.36127928 0.9591198
-6.9454293 -7.778955 -0.36127356 0.95912051
-8.1253901 -8.6526804 -0.41120756 0.95360333
-8.2333593 -8.5497751 -0.41120133 0.95360398
-8.4453516 -8.3399172 -0.41118908 0.95360541
-4.1104589 -3.9583397 -0.19769304 0.97741908
-4.1624413 -3.9087987 -0.19781609 0.97740531
-1.034336 -0.8778125 -0.04699764 0.99458498
-1.0346093 -0.81299806 -0.045584638 0.9947474
-1.034707 -0.7922461 -0.045146331 0.99479777
-1.0350195 -0.71294922 -0.043540228 0.99498236
-1.0588964 -0.70996094 -0.044166107 0.99491042
-1.1834277 -0.70994139 -0.047809448 0.99449176
-1.2537891 -0.70994139 -0.049916077 0.99424982
-1.2913867 -0.70996094 -0.0510532 0.99411911
-1.3307421 -0.70995116 -0.052251622 0.99398142
-1.3719727 -0.70996094 -0.053516272 0.99383622
-1.460791 -0.70996094 -0.056266401 0.9935205
-1.6692773 -0.70996094 -0.062842898 0.99276602
-1.7818359 -0.70547849 -0.066391066 0.9923591
-1.7817773 -0.67969728 -0.066065714 0.99239641
-12.223886 -3.6348143 -0.44180134 0.95023876
-12.784648 -3.6273437 -0.46038377 0.94820076
-13.392451 -3.6186035 -0.48059756 0.94598919
-14.003652 -3.5955467 -0.50086862 0.94377619
-14.047626 -3.4192479 -0.50086594 0.94377661
-14.089384 -3.2424316 -0.50086337 0.94377702
-14.166318 -2.8873241 -0.50085866 0.94377738
-14.264912 -2.3513184 -0.50085247 0.94377804
-14.319355 -1.9920703 -0.50084901 0.94377857
-14.364853 -1.6315918 -0.50084603 0.94377869
-14.40122 -1.2700585 -0.50084358 0.94377911
-14.416035 -1.0890039 -0.50084251 0.94377911
-13.382617 0.33641601 -0.50089967 0.94782549
-13.369922 0.67260742 -0.50090003 0.94782555
-13.335117 1.1760449 -0.50090146 0.94782537
-13.281445 1.677832 -0.50090402 0.9478249
-13.11751 2.6735644 -0.50091225 0.94782418
-13.08291 2.8381836 -0.50091404 0.94782406
-13.04624 3.0023828 -0.50091594 0.94782394
-13.007539 3.1660936 -0.50091797 0.9478237
-12.879179 3.6541405 -0.50092471 0.94782293
-12.783369 3.9766893 -0.50092977 0.94782251
-12.732471 4.1370411 -0.50093251 0.94782221
-12.564443 4.4345016 -0.49854907 0.94806385
-1.7825977 0.6544531 -0.071052857 0.99242777
-1.7826464 0.6800195 -0.071389996 0.99239194
-1.729287 0.70994139 -0.069946781 0.99254531
-1.6693066 0.70995116 -0.067874834 0.99276519
-1.612705 0.70995116 -0.065931849 0.99297166
-1.5087109 0.70994139 -0.062390022 0.99334794
-1.460791 0.70995116 -0.060772017 0.99351984
-1.3719823 0.70994139 -0.057801511 0.99383563
-1.3307323 0.70994139 -0.056435242 0.99398088
-1.2914063 0.70994139 -0.055140838 0.99411851
-1.2178515 0.70995116 -0.052746542 0.9943732
-1.1834277 0.70993161 -0.051637456 0.99449122
-1.1504004 0.70994139 -0.050581932 0.99460351
-1.1187109 0.70995116 -0.049576338 0.99471045
-1.0882226 0.70994139 -0.0486174 0.99481255
-1.0589062 0.70994139 -0.047702368 0.99490994
-1.034336 0.71248043 -0.046995543 0.99498516
-1.0342578 0.73174804 -0.047405776 0.99494153
-1.0341797 0.75135738 -0.047830962 0.99489629
-1.0339062 0.81244141 -0.049200743 0.99475044
-1.0338086 0.83357418 -0.049690399 0.99469835
-1.0336035 0.87717772 -0.0507246 0.99458832
-1.0333788 0.92264646 -0.051835556 0.99447012
-1.0332617 0.94615233 -0.052421987 0.99440771
-7.7446189 7.4580078 -0.40230328 0.95787567
-7.5900583 7.6860352 -0.40418273 0.95768303
-7.338418 8.2190819 -0.41227943 0.95685393
-6.9610739 9.3321772 -0.43562865 0.95446694
-6.8850684 9.7313375 -0.44604209 0.95340437
-6.8280859 10.184267 -0.45878991 0.95210499
-6.8011422 10.42498 -0.46574622 0.95139676
-6.7468162 11.573584 -0.50126427 0.94778872
-6.1572266 11.898788 -0.50129735 0.94778514
-6.0072947 11.97542 -0.50130576 0.94778436
-5.7046289 12.122988 -0.50132275 0.94778275
-5.5519629 12.193915 -0.50133139 0.94778186
-5.3983593 12.262939 -0.50134003 0.94778097
-5.2439451 12.330009 -0.50134873 0.94778013
-4.1409669 12.744648 -0.50141084 0.94777369
-3.9805663 12.795869 -0.5014199 0.94777286
-3.4956541 12.937529 -0.50144726 0.94777006
-3.1695507 13.021777 -0.50146568 0.94776815
-2.6766601 13.132705 -0.50149351 0.94776535
-2.5114648 13.165595 -0.50150287 0.94776422
-1.8469238 13.276084 -0.50154048 0.94776064
-1.6799902 13.298525 -0.5015499 0.94775957
-1.3453223 13.337021 -0.50156885 0.94775778
-1.0097558 13.367167 -0.50158787 0.94775569
-0.67357421 13.388799 -0.50160694 0.94775385
-0.50528318 13.396455 -0.50161648 0.94775289
-0.33689451 13.402021 -0.50162601 0.94775188
0 13.406738 -0.50164509 0.94775003
0.33693358 13.403076 -0.50166428 0.94774789
0.67367184 13.39084 -0.50168335 0.9477461
1.1779492 13.356709 -0.50171202 0.94774318
1.4817969 10.651416 -0.40238598 0.95786726
1.600498 10.533095 -0.39864424 0.9582507
1.7327539 10.512207 -0.39864615 0.95825052
1.9963769 10.46542 -0.39865005 0.95825022
2.2587988 10.412061 -0.39865392 0.95824975
2.3894336 10.3829 -0.39865589 0.95824957
2.7791307 10.285635 -0.39866167 0.95824891
2.908164 10.249912 -0.39866358 0.95824885
3.0367675 10.212626 -0.39866549 0.95824856
3.1648631 10.173711 -0.3986674 0.95824838
3.4195604 10.091084 -0.39867127 0.9582479
3.5461133 10.047343 -0.39867324 0.95824778
3.67208 10.002031 -0.39867523 0.95824766
4.0465236 9.8566799 -0.39868125 0.95824701
4.1701074 9.8051071 -0.39868331 0.95824671
4.2929978 9.7519922 -0.3986854 0.95824647
4.4152246 9.6973143 -0.39868754 0.95824635
4.5367479 9.6411037 -0.39868969 0.95824617
4.657578 9.5834084 -0.39869207 0.95824587
5.0155859 9.4012499 -0.39870065 0.95824498
5.3664942 9.2057419 -0.39870933 0.95824403
5.4817185 9.137578 -0.39870983 0.95824409
5.5962009 9.0681152 -0.39871639 0.95824343
6.8963866 8.1261816 -0.39879623 0.95823503
6.9980664 8.0390234 -0.39880452 0.95823431
7.1981931 7.8609667 -0.39882293 0.95823252
7.2966013 7.7700682 -0.39883211 0.95823151
7.6785059 7.3943357 -0.39886931 0.95822769
7.7710056 7.297441 -0.39887866 0.95822668
8.0410738 6.9998531 -0.39890659 0.95822388
8.1285839 6.8984275 -0.39891586 0.95822293
8.2997751 6.6922946 -0.3989343 0.95822096
1.2639062 0.91828126 -0.058455847 0.99376607
1.2641895 0.84757811 -0.056950722 0.99392617
1.2643067 0.82481444 -0.05648338 0.99397576
1.264541 0.75861329 -0.055177458 0.9941147
1.264707 0.71611327 -0.054381676 0.99419934
1.2914063 0.70996094 -0.055140875 0.99411845
1.3307421 0.70994139 -0.056435585 0.99398088
1.3719727 0.70993161 -0.057801321 0.99383569
1.460791 0.70994139 -0.060771901 0.99351984
1.5087206 0.70993161 -0.062389791 0.99334794
1.5592871 0.70993161 -0.064107209 0.99316549
1.6693066 0.70994139 -0.067874908 0.99276519
1.9337597 0.70994139 -0.077077828 0.99178827
2.0145214 0.682666 -0.079587899 0.99152201
2.0144043 0.65451169 -0.079251669 0.99155766
12.961914 3.5022364 -0.50239122 0.94767421
13.004951 3.3391016 -0.50239378 0.94767404
13.189228 2.5159667 -0.50240511 0.94767296
13.248379 2.1837499 -0.50240886 0.94767261
13.274863 2.0171094 -0.50241053 0.94767225
13.29917 1.8501366 -0.50241208 0.94767225
13.321416 1.6828905 -0.50241351 0.94767207
13.375468 1.1796093 -0.50241715 0.94767171
13.410507 0.67465818 -0.50241965 0.94767141
13.423262 0.33742186 -0.50242072 0.94767129
13.427509 -0 -0.50242132 0.94767123
13.426455 -0.16873047 -0.50242144 0.94767123
13.423262 -0.33744138 -0.50242144 0.94767129
13.34164 -1.5153809 -0.5024181 0.94767159
13.299267 -1.8501562 -0.50241601 0.94767189
13.274941 -2.0171387 -0.50241482 0.94767195
13.15666 -2.6815429 -0.5024088 0.94767261
13.121904 -2.8466504 -0.50240701 0.94767267
13.085039 -3.0113084 -0.50240511 0.9476729
12.869843 -3.8269043 -0.50239372 0.94767404
2.0143847 -0.65452147 -0.079251744 0.99155772
2.0146484 -0.71105468 -0.079939462 0.9914847
1.9337499 -0.70995116 -0.077077672 0.99178833
1.861123 -0.70996094 -0.074532814 0.9920584
1.7931151 -0.70996094 -0.072161406 0.99231011
1.7293359 -0.70995116 -0.069947086 0.99254513
1.6693066 -0.70996094 -0.067874603 0.99276519
1.460791 -0.70996094 -0.060771789 0.99351984
1.4152832 -0.70995116 -0.059244916 0.99368215
1.3719823 -0.70996094 -0.057801247 0.99383557
1.2647167 -0.71612304 -0.054381635 0.99419928
1.2644922 -0.7803418 -0.05559738 0.99406993
1.2639062 -0.91827148 -0.058455963 0.99376607
1.2638184 -0.94269532 -0.058994099 0.99370873
5.5281248 -4.2327051 -0.26051643 0.9725154
8.3021288 -6.6941891 -0.39904779 0.9582094
8.1311131 -6.9005466 -0.39903834 0.95821029
8.043623 -7.0020995 -0.39903349 0.95821089
7.8649316 -7.2018356 -0.39902353 0.9582119
7.7737107 -7.3000193 -0.39901847 0.95821238
7.5876169 -7.4928708 -0.39900813 0.95821339
7.3967185 -7.6809669 -0.39899749 0.95821458
7.2011719 -7.8642282 -0.39898658 0.95821559
7.9195895 -8.8700533 -0.44493136 0.95351738
6.8747654 -7.8973532 -0.39177793 0.95895499
7.6816406 -9.0514889 -0.44421005 0.95359141
7.5613379 -9.1400728 -0.4438566 0.95362717
7.4400001 -9.2271185 -0.44350803 0.95366281
7.3178515 -9.3127241 -0.44316918 0.9536975
7.194746 -9.3967819 -0.44283023 0.95373201
7.0708299 -9.4793701 -0.44250101 0.95376569
6.9460254 -9.5604048 -0.44217667 0.95379901
6.8204293 -9.6400051 -0.4418571 0.95383143
6.6940427 -9.7180567 -0.44154239 0.95386332
6.5667772 -9.7945557 -0.44123495 0.95389491
6.1809764 -10.015683 -0.44038045 0.953982
6.0621581 -10.105093 -0.44093049 0.95392621
5.5759668 -10.451616 -0.44324702 0.95368946
1.8133203 -3.9826562 -0.16373955 0.98263615
1.7183203 -4.0402927 -0.16428153 0.98257917
4.1807814 -10.183701 -0.41190749 0.95689201
4.052402 -10.235244 -0.41190031 0.95689279
3.6635742 -10.380205 -0.41187835 0.95689481
3.5327928 -10.42519 -0.41187099 0.95689571
3.2695704 -10.510317 -0.41185614 0.9568972
3.0042968 -10.588745 -0.41184115 0.95689887
0.98631835 -4.0521092 -0.15604611 0.98344523
0.93229491 -4.0510936 -0.15554389 0.9834981
0.87919921 -4.0526562 -0.155167 0.98353767
1.4672167 -8.2536325 -0.31366986 0.96700114
1.2537011 -8.2507906 -0.31226596 0.96714646
1.1476269 -8.2493744 -0.31164238 0.96721101
0.93666989 -8.2465725 -0.31054801 0.96732414
0.31071287 -8.2382612 -0.30847248 0.96753901
-0.31041992 -8.23001 -0.30816385 0.96757096
-0.41397461 -8.2286425 -0.30828178 0.96755862
-0.72536129 -8.2245016 -0.3089332 0.96749133
-0.40696287 -4.034492 -0.15172611 0.98389983
-0.45788085 -4.0313377 -0.15181182 0.98389077
-0.50909179 -4.029912 -0.15198769 0.98387235
-0.61252928 -4.0309863 -0.15255935 0.98381203
-1.460332 -8.2147408 -0.31219289 0.96715403
-1.5667773 -8.2133245 -0.31286183 0.96708477
-1.6737304 -8.2119093 -0.31358436 0.96701002
-1.7811913 -8.2104836 -0.31435987 0.96692979
-1.8891796 -8.2090378 -0.31518835 0.96684408
-2.1069922 -8.2061672 -0.31701201 0.96665549
-1.1271973 -3.972832 -0.15451999 0.98360574
-1.1728613 -3.9442968 -0.15397121 0.98366344
-2.6639452 -8.1987543 -0.32256225 0.96608168
-3.1251953 -8.1926413 -0.32809317 0.96551037
-3.2430859 -8.1910696 -0.32963592 0.96535099
-3.4823046 -8.1878958 -0.33292556 0.9650113
-3.60375 -8.1862745 -0.33467448 0.96483076
-3.7265038 -8.1846437 -0.33649635 0.96464276
-3.8506248 -8.1829929 -0.33839196 0.96444726
-4.2318163 -8.1779346 -0.34453788 0.9638133
-4.362031 -8.1762152 -0.34674671 0.9635855
-4.4939451 -8.1744623 -0.34903961 0.96334916
-4.7632031 -8.1708784 -0.3538883 0.96284968
-4.9007225 -8.1690626 -0.35644844 0.96258593
-2.6048143 -3.9927342 -0.17837949 0.98109841
-2.6407909 -3.9388084 -0.17743887 0.98119712
-2.7020311 -3.9226854 -0.17822658 0.98111433
-5.6763377 -7.8128123 -0.36134562 0.96208191
-5.9486718 -7.7693357 -0.36613521 0.96158916
-6.2558203 -7.7584667 -0.372915 0.96089178
-6.5745115 -7.7469335 -0.38018429 0.96014488
-6.738574 -7.7409081 -0.38401499 0.95975149
-6.9059176 -7.7346969 -0.38798156 0.95934433
-7.422451 -8.1058788 -0.41124687 0.95695966
-7.5236521 -8.0118847 -0.41124102 0.95696008
-7.3812108 -7.6648536 -0.39815894 0.95830035
-7.4768357 -7.5713964 -0.39815336 0.95830089
-4.1104589 -3.9583397 -0.21352236 0.97741687
-1.0332519 -0.94614255 -0.052422028 0.99440777
-1.0333788 -0.92265624 -0.051835593 0.99447012
-1.0334766 -0.89967769 -0.051270101 0.99453032
-1.0335938 -0.87717772 -0.050724562 0.99458838
-1.033711 -0.85515624 -0.050198324 0.99464428
-1.0337988 -0.83359373 -0.049690664 0.99469835
-1.0338964 -0.81244141 -0.049200628 0.9947505
-1.0339843 -0.79170895 -0.048727836 0.99480081
-1.0340821 -0.77135742 -0.048271254 0.99484938
-1.0343262 -0.71248043 -0.046995621 0.99498522
-1.0588964 -0.70996094 -0.047702484 0.99490994
-1.1187011 -0.70997071 -0.049576528 0.99471045
-1.1503808 -0.70995116 -0.050581854 0.99460357
-1.1834277 -0.70994139 -0.051637419 0.99449122
-1.2537891 -0.70994139 -0.053912885 0.99424922
-1.2913867 -0.70996094 -0.055140954 0.99411851
-1.3307421 -0.70995116 -0.056435432 0.99398082
-1.3719727 -0.70996094 -0.057801552 0.99383563
-1.7293164 -0.70996094 -0.069947049 0.99254519
-1.7826953 -0.70582032 -0.071741752 0.99235463
-1.7825977 -0.6544531 -0.071052663 0.99242777
-10.375078 -3.6617773 -0.411677 0.95691562
-11.225165 -3.647285 -0.44163105 0.95385426
-11.705205 -3.6412792 -0.45867899 0.95211607
-12.784648 -3.6273437 -0.49724868 0.94819576
-12.92419 -3.4920604 -0.50092977 0.94782245
-12.967011 -3.329375 -0.50092715 0.94782263
-13.007744 -3.1661327 -0.50092465 0.94782293
-13.083056 -2.8382225 -0.50092006 0.94782346
-13.117617 -2.6735938 -0.50091791 0.94782376
-13.235214 -2.0110936 -0.50091052 0.94782442
-13.259395 -1.8446192 -0.50090897 0.9478246
-13.281504 -1.6778418 -0.50090754 0.94782466
-13.360497 -0.8405664 -0.50090218 0.94782525
-13.36998 -0.6726172 -0.50090146 0.94782537
-13.377363 -0.50455076 -0.50090086 0.94782537
-13.382627 -0.33641601 -0.50090039 0.94782549
-13.385791 -0.16822265 -0.50090003 0.94782549
-12.464033 -9.7656248e-06 -0.50095212 0.95132798
-12.463008 0.15662108 -0.50095206 0.95132816
-12.460068 0.31321287 -0.50095206 0.9513281
-12.448281 0.62624019 -0.50095236 0.95132804
-12.439433 0.78260738 -0.50095272 0.95132804
-12.428623 0.93886715 -0.50095314 0.95132798
-12.401152 1.2509081 -0.50095439 0.9513278
-12.36581 1.5621485 -0.50095606 0.95132774
-12.298242 2.0271485 -0.5009594 0.95132738
-12.271816 2.1815233 -0.50096071 0.95132732
-12.072881 3.0997949 -0.50097108 0.95132631
-11.947637 3.5526464 -0.50097764 0.95132565
-11.854688 3.8518262 -0.50098264 0.95132524
-1.7834473 0.65476561 -0.076358259 0.99242336
-1.783496 0.68033201 -0.076720461 0.99238753
-1.7835644 0.70615232 -0.077098958 0.99235016
-1.729287 0.70994139 -0.075133473 0.99254453
-1.6693066 0.70995116 -0.072907716 0.99276441
-1.612705 0.70995116 -0.070820689 0.99297088
-1.5087109 0.70994139 -0.067016259 0.99334723
-1.3307323 0.70994139 -0.06062004 0.99398023
-1.2538086 0.70993161 -0.057910535 0.99424857
-1.2178515 0.70995116 -0.056657676 0.99437261
-1.1834277 0.70993161 -0.055466421 0.99449062
-1.1504004 0.70994139 -0.054332539 0.99460292
-1.1187109 0.70995116 -0.05325241 0.99470991
-1.0882226 0.70994139 -0.052222516 0.99481201
-1.0336425 0.71201169 -0.050446738 0.99498796
-1.0335449 0.73125976 -0.050886914 0.99494439
-1.0333788 0.77082032 -0.051815644 0.9948523
-1.0331738 0.81187499 -0.052812155 0.9947536
-1.0327442 0.89901364 -0.055031851 0.99453366
-1.032627 0.92197263 -0.055638388 0.99447358
-7.7311034 7.4450097 -0.43138194 0.9579432
-7.6541305 7.5585446 -0.43235281 0.95785052
-7.5767574 7.6725779 -0.43339369 0.95775115
-7.4989743 7.7871485 -0.43450817 0.95764488
-7.4243941 7.9061522 -0.43590716 0.95751131
-7.2205954 8.508193 -0.44850585 0.95631051
-7.1691699 8.6660156 -0.45204136 0.95597392
-7.1169138 8.8263865 -0.45570433 0.95562512
-7.0097752 9.1551561 -0.46343496 0.95488966
-6.9548144 9.3238182 -0.46751097 0.95450205
-6.9099121 9.510664 -0.4724893 0.9540289
-6.8270798 10.182793 -0.49273673 0.95210677
-6.7999411 10.423086 -0.50019103 0.95140016
-6.5500293 10.613671 -0.50127643 0.95129734
-6.4162207 10.695273 -0.50128394 0.95129675
-6.2814059 10.775214 -0.50129151 0.95129603
-6.0088573 10.930019 -0.50130677 0.95129448
-5.8710938 11.004853 -0.50131452 0.95129371
-5.5928807 11.149267 -0.5013302 0.95129222
-5.3110743 11.28665 -0.50134599 0.95129073
-5.1689157 11.352675 -0.50135404 0.95129001
-5.0259275 11.416894 -0.50136209 0.9512893
-4.5922947 11.598818 -0.50138646 0.95128679
-4.4462595 11.65579 -0.50139469 0.95128608
-4.2994919 11.710917 -0.50140297 0.95128536
-4.1520801 11.764218 -0.50141126 0.95128453
-4.003994 11.815683 -0.5014196 0.95128369
-3.8552344 11.865214 -0.50142801 0.9512831
-3.5559862 11.958808 -0.50144488 0.95128125
-3.405498 12.002714 -0.5014534 0.95128059
-3.2544239 12.044745 -0.50146192 0.95127988
-2.95083 12.123183 -0.50147909 0.95127809
-2.6453319 12.193906 -0.50149632 0.95127654
-2.4919336 12.226416 -0.50150496 0.95127565
-2.1839941 12.285615 -0.50152242 0.95127392
-1.7194629 12.359824 -0.50154871 0.95127153
-1.4083691 12.39958 -0.50156629 0.95126981
-1.0963477 12.431484 -0.50158399 0.9512682
-0.62708008 12.464648 -0.50161058 0.95126563
-0.47041991 12.471758 -0.50161946 0.9512648
-0.31365234 12.476924 -0.50162834 0.9512639
-0.1568457 12.480087 -0.50163722 0.95126307
0.1568457 12.480527 -0.50165498 0.9512614
0.47042969 12.473076 -0.5016728 0.95125979
0.78377926 12.457773 -0.50169063 0.951258
1.096621 12.43458 -0.50170839 0.95125633
1.2528223 12.420039 -0.50171727 0.9512555
1.2818848 11.285878 -0.45651603 0.95554781
1.613125 9.7865133 -0.39864647 0.96107167
1.8585742 9.7429876 -0.39865032 0.96107125
2.1028321 9.6933002 -0.39865416 0.9610709
2.2244921 9.6661615 -0.3986561 0.96107066
2.3458104 9.6374798 -0.39865807 0.96107054
2.8271289 9.5076466 -0.3986659 0.9610697
3.3013279 9.3537788 -0.39867377 0.96106893
3.5353613 9.2679491 -0.39867878 0.96106863
3.6515722 9.2228613 -0.39868137 0.96106833
4.1104884 9.027998 -0.39869186 0.9610672
4.3360934 8.9219427 -0.39869723 0.96106684
4.5590134 8.8103027 -0.39870265 0.96106625
4.669414 8.7523823 -0.39870453 0.96106589
4.778955 8.6928902 -0.3986994 0.96106648
4.9957614 8.5697851 -0.398689 0.96106762
5.1030664 8.5063572 -0.39868903 0.9610675
5.209609 8.441699 -0.39869514 0.96106696
5.315361 8.3756838 -0.39870119 0.96106642
5.4202833 8.3083496 -0.39870724 0.96106583
5.6277637 8.1701069 -0.39873654 0.96106303
6.0316892 7.8777146 -0.39877027 0.96105969
6.3246188 7.6451659 -0.39879116 0.96105784
6.420332 7.5652442 -0.39879867 0.96105701
6.5149899 7.4840918 -0.3988063 0.96105641
6.6086621 7.4017868 -0.39881393 0.96105558
6.7012596 7.3182712 -0.39882156 0.96105498
6.7928514 7.2336426 -0.39882919 0.96105415
6.9727635 7.0609374 -0.39884567 0.9610526
7.2343946 6.7935543 -0.39887106 0.96105015
7.3193359 6.7022457 -0.39887959 0.96104938
7.4858007 6.5164938 -0.39889669 0.96104765
7.6475387 6.326582 -0.39891395 0.96104598
7.726572 6.2301073 -0.39892253 0.96104527
7.8810449 6.0342383 -0.39893961 0.96104354
1.2630566 0.91765624 -0.062747955 0.99376959
1.2632715 0.870166 -0.061652601 0.99387801
1.2633789 0.84703124 -0.061133344 0.99392939
1.2634863 0.82426757 -0.06063221 0.99397898
1.2635645 0.80188477 -0.060148392 0.99402696
1.2637597 0.75813472 -0.059231374 0.99411774
1.2638378 0.73674804 -0.058796767 0.99416077
1.263916 0.71566403 -0.058377493 0.99420232
1.3307421 0.70994139 -0.06062023 0.99398023
1.3719727 0.70993161 -0.062087286 0.99383503
1.460791 0.70994139 -0.065278202 0.99351919
1.5087206 0.70993161 -0.067016408 0.99334723
1.5592871 0.70993161 -0.068860702 0.99316478
1.7931347 0.70994139 -0.077512316 0.99230927
1.8611327 0.70995116 -0.080059394 0.9920575
1.9337597 0.70994139 -0.082793385 0.99178743
2.0167675 0.71179688 -0.085957982 0.99147487
12.023887 3.4114842 -0.50233805 0.95119679
12.144131 2.9559178 -0.50234532 0.95119601
12.180371 2.8031054 -0.50234759 0.95119578
12.214706 2.6498339 -0.50234967 0.95119548
12.24705 2.4961329 -0.5023517 0.95119548
12.27749 2.3420606 -0.50235361 0.9511953
12.306015 2.1875975 -0.5023554 0.95119506
12.332559 2.0328026 -0.50235707 0.95119494
12.357139 1.877666 -0.50235856 0.95119488
12.400497 1.5665528 -0.50236142 0.95119458
12.419287 1.4106054 -0.50236261 0.95119429
12.436035 1.2544433 -0.50236374 0.95119429
12.45083 1.0980663 -0.50236475 0.95119423
12.463662 0.94152343 -0.50236565 0.95119417
12.483427 0.62800777 -0.50236708 0.95119399
12.495293 0.31410155 -0.50236809 0.95119393
12.498261 0.15705077 -0.50236839 0.95119387
12.499238 -0 -0.50236863 0.95119393
12.498252 -0.15708007 -0.50236875 0.95119393
12.483447 -0.62802732 -0.50236839 0.95119393
12.46374 -0.94152343 -0.50236768 0.95119387
12.450879 -1.0980663 -0.50236708 0.95119405
12.436093 -1.2544433 -0.50236642 0.95119405
12.419316 -1.410625 -0.50236565 0.95119417
12.400605 -1.5665624 -0.5023647 0.95119423
12.277597 -2.3420801 -0.50235856 0.95119488
12.247188 -2.4961815 -0.50235701 0.95119488
12.144267 -2.9559667 -0.5023517 0.95119542
11.980225 -3.5623631 -0.502343 0.95119619
2.0165136 -0.65520507 -0.08521805 0.99154794
2.0167675 -0.7118066 -0.08595825 0.99147487
1.9337695 -0.70995116 -0.08279331 0.99178737
1.861123 -0.70996094 -0.080059394 0.9920575
1.7931151 -0.70996094 -0.077512056 0.99230927
1.5593066 -0.70995116 -0.068860471 0.99316466
1.5087304 -0.70995116 -0.06701614 0.99334717
1.4152832 -0.70995116 -0.06363792 0.99368143
1.3719823 -0.70996094 -0.062087517 0.99383491
1.2914063 -0.70995116 -0.059229735 0.99411786
1.263916 -0.7156738 -0.058377303 0.99420232
1.2638378 -0.73675781 -0.058796652 0.99416077
1.2637695 -0.7581445 -0.059231222 0.99411768
1.2634765 -0.82427734 -0.060632359 0.99397904
1.2633691 -0.84704101 -0.061133306 0.99392939
7.7283883 -6.2315817 -0.39901477 0.96103626
7.4051852 -6.6117187 -0.39899683 0.96103799
7.3214355 -6.7041602 -0.39899218 0.96103847
7.2365332 -6.7955565 -0.39898744 0.96103889
7.1504688 -6.8858886 -0.39898267 0.96103936
7.0632715 -6.9750876 -0.39897782 0.9610399
6.8855953 -7.1502051 -0.39896792 0.96104085
6.7035837 -7.3207908 -0.39895779 0.96104181
6.5173144 -7.4867578 -0.39894736 0.96104276
6.422617 -7.5679488 -0.39894211 0.96104336
6.3269529 -7.6479883 -0.39893675 0.96104372
6.2302442 -7.7267575 -0.39893135 0.96104437
6.1325974 -7.8043456 -0.3989259 0.96104479
6.6167965 -8.8706541 -0.44478878 0.95666474
6.5003123 -8.9469433 -0.44448438 0.95669389
6.3830857 -9.021821 -0.44418484 0.95672244
6.2650485 -9.0952778 -0.44389015 0.95675057
6.0416403 -9.2607861 -0.44441473 0.95670056
5.931416 -9.3464155 -0.44491154 0.95665318
5.8201561 -9.4309864 -0.44542289 0.95660466
5.707871 -9.5145264 -0.44594395 0.95655489
5.5945506 -9.5969915 -0.44647959 0.95650399
5.3648438 -9.7585936 -0.44757998 0.9563989
4.8244138 -9.0429831 -0.41194281 0.95979959
4.48 -9.2179928 -0.41192344 0.95980126
3.4105272 -9.6632423 -0.41186324 0.95980722
3.2887793 -9.7051659 -0.41185638 0.95980787
3.166543 -9.7456007 -0.41184947 0.95980835
3.0437694 -9.7844477 -0.41184255 0.95980906
2.9205272 -9.8217478 -0.41183558 0.95980978
2.5481446 -9.924345 -0.41181457 0.95981175
1.9007617 -8.2593746 -0.34063667 0.96664065
1.7914453 -8.2579298 -0.33962145 0.9667384
1.6827929 -8.256484 -0.33866584 0.96683043
0.29933593 -3.9625487 -0.15971412 0.9842177
0.25030273 -3.9785254 -0.16022044 0.98416823
0.41452149 -8.2396383 -0.33158535 0.96751255
0.31071287 -8.2382717 -0.33134657 0.9675355
0.10348633 -8.235508 -0.33102578 0.96756637
-0.20692383 -8.2313862 -0.33093855 0.96757478
-0.31041992 -8.23001 -0.33101401 0.96756756
-0.41399413 -8.2286425 -0.3311418 0.96755517
-0.51762694 -8.2272654 -0.3313221 0.96753782
-0.7253418 -8.2245016 -0.33184043 0.96748787
-1.0384766 -8.220356 -0.33301634 0.96737456
-1.143418 -8.2189598 -0.33351576 0.96732646
-1.3542968 -8.2161474 -0.33467796 0.96721452
-1.5667773 -8.2133245 -0.33606142 0.96708131
-1.6737304 -8.2119093 -0.33683646 0.9670065
-1.7811913 -8.2104836 -0.33766958 0.96692628
-1.8891796 -8.2090378 -0.33856148 0.96684057
-1.9977734 -8.2076216 -0.33950973 0.96674907
-2.1069922 -8.2061672 -0.3405183 0.96665198
-2.2168748 -8.2047024 -0.34158698 0.96654916
-1.1271973 -3.972832 -0.16597767 0.98360401
-1.2283593 -3.9486718 -0.16620681 0.98358166
-3.0083787 -8.1941938 -0.35083449 0.96565938
-3.60375 -8.1862745 -0.35949057 0.964827
-3.9761717 -8.1813326 -0.36560079 0.96424013
-4.2317967 -8.1779346 -0.37008509 0.96380949
-4.4307323 -7.8249412 -0.36141631 0.96464205
-4.5421972 -7.7917676 -0.36249059 0.96453869
-4.9365234 -7.7787008 -0.3702836 0.96379048
-2.6048143 -3.9927342 -0.19160676 0.98109645
-5.4900098 -7.7595506 -0.38203543 0.96266294
-5.6339254 -7.7544141 -0.38523844 0.96235591
-5.9291015 -7.7437301 -0.39198843 0.96170914
-6.0805664 -7.7381539 -0.39554316 0.96136874
-6.2192383 -7.7130761 -0.39822489 0.9611119
-6.3155856 -7.6342187 -0.39821938 0.96111244
-6.4109082 -7.5541406 -0.39821386 0.96111304
-6.5052538 -7.4729004 -0.39820841 0.96111345
-6.5985546 -7.390449 -0.39820305 0.96111405
-6.8721776 -7.1362596 -0.39818725 0.9611153
-6.9611912 -7.0492187 -0.39818209 0.96111596
-7.0491309 -6.961113 -0.39817703 0.96111643
-4.1104589 -3.9583397 -0.22935568 0.97741449
-4.1624413 -3.9087987 -0.22949758 0.97740066
-1.0326172 -0.92197263 -0.055638503 0.99447358
-1.0327442 -0.89902341 -0.055031966 0.99453366
-1.0330664 -0.83298826 -0.053337783 0.99470156
-1.0331738 -0.81187499 -0.052812081 0.9947536
-1.0334668 -0.75085938 -0.051342923 0.99489915
-1.0335547 -0.73126954 -0.050886955 0.99494439
-1.0882324 -0.70995116 -0.052222516 0.99481195
-1.1187011 -0.70997071 -0.0532526 0.99470985
-1.1834277 -0.70994139 -0.055466458 0.99449062
-1.2178613 -0.70995116 -0.056657638 0.99437261
-1.2537891 -0.70994139 -0.057910688 0.99424863
-1.2913867 -0.70996094 -0.059229698 0.99411792
-1.3307421 -0.70995116 -0.060620077 0.99398023
-1.3719727 -0.70996094 -0.062087364 0.99383497
-1.460791 -0.70996094 -0.065278091 0.99351913
-1.5087402 -0.70995116 -0.067016296 0.99334711
-1.5592871 -0.70995116 -0.068860509 0.99316472
-10.364453 -3.6580272 -0.44175127 0.95695424
-10.779482 -3.6528516 -0.45744652 0.9554593
-11.705205 -3.6412792 -0.49269187 0.95211107
-11.947842 -3.5527148 -0.50098521 0.95132482
-11.991474 -3.4022851 -0.50098258 0.95132512
-12.033232 -3.251328 -0.50098008 0.9513253
-12.111025 -2.9478807 -0.50097531 0.95132571
-12.147031 -2.7954297 -0.50097311 0.95132607
-12.213349 -2.4892774 -0.50096905 0.95132643
-12.243623 -2.3355956 -0.50096714 0.95132661
-12.271943 -2.1815526 -0.50096536 0.95132685
-12.298379 -2.0271776 -0.50096369 0.95132685
-12.365898 -1.5621777 -0.5009594 0.95132744
-12.384561 -1.4066601 -0.50095814 0.95132738
-12.401211 -1.2509179 -0.50095707 0.95132756
-12.415908 -1.095 -0.50095606 0.95132774
-12.439472 -0.78261715 -0.50095439 0.95132786
-12.460088 -0.31321287 -0.50095272 0.95132804
-12.463057 -0.15664062 -0.50095236 0.95132798
-11.660039 -0 -0.50099778 0.95438969
-11.659131 0.14651367 -0.50099766 0.95438969
-11.656367 0.29301757 -0.50099766 0.95438969
-11.61499 1.0243359 -0.50099927 0.95438957
-11.601211 1.1702148 -0.50099987 0.95438957
-11.585664 1.315918 -0.50100058 0.95438927
-11.548935 1.6066601 -0.50100237 0.95438927
-11.504971 1.896377 -0.50100458 0.95438904
-11.480225 2.0408008 -0.50100583 0.95438904
-11.45374 2.184912 -0.50100714 0.9543888
-11.395264 2.47208 -0.50101018 0.95438862
-11.363339 2.615078 -0.50101185 0.95438844
-11.217773 3.1827636 -0.50101948 0.95438778
-11.134365 3.463701 -0.50102395 0.95438731
-11.043886 3.7424414 -0.50102872 0.95438695
-1.784375 0.68065429 -0.082057454 0.99238294
-1.729287 0.70994139 -0.080321386 0.99254364
-1.5592773 0.70994139 -0.073615298 0.993164
-1.460791 0.70995116 -0.069785692 0.99351841
-1.4152832 0.70993161 -0.068031766 0.99368078
-1.3719823 0.70994139 -0.066374511 0.99383426
-1.3307323 0.70994139 -0.06480591 0.99397957
-1.2178515 0.70995116 -0.060569648 0.99437201
-1.0882226 0.70994139 -0.0558284 0.99481142
-1.0589062 0.70994139 -0.054777563 0.99490881
-1.032959 0.71153319 -0.053894348 0.99499071
-1.0328808 0.73076171 -0.054364242 0.99494714
-1.0327832 0.75035155 -0.054851074 0.99490201
-1.0326757 0.77029294 -0.055355337 0.99485523
-1.0325781 0.79060543 -0.055878144 0.99480677
-1.0318555 0.92130858 -0.05943672 0.99447697
-7.7235351 7.4377341 -0.46071574 0.95797873
-7.5700488 7.6657615 -0.46290663 0.95778304
-7.4179883 7.8993359 -0.46560428 0.95754236
-7.3695211 8.0480566 -0.46887496 0.95725065
-7.2705078 8.3519726 -0.47578055 0.9566347
-7.219873 8.5073538 -0.47942761 0.95630985
-7.168457 8.6651659 -0.48320526 0.95597321
-7.063076 8.9884863 -0.49117896 0.95526326
-7.0090818 9.1542282 -0.49538469 0.954889
-6.6180272 9.6077147 -0.50127363 0.95436513
-6.3746676 9.7712498 -0.50128728 0.95436394
-6.2514648 9.8507128 -0.5012942 0.95436335
-6.1272655 9.9286232 -0.50130117 0.95436275
-6.0020995 10.00498 -0.50130814 0.95436215
-5.8759961 10.079746 -0.50131524 0.9543615
-5.7489257 10.152929 -0.50132239 0.95436096
-5.620986 10.224561 -0.50132954 0.95436013
-5.3624411 10.36289 -0.50134408 0.95435882
-5.2318454 10.42958 -0.50135142 0.95435828
-4.9682422 10.558115 -0.50136626 0.95435685
