# .PCD v0.7 - Point Cloud Data file format
VERSION 0.7
FIELDS x y z intensity
SIZE 4 4 4 4
TYPE F F F F
COUNT 1 1 1 1
WIDTH 1083
HEIGHT 1
VIEWPOINT 0 0 0 1 0 0 0
POINTS 1083
DATA ascii
7.4832225 -6.5142574 -0.39875916 0.96106076
7.4007225 -6.6077442 -0.39875737 0.961061
7.31708 -6.7001853 -0.39875555 0.96106118
7.232275 -6.7915821 -0.3987537 0.9610613
7.146328 -6.8818846 -0.39875183 0.96106148
7.059238 -6.9711032 -0.39874992 0.96106172
6.9710546 -7.059238 -0.39874801 0.96106189
6.6999607 -7.3168554 -0.39874205 0.96106237
6.6074023 -7.4004197 -0.39874008 0.96106273
6.5138769 -7.4828219 -0.39873797 0.96106291
6.4193163 -7.5640526 -0.39873591 0.96106303
6.227129 -7.7229099 -0.39873168 0.96106344
6.1295505 -7.800488 -0.39872953 0.96106368
6.0310154 -7.8768649 -0.39872736 0.96106386
6.6139355 -8.8668747 -0.44460532 0.95668286
6.4976368 -8.9432669 -0.4443 0.95671129
6.3804297 -9.0181541 -0.44400442 0.95673978
6.2625294 -9.0916357 -0.44371372 0.9567675
5.9096289 -9.3121386 -0.44328108 0.95680875
5.7988181 -9.3964748 -0.44379133 0.95676005
5.574121 -9.5619822 -0.4448508 0.9566592
5.3453612 -9.7231789 -0.44595903 0.9565537
5.1124802 -9.879961 -0.44711107 0.95644373
4.4784374 -9.2148342 -0.41178307 0.95981479
4.2453809 -9.3243313 -0.41177785 0.95981538
1.649453 -4.0178223 -0.17456165 0.98276335
1.5243945 -3.9962206 -0.17190315 0.98302352
3.4096875 -9.6608009 -0.41175911 0.95981711
3.165791 -9.7433443 -0.41175359 0.95981753
2.9199023 -9.8196583 -0.41174805 0.95981818
2.7962401 -9.8554878 -0.41174525 0.95981854
2.5476563 -9.9225044 -0.41173965 0.95981908
1.6834179 -8.2595062 -0.33879036 0.96681851
1.4677539 -8.2566452 -0.33705351 0.96698582
1.1480469 -8.2524023 -0.33487341 0.96719569
1.0423046 -8.2510061 -0.33425811 0.96725494
0.93699217 -8.2495995 -0.33369866 0.96730894
0.72728515 -8.2468166 -0.33274153 0.96740115
0.62285155 -8.245429 -0.33234218 0.96743947
0.41464841 -8.2426662 -0.33170608 0.96750081
0.099648438 -3.9645312 -0.15939151 0.98424941
-0.10351562 -8.2357712 -0.33103752 0.96756536
-0.20703125 -8.2344046 -0.33106032 0.96756309
-0.3105664 -8.233037 -0.33113536 0.96755582
-0.51783204 -8.2302732 -0.33144367 0.96752614
-0.62166011 -8.2288961 -0.33167717 0.96750373
-0.82980466 -8.2261324 -0.33230171 0.96744353
-0.9342187 -8.2247458 -0.33269331 0.96740574
-1.3548144 -8.2191696 -0.33480126 0.96720266
-1.9985254 -8.2106152 -0.33963573 0.96673715
-2.2176952 -8.2077093 -0.34171265 0.96653706
-2.3283398 -8.2062349 -0.34284228 0.96642834
-2.4397266 -8.2047701 -0.34403491 0.96631354
-1.348623 -3.9796972 -0.16888542 0.98331916
-1.3932812 -3.9476073 -0.1682528 0.98338103
-3.1263475 -8.1956396 -0.35254997 0.96549428
-3.2442772 -8.1940765 -0.35420901 0.96533477
-3.4835937 -8.1908932 -0.35774353 0.96499497
-3.605078 -8.1892824 -0.35962418 0.96481431
-3.8520508 -8.1860008 -0.363617 0.96443063
-3.9776561 -8.1843405 -0.36573428 0.9642272
-4.1047459 -8.1826515 -0.36793587 0.96401584
-4.334043 -7.883574 -0.36157995 0.96462625
-4.432754 -7.8284469 -0.3615776 0.96462643
-4.6736522 -7.7905369 -0.36513796 0.96428442
-4.8051367 -7.786201 -0.3677364 0.96403491
-5.07375 -7.7771482 -0.37321436 0.96350908
-5.2110643 -7.7724218 -0.37610123 0.9632321
-2.864795 -3.9430273 -0.19588853 0.9806779
-6.0830078 -7.7412109 -0.39569885 0.96135372
-6.2226954 -7.7173729 -0.39844671 0.96109068
-6.3191404 -7.638535 -0.39844444 0.96109092
-6.4146094 -7.5584764 -0.39844215 0.9610911
-6.6024704 -7.394824 -0.39843768 0.96109146
-6.6948438 -7.3112302 -0.3984355 0.96109164
-7.1404781 -6.8762302 -0.39842483 0.96109283
-7.2263083 -6.7859473 -0.39842278 0.96109289
-1.0325292 -0.94545895 -0.056267433 0.99441117
-1.0326366 -0.92199218 -0.055638656 0.99447346
-1.0327538 -0.89902341 -0.055031888 0.9945336
-1.0328808 -0.87657225 -0.054446679 0.99459147
-1.0329883 -0.85456055 -0.053882446 0.99464744
-1.0332227 -0.81188476 -0.052812118 0.99475342
-1.0333105 -0.79116207 -0.052305143 0.99480373
-1.0334082 -0.77083004 -0.051815376 0.99485224
-1.033496 -0.75087887 -0.051343039 0.99489903
-1.0336719 -0.71202147 -0.0504467 0.99498785
-1.0589453 -0.70997071 -0.051239699 0.99490923
-1.253828 -0.70997071 -0.057910498 0.99424839
-1.4153028 -0.70997071 -0.063637771 0.99368137
-1.6693066 -0.70997071 -0.072907791 0.99276441
-1.7293457 -0.70996094 -0.075133435 0.99254429
-1.7835156 -0.68035156 -0.076720618 0.99238747
-10.372617 -3.660918 -0.44209754 0.9569211
-10.787578 -3.6555955 -0.45778996 0.95542663
-11.233603 -3.6500096 -0.47473547 0.95381552
-11.714052 -3.6440234 -0.49306223 0.95207578
-11.957753 -3.5556641 -0.50140089 0.95128548
-12.043281 -3.2540526 -0.50139856 0.95128566
-12.121191 -2.9503613 -0.50139648 0.9512859
-12.157246 -2.7977929 -0.50139546 0.95128614
-12.191425 -2.6447949 -0.50139451 0.9512862
-12.282471 -2.1834373 -0.50139195 0.95128608
-11.785419 -1.6395605 -0.47824004 0.95348263
-12.376533 -1.5635155 -0.50138915 0.95128661
-12.395165 -1.407871 -0.50138855 0.95128673
-12.411884 -1.2520019 -0.50138801 0.95128673
-12.426611 -1.0959473 -0.50138754 0.95128679
-12.439384 -0.93968749 -0.501387 0.95128691
-12.459072 -0.62678707 -0.50138623 0.95128685
-12.470879 -0.31349608 -0.50138563 0.95128691
-12.473838 -0.15676758 -0.50138539 0.95128691
-11.665839 0.29325196 -0.50140339 0.95435345
-11.654765 0.58632809 -0.50140339 0.95435357
-11.636367 0.87901366 -0.50140351 0.95435351
-11.624374 1.0251855 -0.50140363 0.95435357
-11.610585 1.1711621 -0.50140375 0.95435357
-11.594999 1.3169726 -0.50140393 0.95435333
-11.577529 1.4625878 -0.50140423 0.95435339
-11.514179 1.8978808 -0.50140518 0.95435339
-11.489414 2.0424414 -0.5014056 0.95435339
-11.462842 2.1866405 -0.50140607 0.95435339
-11.434463 2.3305273 -0.50140655 0.95435339
-11.404297 2.4740233 -0.50140709 0.95435333
-11.338593 2.7598534 -0.50140828 0.95435303
-11.303057 2.9021289 -0.50140893 0.95435286
-11.265683 3.043916 -0.50140965 0.95435292
-11.226552 3.1852539 -0.50141042 0.95435292
-11.185654 3.3260643 -0.5014112 0.95435286
-11.142998 3.466367 -0.50141197 0.95435274
-11.098584 3.6061425 -0.50141287 0.95435262
-11.052373 3.745332 -0.50141376 0.95435268
-11.004501 3.8839355 -0.50141472 0.95435244
-1.7843847 0.68065429 -0.082057416 0.99238294
-1.6127245 0.70994139 -0.07571052 0.99297005
-1.5593066 0.70993161 -0.073615186 0.99316388
-1.415293 0.70994139 -0.068032034 0.99368072
-1.3719921 0.70994139 -0.066374399 0.9938342
-1.3307519 0.70992184 -0.064805828 0.99397951
-1.2178808 0.70993161 -0.060570069 0.99437189
-1.0589257 0.70993161 -0.054777525 0.99490875
-1.032998 0.71151364 -0.053894196 0.99499065
-1.0329101 0.73076171 -0.054364316 0.99494708
-1.0328223 0.75035155 -0.054851264 0.99490184
-1.0327246 0.77028316 -0.055355567 0.99485511
-1.0326074 0.79059571 -0.055878256 0.99480671
-1.0325 0.81128907 -0.0564196 0.99475652
-1.0323731 0.83239257 -0.056980629 0.9947046
-1.0321387 0.87591797 -0.058164597 0.99459481
-1.031875 0.92128903 -0.059436835 0.99447697
-1.0317481 0.9447363 -0.060108259 0.99441475
-7.939414 7.4555759 -0.46796653 0.95733172
-7.8618164 7.5708594 -0.46896166 0.95724279
-7.7838769 7.6866503 -0.47003841 0.95714682
-7.6360545 7.9294724 -0.47299865 0.95688277
-7.5871778 8.0795021 -0.47622356 0.9565953
-7.5376172 8.2316017 -0.47956786 0.95629728
-7.384541 8.7013674 -0.49035984 0.95533603
-7.331953 8.8627729 -0.49422535 0.95499206
-7.2784958 9.0267677 -0.49823114 0.9546358
-7.2114549 9.1773138 -0.5014959 0.95434523
-6.8605371 9.4427147 -0.50150365 0.95434463
-6.7413864 9.5282125 -0.50150627 0.95434439
-6.6211524 9.612236 -0.50150895 0.95434415
-6.3775682 9.7756739 -0.50151438 0.95434374
-6.1299901 9.9329882 -0.50151986 0.95434314
-5.2338476 10.433506 -0.50153983 0.95434147
-5.1023536 10.498545 -0.50154275 0.95434111
-4.9700489 10.561846 -0.50154573 0.95434099
-4.8369823 10.623564 -0.50154871 0.95434058
-4.703115 10.683535 -0.50155175 0.95434046
-4.5685058 10.741856 -0.50155473 0.95434022
-4.4332128 10.798506 -0.50155777 0.9543398
-4.2972069 10.853428 -0.50156081 0.95433956
-4.0231442 10.958135 -0.50156701 0.95433897
-3.7465429 11.055888 -0.5015732 0.95433849
-3.3272362 11.189472 -0.50158268 0.9543376
-3.1863866 11.230449 -0.50158584 0.95433736
-3.0450487 11.269707 -0.50158906 0.95433694
-2.6181836 11.376679 -0.50159872 0.95433611
-2.4750195 11.40871 -0.50160193 0.95433599
-2.0433104 11.49415 -0.50161171 0.95433497
-1.7538183 11.541982 -0.50161833 0.95433456
-1.4632422 11.582578 -0.50162488 0.9543339
-0.87945312 11.641797 -0.50163823 0.95433265
-0.44004881 11.666904 -0.50164825 0.95433176
-0.29340819 11.671572 -0.50165159 0.95433158
-9.7656248e-06 11.67542 -0.50165832 0.95433092
0.14668944 11.67455 -0.50166166 0.95433074
0.29337889 11.671924 -0.50166506 0.95433021
1.0553417 10.462431 -0.45182192 0.95877302
1.1036328 9.7167282 -0.42018446 0.96160364
1.1720996 9.2782812 -0.40182933 0.96324968
1.3936328 9.1716404 -0.39860198 0.96353942
1.6236523 9.1336422 -0.39859775 0.96353972
1.8526465 9.0898438 -0.39859366 0.96354014
1.9666991 9.0658197 -0.39859203 0.96354026
2.0804882 9.0403509 -0.39859042 0.96354038
2.193877 9.0134373 -0.39858887 0.96354067
2.5320411 8.9242573 -0.39858431 0.96354097
2.8665526 8.8223629 -0.39858004 0.96354145
2.9771678 8.7856636 -0.3985787 0.96354145
3.0873339 8.7474899 -0.39857736 0.96354169
3.4148145 8.6248627 -0.39857361 0.96354187
3.5229101 8.5812302 -0.39857239 0.96354204
3.7374218 8.4899416 -0.39857009 0.96354222
3.9494922 8.3931637 -0.39856124 0.96354306
4.0545607 8.3426857 -0.39855307 0.96354383
4.2627635 8.2378225 -0.39853668 0.96354526
4.7714353 7.9536033 -0.39852059 0.96354663
4.8710155 7.8930469 -0.39852294 0.96354651
4.9699607 7.8314257 -0.39853445 0.9635455
5.0681443 7.7686324 -0.39854735 0.96354425
5.2621093 7.6392965 -0.39857313 0.96354198
5.4526463 7.5049314 -0.39858633 0.96354061
5.5465331 7.4358301 -0.39858881 0.96354055
5.731709 7.294209 -0.39859438 0.96354008
6.0027537 7.0732126 -0.3986063 0.96353894
6.0912008 6.9972754 -0.39861032 0.96353871
6.1787109 6.9202442 -0.39861441 0.96353835
6.2652636 6.8421192 -0.39861861 0.96353793
6.3508301 6.7629395 -0.39862284 0.96353745
6.5188866 6.6013379 -0.39863166 0.9635368
6.68292 6.4356151 -0.39864177 0.96353579
6.9981933 6.092031 -0.39866248 0.96353394
7.1492577 5.9143748 -0.39867318 0.96353304
7.2958398 5.733027 -0.39868423 0.96353197
7.3674021 5.6409473 -0.39868981 0.96353155
1.2623047 0.89309567 -0.066440009 0.99382824
1.2624023 0.86958003 -0.065865822 0.99388146
1.2627149 0.80134761 -0.064259797 0.99403024
1.2628515 0.77932614 -0.063761137 0.99407631
1.3307323 0.70994139 -0.064805828 0.99397957
1.460791 0.70994139 -0.069785535 0.99351841
1.5592577 0.70993161 -0.073615342 0.99316406
1.6692578 0.70993161 -0.077941589 0.99276382
1.7931151 0.70994139 -0.082864225 0.99230844
1.861123 0.70994139 -0.085587271 0.99205661
1.9337305 0.70994139 -0.088510171 0.9917866
2.0189061 0.71254879 -0.091990583 0.99146491
2.0187402 0.68409181 -0.091585003 0.99150246
2.0186036 0.65586913 -0.091197886 0.99153823
11.154316 3.4699121 -0.50192237 0.95430744
11.197031 3.3294725 -0.5019235 0.9543075
11.277266 3.0470703 -0.50192559 0.95430708
11.314677 2.9051073 -0.50192666 0.95430702
11.350293 2.7627149 -0.50192761 0.95430702
11.416133 2.4766016 -0.5019294 0.95430702
11.446406 2.3329589 -0.50193024 0.95430684
11.570419 1.6096387 -0.50193387 0.95430636
11.622881 1.1724023 -0.50193554 0.9543063
11.636699 1.0262598 -0.50193596 0.9543063
11.648662 0.87995118 -0.50193644 0.95430636
11.673584 0.44029295 -0.50193745 0.95430624
11.680976 0.14678711 -0.50193793 0.95430619
11.678223 -0.29358399 -0.50193834 0.95430613
11.667177 -0.5869531 -0.5019384 0.95430607
11.658867 -0.73351562 -0.5019384 0.95430613
11.636747 -1.0262793 -0.50193822 0.95430613
11.6229 -1.1724218 -0.50193799 0.95430624
11.607245 -1.3183887 -0.50193781 0.95430624
11.570478 -1.6096581 -0.50193727 0.95430613
11.526338 -1.8999218 -0.50193661 0.9543063
11.501543 -2.0445995 -0.5019362 0.9543063
11.384296 -2.6199024 -0.50193411 0.9543063
11.350439 -2.7627442 -0.50193346 0.95430642
11.314815 -2.9051757 -0.5019328 0.95430648
11.277383 -3.0471094 -0.50193208 0.9543066
11.154443 -3.4699609 -0.5019297 0.9543069
2.0186133 -0.65589845 -0.09119793 0.99153817
2.0187597 -0.68410152 -0.091585159 0.99150234
2.0188866 -0.71256834 -0.091990471 0.99146491
1.9337401 -0.70996094 -0.088509902 0.99178654
1.7931055 -0.70996094 -0.082864419 0.99230844
1.6126952 -0.70996094 -0.075710639 0.99297011
1.4607617 -0.70996094 -0.069785424 0.99351847
1.2913769 -0.70996094 -0.063319512 0.99411726
1.2631054 -0.71523434 -0.062368851 0.9942053
1.2630078 -0.7362988 -0.062816545 0.99416387
1.2629199 -0.75766599 -0.063280523 0.9941209
1.2621777 -0.91706055 -0.067035332 0.9937731
5.3337693 -4.0839257 -0.28862625 0.97346288
7.0757127 -6.0049119 -0.39874926 0.96352619
6.9996972 -6.0933399 -0.39874762 0.96352625
6.7649608 -6.3527441 -0.39874253 0.96352673
6.6845798 -6.4372263 -0.3987408 0.96352684
6.6031055 -6.5206637 -0.39873901 0.96352714
6.437109 -6.6845016 -0.39873537 0.96352738
6.0045605 -7.0753512 -0.3987259 0.96352816
5.9151464 -7.1501856 -0.39872393 0.96352839
5.6413474 -7.367949 -0.39871791 0.96352893
5.3595409 -7.5752149 -0.39871168 0.96352953
4.8732128 -7.8965917 -0.39870086 0.96353042
4.7232809 -7.8733397 -0.39449969 0.96390778
5.1580954 -9.1095066 -0.44980174 0.95895362
4.617002 -8.398325 -0.41178533 0.96235639
4.5110741 -8.455615 -0.41178301 0.96235663
4.4044528 -8.5116158 -0.41178063 0.96235675
4.0804296 -8.6713915 -0.41177335 0.96235752
3.9711132 -8.7219772 -0.41177094 0.96235758
3.8611913 -8.7710981 -0.4117685 0.96235794
1.5243945 -3.9962206 -0.18377294 0.98302162
3.1894042 -9.0367279 -0.41175339 0.96235919
2.9612694 -9.1139107 -0.41174823 0.96235961
2.7312694 -9.1853027 -0.41174304 0.9623602
2.3830762 -9.2815523 -0.41173518 0.96236086
2.2662499 -9.3106985 -0.41173255 0.9623611
2.1490526 -9.3383694 -0.41172987 0.9623614
1.5752929 -8.2580709 -0.3612228 0.96690124
1.4677539 -8.2566452 -0.36032569 0.96698207
1.2541406 -8.2538185 -0.35871303 0.96712738
1.1480469 -8.2524023 -0.35799611 0.96719199
1.0423046 -8.2510061 -0.35733932 0.96725124
0.93699217 -8.2495995 -0.35673925 0.96730518
0.83199215 -8.2482033 -0.35620028 0.96735394
0.72728515 -8.2468166 -0.35571608 0.96739745
0.62285155 -8.245429 -0.35529017 0.96743584
0.51865232 -8.2440424 -0.35492229 0.96746904
0.41464841 -8.2426662 -0.35461012 0.96749711
0.049814451 -3.9660449 -0.17042229 0.98424536
-9.7656248e-06 -4.0001755 -0.17187439 0.98411208
-0.20703125 -8.2344046 -0.3539187 0.96755946
-0.3105664 -8.233037 -0.35400003 0.96755213
-0.41414061 -8.2316504 -0.35413626 0.96753985
-0.51783204 -8.2302732 -0.35432968 0.9675225
-0.62166011 -8.2288961 -0.35457814 0.96750003
-0.72564453 -8.227519 -0.35488322 0.96747249
-0.93419921 -8.2247458 -0.35566542 0.9674021
-1.0388769 -8.2233686 -0.35614136 0.96735907
-1.1438378 -8.2219725 -0.35667494 0.96731097
-1.2491308 -8.2205763 -0.35726759 0.96725756
-1.5673926 -8.2163477 -0.3593975 0.96706563
-1.9985254 -8.2106152 -0.36308616 0.96673334
-2.1077831 -8.2091694 -0.36416334 0.96663618
-2.2176952 -8.2077093 -0.36530766 0.9665333
-2.4397266 -8.2047701 -0.36778906 0.96630973
-2.6649413 -8.2017727 -0.3705413 0.96606201
-3.0981641 -7.8249803 -0.36160818 0.96686631
-3.3211913 -7.809072 -0.36461693 0.96659541
-3.43625 -7.8057032 -0.36644709 0.96643054
-3.9084375 -7.7913475 -0.37452853 0.96570295
-4.1525779 -7.7835741 -0.37905356 0.96529585
-4.2768555 -7.7795215 -0.38144478 0.96508092
-4.4026952 -7.7753611 -0.38392252 0.96485806
-4.6593552 -7.7667184 -0.38915551 0.96438766
-5.2607813 -7.6373143 -0.39846864 0.96355122
-5.6377635 -7.3631735 -0.39845973 0.963552
-5.729795 -7.2917089 -0.39845756 0.96355218
-6.0004392 -7.0704589 -0.39845112 0.96355283
-6.0888085 -6.994463 -0.398449 0.96355295
-6.262568 -6.83916 -0.39844489 0.96355337
-6.4323926 -6.6795406 -0.39844081 0.96355379
-1.0317676 -0.94477534 -0.060108069 0.99441457
-1.0318848 -0.92131835 -0.059436757 0.99447685
-1.0322655 -0.85395503 -0.057562064 0.9946506
-1.0882422 -0.70995116 -0.055828359 0.9948113
-1.1187109 -0.70997071 -0.056929395 0.99470925
-1.253828 -0.70997071 -0.061909065 0.99424773
-1.2914063 -0.70997071 -0.063319281 0.99411714
-1.3720019 -0.70996094 -0.066374399 0.99383414
-1.4153028 -0.70997071 -0.068031996 0.99368066
-1.5593066 -0.70996094 -0.07361526 0.99316382
-1.6127441 -0.70997071 -0.075710826 0.99296993
-1.7293457 -0.70996094 -0.080321118 0.9925434
-1.7844434 -0.70652342 -0.082462274 0.99234545
-1.7843847 -0.68068355 -0.082057573 0.99238288
-10.787578 -3.6555955 -0.48939848 0.95542157
-11.226708 -3.1853125 -0.50141716 0.95435226
-11.303164 -2.902158 -0.50141513 0.95435244
-11.338691 -2.7598925 -0.50141418 0.95435262
-11.37246 -2.6171777 -0.50141323 0.95435268
-11.462969 -2.1866796 -0.50141072 0.95435292
-11.489551 -2.0424707 -0.50140995 0.95435286
-11.537227 -1.7530664 -0.50140858 0.95435297
-11.558359 -1.6079785 -0.50140792 0.95435292
-11.577568 -1.4625781 -0.50140733 0.95435321
-11.595029 -1.3169824 -0.50140679 0.95435327
-11.610624 -1.1711816 -0.50140625 0.95435339
-11.636396 -0.87902343 -0.50140536 0.95435339
-11.654804 -0.58632809 -0.50140458 0.95435339
-11.66125 -0.43982422 -0.50140429 0.95435339
-11.668623 -0.14664063 -0.50140381 0.95435339
-10.961738 -0 -0.50141984 0.95705652
-10.958271 0.27545899 -0.5014196 0.95705658
-10.94791 0.55075192 -0.5014196 0.95705646
-10.906406 1.100127 -0.50141996 0.95705652
-10.891689 1.2370899 -0.50142014 0.95705664
-10.857168 1.5104198 -0.50142062 0.95705658
-10.81581 1.7827832 -0.50142133 0.95705646
-10.767617 2.054033 -0.50142211 0.9570564
-10.740976 2.1891797 -0.50142258 0.95705628
-10.507207 3.1243455 -0.50142694 0.95705599
-10.382031 3.5181639 -0.50142938 0.95705581
-1.7851758 0.65538085 -0.08698757 0.99241424
-1.7853222 0.70683593 -0.087832145 0.99234086
-1.7293359 0.70993161 -0.085510403 0.99254256
-1.6693066 0.70993161 -0.082976915 0.99276274
-1.6127245 0.70994139 -0.080602035 0.99296916
-1.2914063 0.70993161 -0.067410164 0.99411649
-1.2538378 0.70993161 -0.065908775 0.99424708
-1.2178808 0.70993161 -0.064482652 0.99437124
-1.1187109 0.70993161 -0.060607415 0.99470866
-1.0323144 0.71104491 -0.057338141 0.99499333
-1.0320898 0.74984372 -0.058355138 0.99490482
-1.0319922 0.76975584 -0.058891714 0.99485809
-1.0318848 0.79004884 -0.059447363 0.99480969
-1.031787 0.81072265 -0.06002266 0.9947595
-1.0316504 0.83181638 -0.060619202 0.99470758
-1.0315331 0.85333008 -0.061237447 0.99465376
-1.0312696 0.89770508 -0.062541887 0.99454021
-1.0311426 0.9206152 -0.063230172 0.99448025
-7.8612595 7.5703125 -0.49922386 0.95724064
-7.7833886 7.686152 -0.50037283 0.95714432
-7.7032714 7.8006735 -0.50148612 0.9570511
-7.5048728 7.9918456 -0.50149047 0.9570508
-7.0939841 8.359004 -0.50149947 0.95704991
-6.9884176 8.4475098 -0.5015018 0.95704979
-6.8817382 8.5347357 -0.50150412 0.95704949
-6.773994 8.6205568 -0.50150651 0.95704931
-6.6651363 8.7050295 -0.50150895 0.95704925
-6.4443555 8.869853 -0.50151384 0.95704877
-6.105547 9.1065912 -0.50152129 0.95704818
-5.8748631 9.2572365 -0.50152642 0.9570477
-5.7580762 9.3303709 -0.50152898 0.95704752
-5.402422 9.5409174 -0.50153691 0.95704681
-5.2821093 9.6081057 -0.50153959 0.95704663
-5.1610155 9.6738081 -0.50154233 0.95704627
-4.9162989 9.8005371 -0.50154775 0.95704591
-4.7928028 9.8616009 -0.50155056 0.95704561
-4.4177833 10.0354 -0.50155896 0.95704496
-4.164238 10.143339 -0.50156462 0.9570446
-3.6494238 10.33999 -0.50157624 0.95704359
-3.5192285 10.385098 -0.50157911 0.95704335
-3.3884668 10.428594 -0.50158209 0.95704299
-3.257158 10.4704 -0.50158501 0.95704281
-2.9930565 10.549091 -0.50159097 0.95704222
-2.8602734 10.585908 -0.50159401 0.95704204
-2.3248339 10.716504 -0.50160611 0.95704108
-2.1900098 10.744931 -0.50160921 0.95704085
-2.0548339 10.771689 -0.50161225 0.95704049
-1.9193262 10.796738 -0.50161535 0.95704019
-1.6474218 10.84167 -0.50162148 0.95703977
-1.5110644 10.861601 -0.50162458 0.95703942
-1.3744628 10.879785 -0.50162768 0.95703924
-1.1006249 10.911006 -0.50163394 0.95703876
-0.82609373 10.935361 -0.5016402 0.95703822
-0.55101562 10.952812 -0.50164646 0.95703769
-0.27560547 10.963349 -0.50165272 0.95703709
-0.13782226 10.966016 -0.50165594 0.95703685
0.4133496 10.959335 -0.50166851 0.9570359
0.68862301 10.945615 -0.50167483 0.95703542
0.826123 10.936192 -0.50167799 0.95703506
1.0545996 10.455235 -0.48067936 0.95879585
1.1657519 9.2279882 -0.42546934 0.96344084
1.3189257 8.680088 -0.40161023 0.96545517
1.5326855 8.6219921 -0.40057817 0.96554238
1.6328321 8.5597067 -0.39860606 0.96570909
1.8473926 8.5158882 -0.39860296 0.96570939
2.0608106 8.4667187 -0.39860004 0.96570963
2.1670508 8.4401464 -0.39859858 0.96570963
2.2729297 8.4121876 -0.39859718 0.96570987
2.3784473 8.3829584 -0.39859575 0.96570987
2.5883496 8.3204784 -0.39859307 0.96571016
2.7966113 8.2527637 -0.39859051 0.96571028
2.9000781 8.2169142 -0.39858925 0.96571052
3.1056249 8.1413765 -0.39858684 0.96571082
3.2076855 8.101738 -0.39858571 0.9657107
3.4101465 8.0182714 -0.39857164 0.96571195
3.5105565 7.9746385 -0.3985641 0.96571261
3.7097168 7.883584 -0.39854887 0.96571392
3.9065137 7.7875681 -0.39853355 0.96571523
4.1008396 7.6866403 -0.39851809 0.96571648
4.1970115 7.6343551 -0.39851037 0.96571714
4.2926173 7.5810156 -0.39851001 0.96571714
4.4818263 7.4708104 -0.39851448 0.96571684
4.6684079 7.3562598 -0.3985371 0.96571487
4.9428024 7.1757126 -0.3985734 0.96571183
5.0327244 7.1132517 -0.39858553 0.96571088
5.2975388 6.9189062 -0.39860824 0.96570897
5.3841014 6.8518357 -0.39861065 0.96570873
5.4698339 6.7836814 -0.3986133 0.96570849
5.5546875 6.7144823 -0.39861706 0.96570814
5.6386719 6.6442089 -0.39862081 0.9657079
5.8039942 6.5005469 -0.39862844 0.96570712
5.8852735 6.4271288 -0.39863232 0.96570694
6.2009959 6.1235838 -0.39864817 0.96570551
6.2775388 6.0452342 -0.39865226 0.96570516
6.3530469 5.9659371 -0.39865643 0.96570486
6.4275975 5.8857031 -0.39866111 0.96570444
6.501123 5.8045311 -0.39866596 0.96570408
6.8532128 5.3851953 -0.3986904 0.96570194
1.2612011 0.94075191 -0.071972884 0.99371958
1.2613379 0.91640621 -0.07131771 0.99377656
1.2614453 0.89248043 -0.070685118 0.99383169
1.2616894 0.84589839 -0.069485053 0.99393606
1.261914 0.80083007 -0.068366885 0.99403334
1.2620214 0.77882808 -0.067836948 0.99407941
1.2621094 0.75714844 -0.067325823 0.994124
1.2913672 0.70993161 -0.067410164 0.9941166
1.3719531 0.70993161 -0.070662424 0.9938336
1.5592577 0.70993161 -0.078371197 0.99316323
1.6126952 0.70994139 -0.080602109 0.99296927
1.6692578 0.70993161 -0.082977064 0.99276292
1.7292968 0.70993161 -0.085510477 0.99254274
1.9337305 0.70994139 -0.094228476 0.99178559
2.0208983 0.68481445 -0.09760502 0.99149239
2.0207422 0.65657222 -0.097191691 0.99152827
10.477099 3.2592382 -0.50190705 0.95701593
10.555742 2.9949315 -0.5019092 0.95701575
10.592568 2.8620605 -0.50191015 0.95701563
10.627744 2.7287304 -0.5019111 0.95701545
10.751435 2.1913085 -0.5019145 0.9570154
10.778154 2.0560448 -0.50191522 0.95701528
10.848085 1.6483593 -0.5019173 0.95701492
10.867929 1.511914 -0.50191784 0.95701498
10.886065 1.3752148 -0.50191844 0.95701498
10.902519 1.23833 -0.50191897 0.95701486
10.930195 0.96394527 -0.50191987 0.95701486
10.941464 0.82652342 -0.50192028 0.9570148
10.972705 -0 -0.50192189 0.9570145
10.971816 -0.13790038 -0.50192201 0.95701462
10.969267 -0.27575195 -0.50192207 0.95701444
10.951084 -0.68898433 -0.50192213 0.95701438
10.941524 -0.82655269 -0.50192207 0.95701456
10.930243 -0.9639746 -0.50192195 0.95701468
10.917265 -1.1012499 -0.50192177 0.95701468
10.867988 -1.5119433 -0.50192112 0.95701474
10.848145 -1.6483788 -0.50192082 0.95701468
10.778291 -2.0560741 -0.50191963 0.95701474
10.693095 -2.4608495 -0.50191808 0.95701492
10.592686 -2.862119 -0.50191623 0.95701516
10.477236 -3.2592871 -0.50191402 0.95701534
2.0208983 -0.68483394 -0.097605206 0.99149233
1.9337401 -0.70996094 -0.094227977 0.99178553
1.8610938 -0.70996094 -0.0911166 0.99205571
1.6126952 -0.70996094 -0.080601916 0.99296927
1.5592773 -0.70996094 -0.078371085 0.99316311
1.3307031 -0.70995116 -0.068992458 0.99397892
1.2913769 -0.70996094 -0.067410238 0.99411654
1.2623144 -0.71477538 -0.06635654 0.99420822
1.2621094 -0.75719726 -0.067325667 0.99412388
1.261914 -0.80085933 -0.068366736 0.99403328
1.2618066 -0.82321286 -0.06891609 0.99398547
1.2616796 -0.84593749 -0.069484942 0.993936
1.2614551 -0.89250976 -0.070685193 0.99383157
1.2611816 -0.94077146 -0.071973152 0.99371958
5.3312888 -4.0820117 -0.3071411 0.97347188
5.2733202 -4.1437402 -0.30677933 0.97350293
5.2780175 -4.3663573 -0.31333849 0.97294408
6.6461716 -5.6403809 -0.39873904 0.96569782
6.5747461 -5.7234278 -0.39873752 0.96569794
6.5023141 -5.8055954 -0.39873594 0.96569788
6.4287891 -5.886797 -0.39873436 0.96569818
6.3542871 -5.9671092 -0.39873272 0.9656983
6.124795 -6.2022653 -0.39872772 0.96569878
5.9669333 -6.3541698 -0.39872429 0.96569908
5.8053317 -6.5020409 -0.39872074 0.96569937
5.7231345 -6.5744529 -0.39871895 0.96569955
5.4711814 -6.7854099 -0.39871338 0.96569997
5.2114844 -6.9866891 -0.39870766 0.96570051
5.1232519 -7.0516109 -0.39870569 0.96570057
5.0342283 -7.1153808 -0.39870375 0.96570075
4.8537693 -7.2395802 -0.3986997 0.9657011
4.7623925 -7.2999511 -0.3986977 0.96570134
4.6702733 -7.3592086 -0.39869568 0.9657014
4.389492 -7.5298533 -0.39868942 0.96570206
4.1988478 -7.6377149 -0.39868519 0.96570235
4.1025 -7.6898241 -0.39868301 0.96570259
3.9079101 -7.7904196 -0.39867866 0.96570295
1.4865136 -4.0489745 -0.19729877 0.98287731
2.8889062 -8.5251703 -0.41174594 0.96459877
2.6737304 -8.5949554 -0.41174111 0.96459925
2.347832 -8.6894627 -0.41173375 0.96459991
2.2384374 -8.7182131 -0.41173124 0.96460015
2.128711 -8.7456398 -0.4117288 0.96460021
1.9082421 -8.7962494 -0.41172376 0.96460068
1.6833984 -8.2595167 -0.38558018 0.9668107
1.5015038 -7.8713574 -0.36654928 0.96842265
1.2972461 -7.8703122 -0.36486727 0.96856529
1.1957715 -7.8697166 -0.3641147 0.96862912
0.99398434 -7.8683691 -0.36278158 0.96874219
0.69460934 -7.8765817 -0.36169502 0.96883428
0.59560543 -7.8846579 -0.36169282 0.9688344
0.4964453 -7.8914452 -0.36169052 0.9688347
0.049814451 -3.9660449 -0.18143232 0.98424345
-0.19871093 -7.9042087 -0.36167464 0.96883601
-0.39726561 -7.8966208 -0.36167008 0.96883643
-0.89230466 -7.8558493 -0.36165869 0.96883738
-1.0908788 -7.8412595 -0.36213455 0.96879697
-1.1911914 -7.8393455 -0.36270872 0.96874827
-1.2918848 -7.8373728 -0.36334053 0.96869475
-1.3928808 -7.8353319 -0.36402869 0.96863639
-1.8011913 -7.8265719 -0.36736572 0.96835333
-1.9044628 -7.8241992 -0.36835077 0.96827006
-2.0083203 -7.8217869 -0.36939436 0.96818143
-2.1127539 -7.8192773 -0.37050164 0.96808767
-2.2178321 -7.8167186 -0.37167087 0.96798855
-2.3235741 -7.8140721 -0.3729049 0.96788406
-2.4299998 -7.8113475 -0.37420264 0.96777409
-1.348623 -3.9796972 -0.19221054 0.98331517
-1.3932812 -3.9476073 -0.19149047 0.98337716
-2.9741406 -7.7966013 -0.38170558 0.96713871
-3.0856445 -7.7934179 -0.38341698 0.96699381
-3.1981444 -7.7901168 -0.38520208 0.96684277
-3.4263475 -7.7832808 -0.38899955 0.96652138
-3.5421679 -7.7797265 -0.39101645 0.96635073
-4.1006346 -7.6862402 -0.39849526 0.96571821
-4.1968555 -7.6340137 -0.39849299 0.96571863
-4.3873243 -7.5260644 -0.39848852 0.96571892
-4.5750194 -7.4133396 -0.39848411 0.96571934
-4.6677928 -7.3552442 -0.39848191 0.96571946
-4.7598438 -7.2959666 -0.39847976 0.96571958
-4.9416013 -7.1739645 -0.3984755 0.96572006
-2.9260645 -3.922744 -0.22385488 0.98059487
-5.2957029 -6.9164743 -0.39846709 0.96572077
-5.7194042 -6.5701466 -0.39845702 0.96572155
-5.8015037 -6.4977341 -0.39845508 0.96572167
-5.9629102 -6.349834 -0.39845124 0.96572196
-6.2742867 -6.0420899 -0.39844376 0.96572262
-6.3496776 -5.9627442 -0.39844194 0.9657228
-1.0311328 -0.9206543 -0.063230477 0.99448019
-1.0312793 -0.89772457 -0.062541999 0.99454015
-1.0314159 -0.87530273 -0.061877973 0.99459791
-1.0315527 -0.85335934 -0.061237372 0.99465364
-1.0316504 -0.8318457 -0.060619123 0.99470752
-1.031875 -0.7900781 -0.059447136 0.99480963
-1.0320996 -0.74986327 -0.058355253 0.9949047
-1.0589453 -0.70997071 -0.058316421 0.99490798
-1.0882422 -0.70995116 -0.059435081 0.9948107
-1.1187109 -0.70997071 -0.060607299 0.9947086
-1.2178808 -0.70996094 -0.064482689 0.99437118
-1.253828 -0.70997071 -0.065908924 0.99424708
-1.2914063 -0.70997071 -0.067410007 0.99411643
-1.3307421 -0.70995116 -0.068992421 0.9939788
-1.4153028 -0.70997071 -0.072426908 0.99367988
-1.4608203 -0.70997071 -0.074293897 0.99351746
-1.6693066 -0.70997071 -0.082977064 0.99276268
-10.337197 -3.6484082 -0.50143802 0.95705503
-10.507353 -3.1243944 -0.50143361 0.95705539
-10.650957 -2.5924902 -0.50142974 0.95705581
-10.682714 -2.4584374 -0.50142884 0.95705575
-10.741045 -2.189209 -0.50142723 0.95705605
-10.767715 -2.0540526 -0.50142652 0.95705599
-10.792656 -1.918584 -0.50142574 0.95705611
-10.815898 -1.7828027 -0.50142509 0.95705616
-10.837431 -1.6467481 -0.50142443 0.95705622
-10.857265 -1.5104492 -0.50142384 0.95705622
-10.891768 -1.2371093 -0.50142276 0.95705628
-10.919385 -0.96300781 -0.50142187 0.9570564
-10.9479 -0.55077147 -0.5014208 0.95705652
-10.953955 -0.41314453 -0.50142044 0.95705652
-10.958291 -0.27547851 -0.50142026 0.95705646
-10.960898 -0.1377539 -0.50142002 0.95705646
-10.334745 -1.953125e-05 -0.50143421 0.95945716
-10.327412 0.38950196 -0.50143397 0.9594571
-10.32166 0.51925778 -0.50143391 0.95945728
-10.305371 0.77847654 -0.50143403 0.95945722
-10.282558 1.0371972 -0.50143427 0.95945722
-10.268721 1.1663378 -0.50143445 0.95945716
-10.236201 1.4240234 -0.50143492 0.95945704
-10.197167 1.68083 -0.50143558 0.9594571
-10.099873 2.1910448 -0.50143725 0.95945692
-10.04164 2.44416 -0.50143832 0.95945686
-10.010146 2.5701756 -0.50143892 0.9594568
-9.9770994 2.6957519 -0.50143951 0.95945668
-9.9424219 2.8209081 -0.50144017 0.95945674
-9.9062014 2.9456248 -0.50144088 0.95945668
-9.8684473 3.0698826 -0.5014416 0.9594565
-9.829072 3.1936619 -0.50144237 0.95945656
-9.7457514 3.4396582 -0.50144398 0.95945644
-1.7860448 0.65569335 -0.092312008 0.99240959
-1.7861133 0.68129879 -0.092750818 0.99237365
-1.7293359 0.70992184 -0.090700604 0.99254161
-1.6693066 0.70993161 -0.088013612 0.99276179
-1.5087304 0.70993161 -0.080901675 0.99334472
-1.2538378 0.70993161 -0.069909327 0.99424636
-1.0882519 0.70992184 -0.063042872 0.99481004
-1.0589257 0.70993161 -0.061856229 0.9949075
-1.0316211 0.71057618 -0.060778007 0.99499601
-1.0314063 0.74933594 -0.061855774 0.9949075
-1.0312988 0.76922852 -0.062423706 0.99486089
-1.0310742 0.810166 -0.063622095 0.99476242
-1.0309277 0.83123046 -0.064253688 0.99471062
-1.0306739 0.87465817 -0.065586887 0.99460113
-1.0305371 0.89704102 -0.066290319 0.99454343
-7.5345602 7.0753903 -0.50149077 0.95945275
-7.2626266 7.3544431 -0.50149667 0.95945221
-6.9803414 7.6230369 -0.50150287 0.95945179
-6.8840528 7.7101855 -0.50150496 0.95945156
-6.7866406 7.796123 -0.5015071 0.95945138
-6.5886326 7.9642773 -0.50151145 0.95945108
-6.386445 8.1274023 -0.50151592 0.95945078
-6.2838769 8.2070608 -0.50151819 0.95945048
-6.1802344 8.2853708 -0.50152045 0.95945054
-5.9701562 8.4381638 -0.5015251 0.95945001
-5.8636813 8.5125484 -0.50152749 0.95944983
-5.5387597 8.7276268 -0.5015347 0.95944929
-5.4286618 8.7965822 -0.50153714 0.95944911
-5.2059469 8.9303217 -0.50154209 0.9594487
-4.8657517 9.1203413 -0.50154966 0.95944804
-4.6350584 9.2398138 -0.50155485 0.95944768
-4.5186133 9.2973824 -0.50155741 0.95944744
-4.165029 9.4612398 -0.50156534 0.95944685
-3.8055174 9.6116505 -0.50157338 0.95944625
-2.9465528 9.9091892 -0.50159276 0.95944464
-2.5710254 10.013369 -0.50160122 0.95944399
-2.3186035 10.074951 -0.50160694 0.95944345
-2.1918163 10.103339 -0.5016098 0.95944333
-1.9372559 10.155352 -0.50161558 0.95944279
-1.8094921 10.178926 -0.5016185 0.95944268
-1.6814843 10.200918 -0.50162137 0.95944244
-1.5531445 10.221289 -0.50162435 0.95944226
-1.4245898 10.240068 -0.50162721 0.95944202
-1.2958105 10.257236 -0.50163019 0.95944172
-1.0376562 10.286689 -0.50163603 0.95944124
-0.64920896 10.318652 -0.50164491 0.95944059
-0.51949215 10.326045 -0.50164789 0.95944041
0.25981444 10.336191 -0.50166565 0.95943904
0.38965818 10.332207 -0.50166863 0.95943868
1.0961719 9.651103 -0.47127655 0.9618485
1.2319824 8.855752 -0.43381441 0.96482724
1.5424609 8.0859375 -0.39939928 0.96757174
2.2424023 7.9034276 -0.39860591 0.96763515
2.3415234 7.8746285 -0.39860466 0.96763515
2.4402831 7.8445215 -0.39860335 0.96763539
2.7341406 7.7468162 -0.39859459 0.96763605
2.8312304 7.711699 -0.39858764 0.96763664
2.9278612 7.6753807 -0.39858061 0.96763718
3.2148924 7.5591893 -0.39855945 0.96763879
3.3095605 7.5180273 -0.39855233 0.96763951
3.4037108 7.4757519 -0.39854515 0.96763992
3.5903807 7.387578 -0.39853075 0.96764112
3.6828613 7.3417187 -0.39852351 0.96764177
3.7747655 7.2947555 -0.39851624 0.96764225
3.866035 7.2466016 -0.39850894 0.9676429
3.9567676 7.1973534 -0.39850274 0.96764332
4.488203 6.8796582 -0.39855084 0.96763957
4.5744529 6.8229294 -0.39856228 0.96763855
4.6599512 6.7651072 -0.39857367 0.96763766
4.8287597 6.6462498 -0.3985965 0.96763581
4.9120312 6.5852051 -0.39860794 0.96763504
4.9945407 6.5231638 -0.39861938 0.96763402
5.076201 6.45999 -0.39862543 0.96763355
5.2370114 6.3304491 -0.39863014 0.96763319
5.3161716 6.2641697 -0.39863369 0.96763301
5.4720116 6.1287403 -0.3986409 0.96763235
5.624414 5.9893942 -0.3986482 0.96763176
5.6992774 5.9182911 -0.39865193 0.96763152
5.8463182 5.7733202 -0.39865944 0.96763086
5.9184666 5.6994433 -0.39866325 0.96763057
5.9896679 5.6246872 -0.39866707 0.96763027
6.1292577 5.4724998 -0.39867482 0.96762955
6.197588 5.3950977 -0.39867878 0.96762931
6.3313475 5.2377634 -0.39868751 0.9676286
6.3967576 5.1578321 -0.39869216 0.96762824
6.461113 5.0771093 -0.39869681 0.96762794
6.5245018 4.9955664 -0.39870146 0.96762753
1.2604687 0.91579098 -0.075595587 0.99377996
1.2607422 0.86841798 -0.074278563 0.99388802
1.2609863 0.82263672 -0.073051564 0.99398869
1.2610937 0.80031246 -0.07246986 0.99403638
1.2612011 0.77832031 -0.071908452 0.99408251
1.2613086 0.75666988 -0.071366765 0.99412692
1.2615039 0.71430665 -0.07034 0.9942112
1.2913672 0.70993161 -0.071501732 0.99411589
1.3307323 0.70994139 -0.073180236 0.99397802
1.3719531 0.70993161 -0.07495144 0.99383283
1.5087109 0.70993161 -0.080901869 0.99334478
1.5592577 0.70993161 -0.083128124 0.99316233
1.6126952 0.70994139 -0.085494459 0.99296838
1.6692578 0.70993161 -0.088013761 0.99276197
1.7931151 0.70994139 -0.093572386 0.99230647
1.9337305 0.70994139 -0.099947467 0.99178451
2.0231738 0.71405274 -0.10409924 0.99144477
2.022871 0.6572656 -0.10320003 0.99151826
9.9151363 2.9482911 -0.50189453 0.95942086
9.951416 2.8234766 -0.50189549 0.9594208
9.9861422 2.6982129 -0.50189644 0.95942068
10.019258 2.5725098 -0.50189734 0.95942068
10.109179 2.1930761 -0.50189978 0.95942032
10.135927 2.0658593 -0.50190055 0.95942038
10.184668 1.810498 -0.50190192 0.95942032
10.20665 1.682373 -0.50190258 0.95942014
10.226963 1.5539746 -0.50190318 0.95942026
10.245723 1.4253515 -0.50190377 0.95942008
10.27833 1.1674511 -0.50190473 0.95941997
10.292207 1.0381836 -0.5019052 0.95941991
10.304414 0.90876949 -0.50190562 0.95942003
10.315048 0.77919918 -0.50190598 0.95941991
10.337099 0.38987303 -0.50190693 0.95941991
10.341201 0.25996092 -0.50190717 0.95941979
10.343642 0.12998046 -0.50190735 0.95941985
10.341191 -0.25997069 -0.50190771 0.95941985
10.33711 -0.3898828 -0.50190777 0.95941985
10.324053 -0.64954102 -0.50190771 0.95941979
10.292227 -1.0381933 -0.50190741 0.95941985
10.206709 -1.682412 -0.50190616 0.95941991
10.184755 -1.8105273 -0.5019058 0.95941997
10.161181 -1.9383692 -0.50190538 0.95942003
10.109277 -2.1930957 -0.50190449 0.95941997
10.080889 -2.3199511 -0.50190395 0.95942008
9.9862499 -2.6982617 -0.50190216 0.9594202
9.9515333 -2.8235254 -0.50190157 0.95942032
2.022871 -0.65728515 -0.10320023 0.99151826
2.023037 -0.68555665 -0.10363933 0.99148226
1.9337401 -0.70996094 -0.099947736 0.99178445
1.8610938 -0.70996094 -0.096647143 0.9920547
1.6692773 -0.70997071 -0.088013723 0.99276185
1.6126952 -0.70995116 -0.085494421 0.99296838
1.5086817 -0.70996094 -0.080901451 0.99334484
1.4607617 -0.70996094 -0.078803368 0.99351686
1.4152441 -0.70996094 -0.076823309 0.99367929
1.3307031 -0.70995116 -0.07318031 0.99397814
1.2613183 -0.7566992 -0.071366802 0.99412686
1.2609863 -0.82267576 -0.073051602 0.99398857
1.2607226 -0.86845702 -0.07427837 0.99388796
1.2604687 -0.91581053 -0.075595699 0.99377996
5.3287692 -4.0800877 -0.32563871 0.97348082
5.2770214 -4.3655372 -0.33229518 0.97294563
6.198369 -5.3957715 -0.39872855 0.96762532
5.9905176 -5.6255078 -0.39872405 0.96762568
5.8472166 -5.7742186 -0.39872092 0.96762592
5.7741699 -5.8472266 -0.39871931 0.96762604
5.7002149 -5.9192967 -0.39871773 0.96762615
5.1580076 -6.3970118 -0.39870578 0.96762705
4.9955664 -6.5245309 -0.39870223 0.96762741
4.9131641 -6.5867672 -0.39870039 0.96762753
4.7460546 -6.708086 -0.39869669 0.96762782
4.6613574 -6.767158 -0.39869484 0.967628
4.4029298 -6.9379492 -0.39868912 0.96762842
4.3153906 -6.9926953 -0.39868715 0.96762854
3.9585059 -7.2005272 -0.3986792 0.96762925
3.4984765 -7.4346972 -0.39866892 0.96763003
3.3105078 -7.520195 -0.39866474 0.96763033
1.649453 -4.0178223 -0.21072957 0.98275703
1.5767773 -3.9825683 -0.20782696 0.98299271
2.7345312 -7.7479587 -0.39865175 0.96763134
2.6369433 -7.7816405 -0.3986496 0.96763164
2.4405272 -7.8453808 -0.39864516 0.96763194
2.3162498 -8.1637306 -0.41173247 0.96658719
2.2134764 -8.1921577 -0.41173014 0.96658731
2.1103418 -8.2192678 -0.41172782 0.96658754
1.9030859 -8.2696238 -0.41172314 0.9665879
1.7990234 -8.2928267 -0.41172075 0.96658814
1.3953906 -7.849658 -0.38682997 0.96857595
1.1925683 -7.8486032 -0.38517943 0.96870792
0.99132812 -7.8473239 -0.383773 0.96882045
0.5925293 -7.8441305 -0.38167495 0.96898812
0.39449218 -7.8421774 -0.3809787 0.96904391
0.15083008 -3.9991796 -0.19417448 0.98410082
0.099648438 -3.9645312 -0.19241668 0.98424363
0.049814451 -3.9660449 -0.19244434 0.98424137
-9.7656248e-06 -4.0001755 -0.19408506 0.98410809
-0.29549804 -7.8336229 -0.38035163 0.96909398
-0.39402342 -7.8321676 -0.38049206 0.96908283
-0.49267578 -7.8306637 -0.38068897 0.96906704
-0.59143555 -7.8290915 -0.38094351 0.96904665
-0.69035155 -7.8274512 -0.38125673 0.96902168
-0.78942382 -7.8257713 -0.38162711 0.96899194
-0.98820311 -7.822207 -0.38254413 0.96891862
-1.2884375 -7.8163962 -0.3843627 0.96877319
-1.3891406 -7.8143258 -0.38508964 0.96871513
-1.4902734 -7.8121972 -0.38587654 0.96865213
-1.5918067 -7.8099899 -0.38672584 0.9685843
-1.6938183 -7.8077145 -0.3876358 0.96851152
-1.8992871 -7.8029685 -0.38964754 0.96835071
-2.317168 -7.7926073 -0.39445254 0.96796674
-2.5301757 -7.7869625 -0.39726025 0.96774238
-1.348623 -3.9796972 -0.2038772 0.98331302
-1.3932812 -3.9476073 -0.20311348 0.98337495
-3.0236523 -7.6368456 -0.39851984 0.96764189
-3.1193554 -7.5982127 -0.39851764 0.96764207
-3.2145801 -7.5583591 -0.39851537 0.96764225
-3.3092675 -7.517334 -0.39851317 0.96764243
-3.4971094 -7.4316993 -0.39850882 0.96764284
-3.5901952 -7.3871484 -0.39850661 0.9676429
-3.6827245 -7.3413963 -0.39850447 0.96764314
-4.1363087 -7.0954881 -0.39849383 0.96764398
-4.2251267 -7.0429001 -0.39849174 0.96764421
-4.3132911 -6.9892282 -0.39848968 0.96764427
-4.5735936 -6.8215818 -0.39848348 0.96764475
-4.658916 -6.7635446 -0.39848152 0.96764493
-2.8308008 -4.0010056 -0.23780084 0.98056364
-2.9260645 -3.922744 -0.23744768 0.98059237
-5.0742674 -6.4575 -0.39847168 0.96764576
-5.2348828 -6.3278809 -0.39846787 0.96764606
-5.3139648 -6.2615724 -0.39846596 0.96764624
-5.6217675 -5.9865623 -0.39845863 0.96764678
-5.7704101 -5.8433495 -0.39845511 0.96764696
-5.8433104 -5.7703419 -0.39845335 0.96764725
-5.9153614 -5.6964355 -0.3984516 0.96764731
-1.0302343 -0.94336909 -0.067775346 0.99442142
-1.0303711 -0.91997069 -0.067019232 0.99448353
-1.0306641 -0.87469727 -0.065587007 0.99460107
-1.0308007 -0.85275388 -0.064908445 0.9946568
-1.0309374 -0.83125973 -0.064253807 0.99471051
-1.0310546 -0.81019527 -0.063621901 0.99476242
-1.0311816 -0.78953123 -0.063012235 0.99481249
-1.0315235 -0.72981441 -0.061307333 0.99495244
-1.0316015 -0.71060544 -0.060778007 0.99499601
-1.0589453 -0.70997071 -0.061856229 0.99490732
-1.0882422 -0.70995116 -0.06304279 0.99480999
-1.1187109 -0.70997071 -0.064286038 0.99470788
-1.15042 -0.70997071 -0.065589868 0.99460083
-1.1834472 -0.70997071 -0.066958614 0.99448848
-1.253828 -0.70997071 -0.06990917 0.9942463
-1.2914063 -0.70997071 -0.071501963 0.99411565
-1.3307421 -0.70995116 -0.073180504 0.99397796
-1.3720019 -0.70996094 -0.074951589 0.99383259
-1.4153028 -0.70997071 -0.076823041 0.99367905
-1.4608008 -0.70996094 -0.07880348 0.99351674
-1.5593066 -0.70996094 -0.083128124 0.9931621
-1.6127441 -0.70997071 -0.085494384 0.99296814
-1.7293457 -0.70996094 -0.090700909 0.99254155
-9.7458982 -3.4397168 -0.50145131 0.95945579
-9.7883205 -3.3169823 -0.50145024 0.95945591
-9.8685446 -3.0699413 -0.50144809 0.95945609
-9.9771967 -2.695791 -0.50144523 0.95945626
-10.010263 -2.5701952 -0.5014444 0.95945638
-10.09998 -2.1910741 -0.5014419 0.9594565
-10.175332 -1.8088379 -0.50143975 0.95945674
-10.217548 -1.5525683 -0.50143856 0.9594568
-10.25333 -1.2953027 -0.50143743 0.95945686
-10.282617 -1.0372168 -0.50143647 0.95945698
-10.294824 -0.90791988 -0.50143605 0.95945704
-10.3054 -0.77848631 -0.5014357 0.9594571
-9.7746773 0.1228418 -0.5014469 0.96160334
-9.7723627 0.24566406 -0.50144684 0.96160334
-9.7129784 1.1032031 -0.50144726 0.96160346
-9.6983595 1.2251855 -0.5014475 0.9616034
-9.6453419 1.5898438 -0.50144827 0.96160322
-9.6245899 1.7109179 -0.50144863 0.96160328
-9.6023531 1.8317382 -0.50144899 0.96160316
-9.5785742 1.9522656 -0.50144941 0.96160316
-9.5532904 2.0724707 -0.50144988 0.96160316
-9.5265331 2.1923535 -0.50145036 0.96160299
-9.4982033 2.3119042 -0.5014509 0.96160311
-9.4043455 2.668252 -0.50145268 0.96160299
-9.3700972 2.7862206 -0.50145334 0.96160293
-9.334424 2.9037499 -0.501454 0.96160263
-9.2971678 3.0208299 -0.50145471 0.96160269
-1.7868944 0.65601563 -0.09764263 0.99240494
-1.7293359 0.70993161 -0.095892332 0.9925406
-1.6127245 0.70994139 -0.090388179 0.99296731
-1.5593066 0.70993161 -0.08788643 0.9931612
-1.5087304 0.70993161 -0.085532568 0.99334383
-1.4608105 0.70993161 -0.083314128 0.99351585
-1.415293 0.70994139 -0.08122059 0.99367827
-1.2914063 0.70993161 -0.075594671 0.99411494
-1.2538378 0.70993161 -0.073911019 0.99424553
-1.1834375 0.70994139 -0.070791475 0.99448776
-1.1504296 0.70993161 -0.069344327 0.99460012
-1.1187109 0.70993161 -0.067965813 0.99470723
-1.0882519 0.70992184 -0.066651344 0.99480933
-1.030957 0.71009761 -0.064214513 0.99499857
-1.0307226 0.74882811 -0.065352172 0.99491018
-1.0304785 0.78896481 -0.066573411 0.99481535
-1.0303515 0.80959958 -0.067217059 0.99476534
-1.0301952 0.83064449 -0.067884021 0.99471366
-1.0299317 0.87404293 -0.06929142 0.99460423
-1.0297754 0.89640623 -0.070034064 0.99454665
-1.0296386 0.91927731 -0.070803829 0.99448681
-1.0294628 0.94263667 -0.071601793 0.99442494
-7.1267676 6.6924706 -0.50150049 0.96159929
-7.0421286 6.7815137 -0.50150234 0.96159923
-6.8695407 6.956377 -0.50150609 0.96159899
-6.781611 7.0421872 -0.501508 0.96159881
-6.6025586 7.2104297 -0.50151193 0.96159852
-6.4193258 7.3741503 -0.50151592 0.96159816
-6.3261523 7.454248 -0.50151801 0.96159816
-6.0408006 7.68749 -0.50152433 0.96159756
-5.8457518 7.8369532 -0.50152862 0.9615972
-5.4446874 8.1208887 -0.50153744 0.96159667
-5.238955 8.2552242 -0.50154203 0.96159631
-5.1348534 8.3204784 -0.50154436 0.96159595
-4.9241505 8.4469433 -0.50154907 0.96159577
-4.817656 8.5081835 -0.50155145 0.96159559
-4.7103906 8.5680952 -0.50155377 0.96159536
-4.4935937 8.6838379 -0.50155866 0.96159512
-4.273994 8.7941208 -0.50156355 0.96159464
-3.9395604 8.9491014 -0.50157106 0.9615941
-3.8268456 8.9979391 -0.50157356 0.96159387
-3.5995312 9.0913572 -0.50157869 0.96159351
-3.485039 9.1359177 -0.50158125 0.96159333
-3.3699706 9.1790428 -0.50158387 0.96159309
-3.2543652 9.2207127 -0.50158644 0.96159291
-3.0216601 9.2996674 -0.50159168 0.96159256
-2.9045899 9.3369627 -0.50159431 0.96159232
-2.6690526 9.4070892 -0.50159967 0.96159202
-2.5506444 9.4399414 -0.50160229 0.96159178
-2.1930859 9.5295315 -0.5016104 0.96159112
-1.832373 9.605566 -0.50161856 0.96159053
-1.5904394 9.6486912 -0.50162405 0.96159011
-1.4690722 9.6679688 -0.50162679 0.96158987
-1.1036719 9.71665 -0.50163513 0.96158922
-0.85915035 9.741396 -0.50164068 0.96158892
-0.7366699 9.7514744 -0.50164354 0.96158868
-0.61407226 9.7600193 -0.50164628 0.96158844
-0.49138671 9.7670116 -0.50164908 0.96158826
-0.36861327 9.7724705 -0.50165188 0.96158808
0.24576171 9.7766304 -0.50166595 0.96158695
0.61405271 9.7605562 -0.50167441 0.96158642
0.85916013 9.7421389 -0.50168002 0.96158606
0.98152339 9.7306538 -0.50168282 0.9615857
1.0958496 9.6481638 -0.49810165 0.9618547
1.3096582 8.6191015 -0.44720542 0.96568459
1.4639941 8.2356148 -0.42908317 0.9670521
1.5376464 8.0606833 -0.42094243 0.96766698
1.6076074 7.8876562 -0.41292933 0.96827263
1.6749706 7.7209959 -0.40527496 0.96885151
1.8377539 7.5503025 -0.39861494 0.96935552
2.0269432 7.5017967 -0.39861622 0.96935529
2.5860252 7.327168 -0.39858177 0.96935791
3.0407617 7.1497169 -0.39854854 0.96936047
3.1303027 7.1108203 -0.39854178 0.96936101
3.3078809 7.0296774 -0.39852825 0.96936202
3.3958983 6.9874215 -0.39852142 0.96936256
3.4833789 6.9440918 -0.39851454 0.96936303
3.5703125 6.8996286 -0.39850768 0.96936363
3.6566796 6.8541307 -0.39850077 0.96936405
3.7424803 6.8075876 -0.39849821 0.96936429
3.8277538 6.7600684 -0.39850023 0.96936405
3.9124999 6.7115622 -0.39850914 0.96936345
3.9966404 6.6620603 -0.39851993 0.96936256
4.1630077 6.5598731 -0.39854148 0.96936101
4.4076562 6.398828 -0.39857391 0.9693585
4.5673141 6.286377 -0.39859548 0.96935689
4.8013868 6.1102633 -0.39862788 0.96935445
4.8779197 6.0496092 -0.39863867 0.96935368
4.9536228 5.9879198 -0.39864302 0.96935326
5.0284958 5.9252148 -0.39864531 0.96935314
5.1025782 5.8615918 -0.39864856 0.96935302
5.1759081 5.7970896 -0.39865196 0.96935254
5.2483888 5.7316208 -0.39865541 0.96935236
5.3200583 5.6652732 -0.3986589 0.96935207
5.4608202 5.5298924 -0.39866596 0.96935159
5.5299315 5.4608788 -0.39866951 0.96935129
5.7975388 5.1763282 -0.39868408 0.96935016
5.9258885 5.0290918 -0.39869148 0.96934968
5.9886813 4.9542871 -0.3986952 0.96934932
6.0505271 4.8786716 -0.39869899 0.96934909
6.1713281 4.7251658 -0.39870697 0.96934849
1.2594824 0.93947262 -0.080601767 0.99372637
1.2596191 0.91516602 -0.079868622 0.9937833
1.2599121 0.86786133 -0.078478314 0.99389112
1.2600293 0.84478515 -0.077818982 0.99394238
1.2601659 0.82210934 -0.077182576 0.99399173
1.2602832 0.79979491 -0.076568484 0.99403942
1.2603906 0.77782226 -0.075975798 0.99408543
1.2607226 0.71385741 -0.074319765 0.994214
1.2913672 0.70993161 -0.07559444 0.99411505
1.3307323 0.70994139 -0.077369079 0.99397719
1.3719531 0.70993161 -0.079241753 0.99383199
1.4152539 0.70993161 -0.081220664 0.99367839
1.460791 0.70994139 -0.083314054 0.99351591
1.6692969 0.70994139 -0.09305153 0.99276084
1.7292968 0.70993161 -0.095892407 0.99254072
1.7931151 0.70994139 -0.09892837 0.99230546
1.861123 0.70994139 -0.10217937 0.99205351
1.9337305 0.70994139 -0.1056686 0.99178338
2.0241797 0.71441406 -0.11011241 0.99143934
2.0241895 0.68592775 -0.10963501 0.9914763
9.3422947 2.9062109 -0.50188148 0.96157086
9.3781052 2.7886035 -0.50188243 0.96157074
9.4124117 2.6705468 -0.50188333 0.96157068
9.4452143 2.5520508 -0.50188422 0.96157074
9.5347748 2.1942675 -0.50188661 0.96157044
9.5615911 2.0742774 -0.50188738 0.96157044
9.5869236 1.9539551 -0.5018881 0.96157038
9.6730471 1.4698242 -0.5018906 0.96157014
9.706953 1.2262695 -0.50189161 0.96157002
9.721611 1.1041894 -0.50189209 0.96156996
9.7347164 0.98195308 -0.50189251 0.96156996
9.7462788 0.85955077 -0.50189292 0.96157002
9.7563381 0.73701173 -0.50189328 0.96156991
9.7648239 0.61434567 -0.50189358 0.96156996
9.7717867 0.49159178 -0.50189388 0.96156991
9.7771969 0.36875975 -0.50189412 0.96156985
9.7841406 -9.7656248e-06 -0.50189465 0.96156991
9.7833595 -0.12295898 -0.50189477 0.96156991
9.7717676 -0.49160156 -0.50189495 0.96156996
9.7563381 -0.73702145 -0.50189483 0.96156991
9.734726 -0.98196286 -0.50189459 0.96156996
