# .PCD v0.7 - Point Cloud Data file format
VERSION 0.7
FIELDS x y z intensity
SIZE 4 4 4 4
TYPE F F F F
COUNT 1 1 1 1
WIDTH 1086
HEIGHT 1
VIEWPOINT 0 0 0 1 0 0 0
POINTS 1086
DATA ascii
-4.6225877 4.6810255 -0.50217527 0.97395355
-4.5033689 4.7955956 -0.50216311 0.9739542
-4.1290236 5.1208105 -0.50212485 0.97395617
-4.0642772 5.1722364 -0.50211823 0.97395653
-3.9989355 5.2228222 -0.50211155 0.97395682
-3.7312596 5.4168458 -0.50208431 0.97395825
-3.5938671 5.5087399 -0.50207031 0.97395897
-3.5242968 5.5533886 -0.50206321 0.97395933
-3.4541795 5.597158 -0.50205606 0.97395974
-3.3123631 5.6820407 -0.50204164 0.9739604
-3.2406347 5.7231345 -0.50203431 0.97396076
-3.1684179 5.7633104 -0.50202698 0.97396117
-3.0225098 5.8409276 -0.50201213 0.97396195
-2.8746581 5.9148631 -0.50199705 0.97396278
-2.7250488 5.9850583 -0.50198185 0.9739635
-2.4974022 6.0832324 -0.50195873 0.97396469
-2.4207129 6.1140528 -0.50195092 0.97396511
-2.343662 6.1438866 -0.50194305 0.97396553
-2.2662401 6.1727438 -0.50193524 0.97396594
-2.188457 6.2006445 -0.50192732 0.9739663
-2.110332 6.2275586 -0.50191939 0.97396672
-1.794668 6.3253222 -0.50188732 0.97396833
-1.7150292 6.3472657 -0.50187927 0.97396874
-1.5549219 6.388154 -0.501863 0.97396958
-1.4744922 6.4070992 -0.50185484 0.97397
-1.3129785 6.4419236 -0.50183851 0.97397077
-0.98756832 6.4993358 -0.50180548 0.97397244
-0.65973634 6.5403028 -0.50177228 0.97397423
-0.41273436 6.560195 -0.50174725 0.97397548
-0.082607418 6.572207 -0.50171381 0.97397721
0.16516601 6.5703125 -0.50168878 0.97397852
0.33019531 6.5638766 -0.50167203 0.97397935
0.49504882 6.5532908 -0.5016554 0.97398019
0.74164063 6.5296383 -0.50163049 0.9739815
0.82363278 6.5197067 -0.50162214 0.97398186
0.9054687 6.5087204 -0.50161391 0.97398239
0.98716795 6.496748 -0.50160563 0.97398269
1.0687305 6.4837012 -0.5015974 0.97398317
1.1500781 6.4696484 -0.50158918 0.97398365
1.3518652 6.2315526 -0.48673582 0.9747442
1.4155663 6.1510448 -0.48180014 0.9749971
1.5392187 5.9948144 -0.47244325 0.97547662
1.8506933 5.6958494 -0.45715532 0.97626072
1.9154199 5.6523438 -0.45555869 0.97634262
2.1700976 5.4810743 -0.44998401 0.97662866
2.2328515 5.4388671 -0.44878852 0.97669011
2.2954395 5.3972168 -0.44769573 0.97674614
2.4198241 5.3147459 -0.44575992 0.9768455
2.4816113 5.2737107 -0.4448992 0.97688973
2.5431542 5.2327929 -0.4441078 0.97693032
2.6044922 5.1919923 -0.44338828 0.97696728
2.6656151 5.151289 -0.44273725 0.97700065
2.7265527 5.1106544 -0.44215548 0.97703058
2.7872949 5.0700879 -0.44164166 0.97705698
2.8479102 5.0295701 -0.44119582 0.97707993
2.9084082 4.989121 -0.44081774 0.97709924
2.9687891 4.9486914 -0.44050807 0.97711515
3.1496778 4.8279004 -0.44001812 0.97714037
3.2098925 4.7876368 -0.43998855 0.9771418
3.4945507 4.6848927 -0.44613841 0.97682607
3.7939551 4.5860839 -0.45433256 0.97640556
4.0270114 4.5102735 -0.46153963 0.97603571
4.1063671 4.4844432 -0.46414119 0.97590232
4.3501072 4.405127 -0.47257727 0.97546983
4.7791309 4.2670407 -0.48905218 0.97462553
4.8866501 4.2538962 -0.49454588 0.97434419
4.9966407 4.240449 -0.50024402 0.97405249
5.0591211 4.1852832 -0.50119603 0.97400379
5.1626172 4.0567384 -0.50118566 0.97400427
5.2131443 3.9915037 -0.50118065 0.97400451
1.2524414 0.86271483 -0.11608788 0.99391758
1.2526464 0.83984375 -0.11511821 0.99396819
1.2528125 0.81733394 -0.11418247 0.99401712
1.2533495 0.75190431 -0.11156593 0.9941538
1.2534863 0.73072267 -0.11075409 0.9941963
1.2538183 0.70996094 -0.10998447 0.99423641
1.3307519 0.70994139 -0.11513042 0.99396759
1.3719629 0.70995116 -0.11791717 0.9938221
1.5087304 0.70995116 -0.12727818 0.99333322
1.5592773 0.70995116 -0.13078091 0.99315047
1.6693164 0.70996094 -0.1384673 0.99274921
1.7931249 0.70996094 -0.1472124 0.99229318
1.8611327 0.70996094 -0.15205029 0.99204087
2.0235741 0.71419919 -0.16380291 0.99142832
2.0235741 0.68572265 -0.1630931 0.99146533
6.3150487 1.7917285 -0.50107145 0.97401011
6.3370118 1.7122265 -0.50106931 0.97401029
6.3969822 1.4721484 -0.50106353 0.97401053
6.4319239 1.3109375 -0.50106019 0.97401065
6.4478707 1.23 -0.50105864 0.97401077
6.4627929 1.1488769 -0.50105721 0.97401083
6.4766989 1.0675683 -0.5010559 0.97401094
6.5014844 0.90446287 -0.50105351 0.97401094
6.5123043 0.82270503 -0.50105256 0.97401106
6.5220995 0.74080074 -0.5010516 0.97401112
6.5308785 0.65876949 -0.50105083 0.97401124
6.5386524 0.57666016 -0.50105011 0.97401118
6.545361 0.49444336 -0.50104952 0.97401124
6.5593162 0.2473828 -0.50104839 0.97401136
6.5639939 -9.7656248e-06 -0.50104821 0.9740113
6.5593457 -0.24739258 -0.50104892 0.97401124
6.5510545 -0.41215819 -0.50104994 0.97401124
6.538662 -0.57666016 -0.50105137 0.97401112
6.5308981 -0.65877926 -0.50105226 0.97401112
6.522119 -0.74080074 -0.50105321 0.97401106
6.5014744 -0.90446287 -0.50105548 0.97401094
6.462822 -1.1488769 -0.50105965 0.97401071
6.415 -1.3916699 -0.50106472 0.97401041
6.3970509 -1.4721777 -0.50106663 0.97401023
6.3580565 -1.6324804 -0.5010708 0.97401017
6.3150878 -1.7917578 -0.50107527 0.97400993
6.2681251 -1.9499023 -0.50108021 0.97400969
2.0235741 -0.65750974 -0.16241509 0.99150068
2.0235741 -0.6857422 -0.16309303 0.99146533
2.0235741 -0.71419919 -0.16380268 0.99142832
1.9337597 -0.70994139 -0.1572417 0.99177021
1.6692969 -0.70994139 -0.13846684 0.99274933
1.6127148 -0.70995116 -0.13450347 0.99295616
1.5592968 -0.70995116 -0.13078049 0.99315035
1.3307226 -0.70994139 -0.11513016 0.99396771
1.2913965 -0.70994139 -0.11248954 0.99410558
1.2537988 -0.70994139 -0.10998424 0.99423653
1.2535058 -0.73072267 -0.11075424 0.99419624
1.2533495 -0.75188476 -0.11156586 0.99415386
1.2531836 -0.77336913 -0.11240704 0.99410987
1.2526269 -0.83983397 -0.11511852 0.99396825
1.2524414 -0.86269528 -0.11608776 0.99391764
5.0739746 -3.8849609 -0.48780227 0.97468954
4.9416504 -3.8831053 -0.47973341 0.97510296
4.68958 -3.8795507 -0.46458387 0.97587961
4.569375 -3.877871 -0.45746931 0.97624463
4.3396482 -3.8746386 -0.44407809 0.97693181
4.2296872 -3.8730857 -0.43777424 0.97725564
4.0188184 -3.8701172 -0.42588508 0.97786647
3.9176269 -3.8686817 -0.42027655 0.97815466
3.8208301 -3.8691406 -0.41507933 0.97842199
3.5478516 -3.8745117 -0.40101257 0.97914547
3.4258494 -3.9354491 -0.39828014 0.97928607
3.3761718 -3.9782324 -0.39828521 0.97928584
3.2239842 -4.1028223 -0.39830074 0.97928494
3.1199412 -4.1826463 -0.39831138 0.97928447
3.0671582 -4.2215819 -0.39831671 0.97928423
2.9601953 -4.297451 -0.39832768 0.97928357
2.9059668 -4.3343554 -0.39833319 0.97928345
2.8513281 -4.3705955 -0.39833876 0.97928309
2.6846972 -4.4751463 -0.39835569 0.9792822
2.5714648 -4.541338 -0.39836723 0.9792816
2.5142381 -4.5733495 -0.3983731 0.97928131
2.3985643 -4.6352148 -0.39838484 0.97928077
2.3401756 -4.6650681 -0.3983908 0.97928041
2.2222753 -4.7225485 -0.39840278 0.97927982
1.7989843 -4.9000583 -0.39844581 0.97927755
1.675332 -4.9438672 -0.39845836 0.97927696
1.4878808 -5.0037303 -0.39847741 0.979276
1.4249219 -5.022109 -0.39848381 0.97927564
1.3616992 -5.0397167 -0.39849022 0.97927529
1.2982812 -5.0565038 -0.39849666 0.97927499
1.0426464 -5.1156931 -0.39852256 0.97927362
0.97831053 -5.1284766 -0.39852911 0.97927326
0.91379881 -5.1404395 -0.39853564 0.97927296
0.78437501 -5.161953 -0.39854875 0.97927225
0.71944332 -5.1714745 -0.39855537 0.97927195
0.65440428 -5.1802149 -0.39856192 0.97927153
0.58929688 -5.1880956 -0.39856854 0.97927129
0.52404296 -5.1951857 -0.39857513 0.97927094
0.30085936 -3.9827733 -0.30488169 0.98410475
0.25094727 -3.9888768 -0.30508322 0.98409432
0.13124999 -5.2204294 -0.39861494 0.97926885
0.065644532 -5.2217479 -0.39862159 0.97926849
-0.19685547 -5.2187891 -0.39864814 0.97926718
-0.32794923 -5.2123728 -0.39866138 0.97926646
-0.58944333 -5.1896482 -0.39868781 0.97926515
-0.65463865 -5.1819239 -0.39869443 0.9792648
-0.84950191 -5.1538181 -0.39871413 0.97926378
-0.9142285 -5.1428318 -0.39872065 0.97926342
-1.1074609 -5.1049509 -0.39874014 0.97926247
-1.171543 -5.0907226 -0.39874664 0.97926211
-1.3626367 -5.0431833 -0.39876595 0.97926116
-1.1803417 -3.9694922 -0.3161127 0.98352396
-1.2326465 -3.9624705 -0.31676257 0.98349041
-1.7388183 -4.9266891 -0.39880386 0.97925919
-1.8006347 -4.9045215 -0.39881012 0.97925884
-2.0449121 -4.8081641 -0.39883471 0.97925752
-2.2247753 -4.7278905 -0.39885283 0.97925663
-2.3429687 -4.6706247 -0.39886475 0.97925597
-2.401494 -4.6408887 -0.39887062 0.97925568
-2.4596679 -4.6104102 -0.39887649 0.97925538
-2.6883886 -4.4812694 -0.3988995 0.97925413
-2.7444725 -4.4471874 -0.3989051 0.97925395
-2.6567383 -3.9626074 -0.364167 0.98104328
-2.7158399 -3.9427049 -0.3654438 0.9809773
-3.0185351 -4.266377 -0.39893267 0.97925252
-3.1248729 -4.1892872 -0.39894336 0.97925198
-3.2806835 -4.0687013 -0.39895901 0.97925109
-3.3315916 -4.0271974 -0.39896408 0.97925091
-3.3819823 -3.9850683 -0.39896914 0.97925061
-3.4318261 -3.9423046 -0.39897415 0.97925037
-3.4811425 -3.8989062 -0.3989791 0.97925013
-3.5781054 -3.810293 -0.39898884 0.9792496
-3.7226269 -3.7696874 -0.40440917 0.97897071
-3.9999707 -3.7562206 -0.41884986 0.97822797
-1.0228808 -0.91325194 -0.10467105 0.99451417
-1.023086 -0.89060545 -0.10354042 0.9945733
-1.0233203 -0.86844724 -0.10244972 0.99463022
-1.0235156 -0.8467285 -0.10139732 0.99468529
-1.0241015 -0.78413087 -0.098455347 0.99483907
-1.0243067 -0.76404297 -0.097542115 0.99488676
-1.0244628 -0.74433595 -0.096660383 0.99493289
-1.0589257 -0.70995116 -0.097314715 0.99489862
-1.4152637 -0.70994139 -0.12086143 0.99366832
-1.4607812 -0.70994139 -0.12397682 0.99350566
-1.5592773 -0.70993161 -0.13078068 0.99315047
-1.6692871 -0.70995116 -0.1384671 0.99274933
-1.7293164 -0.70994139 -0.14269443 0.9925288
-1.7948828 -0.71063477 -0.14735501 0.99228567
-1.7946386 -0.65888673 -0.14593059 0.99236
-6.2589355 -2.0336523 -0.50234807 0.97394472
-6.3945017 -1.556455 -0.50236124 0.97394407
-6.4135742 -1.4759862 -0.50236309 0.97394401
-6.4316602 -1.3952734 -0.50236481 0.97394383
-6.4487009 -1.3143555 -0.50236648 0.97394377
-6.4797363 -1.1518848 -0.50236946 0.97394359
-6.5066504 -0.98868161 -0.50237203 0.97394353
-6.5627246 -0.49576172 -0.50237715 0.97394323
-6.5767574 -0.24805664 -0.50237828 0.97394317
-6.5809178 -0.082695313 -0.50237852 0.97394317
-6.3487887 0.079785153 -0.50235486 0.97484523
-6.3472848 0.15955077 -0.50235462 0.97484523
-6.3447852 0.2393164 -0.50235432 0.97484523
-6.3312402 0.47828123 -0.50235265 0.97484529
-6.3247166 0.55778319 -0.50235194 0.97484535
-6.3171973 0.63721681 -0.50235111 0.97484541
-6.308672 0.71654296 -0.50235015 0.97484547
-6.2991505 0.79577148 -0.50234908 0.97484553
-6.2886329 0.87484372 -0.50234795 0.97484565
-6.2646384 1.0326074 -0.50234532 0.97484571
-6.2511621 1.1112403 -0.50234389 0.97484577
-6.2366891 1.189707 -0.50234234 0.97484583
-6.2212305 1.2679882 -0.50234067 0.97484589
-6.1873436 1.4239062 -0.5023371 0.97484612
-6.1689548 1.5015429 -0.50233513 0.97484612
-6.062324 1.8858984 -0.50232399 0.97484684
-6.0381346 1.9619043 -0.50232142 0.9748469
-6.0129881 2.0376172 -0.5023188 0.97484696
-1.7293261 0.70995116 -0.14790462 0.99252713
-1.5592871 0.70995116 -0.1355561 0.99314892
-1.5087206 0.70995116 -0.13192543 0.99333185
-1.3719727 0.70995116 -0.12222286 0.99382073
-1.2913965 0.70995116 -0.11659721 0.99410433
-1.15042 0.70996094 -0.1069569 0.99459034
-1.0882324 0.70994139 -0.10280307 0.99479997
-1.0237695 0.74382812 -0.1001223 0.99493521
-1.0235938 0.76351559 -0.1010353 0.9948892
-1.0227929 0.84614253 -0.1050256 0.99468786
-1.0225781 0.86783201 -0.10611488 0.9946329
-1.0221094 0.91260737 -0.10841377 0.99451697
-1.0218848 0.93573242 -0.10962688 0.99445575
-4.5717578 4.4025974 -0.50217044 0.97485441
-4.45959 4.5159764 -0.50215894 0.97485495
-4.3445997 4.6265235 -0.5021472 0.97485548
-4.2860546 4.6806836 -0.50214124 0.97485584
-4.1064649 4.8387208 -0.50212288 0.97485673
-3.9210155 4.9898925 -0.50210392 0.97485763
-3.8579686 5.0387011 -0.50209755 0.97485793
-3.7942772 5.086709 -0.50209099 0.97485828
-3.73 5.1339254 -0.50208443 0.97485864
-3.6651659 5.1803122 -0.50207788 0.97485894
-3.5997264 5.2258983 -0.5020712 0.97485924
-3.5337207 5.2706442 -0.50206447 0.9748596
-3.4671874 5.3145704 -0.50205767 0.97485989
-3.4000683 5.3576269 -0.50205082 0.97486031
-3.195586 5.4817481 -0.50203001 0.97486132
-3.126416 5.5213962 -0.50202298 0.97486162
-2.986582 5.5980759 -0.50200874 0.97486234
-2.7013867 5.7407126 -0.50197977 0.97486383
-2.6289842 5.7741308 -0.50197238 0.97486418
-2.4829688 5.838203 -0.50195754 0.9748649
-2.2610838 5.9273629 -0.50193495 0.97486603
-2.1113379 5.9821286 -0.50191975 0.97486681
-2.0359764 6.0081053 -0.50191212 0.97486711
-1.8842968 6.0571775 -0.50189668 0.97486794
-1.8079883 6.0802832 -0.50188893 0.9748683
-1.5001074 6.1630564 -0.5018577 0.97486991
-1.422539 6.1813278 -0.50184983 0.97487026
-1.3447266 6.1986032 -0.50184196 0.97487068
-1.1885059 6.2302537 -0.50182611 0.9748714
-0.95278317 6.2703419 -0.50180221 0.97487253
-0.79487306 6.2920995 -0.50178617 0.97487336
-0.71575195 6.3014746 -0.50177819 0.97487378
-0.63648438 6.3098826 -0.50177014 0.97487414
-0.55712891 6.317275 -0.50176209 0.97487456
-0.47770506 6.3236914 -0.50175405 0.97487491
-0.31864256 6.3334861 -0.50173795 0.97487575
-0.15935546 6.3392673 -0.5017218 0.97487664
0.079667971 6.340488 -0.50169766 0.97487772
0.23896484 6.3362794 -0.50168157 0.97487855
0.39812499 6.3280563 -0.50166547 0.97487938
0.4776074 6.3224707 -0.50165743 0.97487968
0.55701172 6.3158593 -0.50164932 0.97488016
0.63631833 6.3082614 -0.50164133 0.97488052
0.71551758 6.2996583 -0.50163335 0.97488093
0.79462892 6.2900977 -0.50162536 0.97488123
1.2660546 6.2117677 -0.50157773 0.97488368
1.4155663 6.1510448 -0.49939132 0.9749918
1.4779882 6.0721288 -0.49445304 0.975236
1.539121 5.9945016 -0.4896687 0.97547269
1.5991309 5.9183688 -0.48505187 0.97570103
1.7854102 5.7393651 -0.4755629 0.97617072
1.8506249 5.6955957 -0.47382635 0.97625673
2.1069336 5.523252 -0.46771425 0.97655934
2.1700096 5.4808302 -0.46639451 0.97662473
2.4191601 5.3132615 -0.46190786 0.97684699
2.4807618 5.2718458 -0.46098021 0.97689289
2.6032128 5.1894627 -0.45935425 0.97697347
2.66416 5.1484861 -0.45865294 0.97700816
2.8459864 5.0261621 -0.45699531 0.97709036
2.9063475 4.9855661 -0.45658863 0.97711051
2.9665821 4.9450293 -0.45625389 0.97712708
3.0267675 4.9045606 -0.45599306 0.97713995
3.0868652 4.8641014 -0.45580375 0.97714943
3.2751758 4.7547364 -0.45680472 0.97709978
3.420244 4.7075391 -0.46038634 0.97692233
3.5676661 4.6595798 -0.46431941 0.97672749
3.6423438 4.6352634 -0.46642208 0.97662342
3.7938573 4.5859861 -0.47091037 0.97640109
3.9483984 4.5357032 -0.4757883 0.97615951
4.0268946 4.5101657 -0.47838038 0.97603124
4.1062498 4.4843259 -0.48107582 0.97589785
4.2677732 4.431787 -0.48679337 0.97561491
4.3499999 4.4050097 -0.48981962 0.97546524
4.5176463 4.3504686 -0.49622458 0.97514832
4.6722364 4.2783203 -0.50123507 0.97490066
4.7781739 4.1594629 -0.50122446 0.9749012
4.830029 4.0990624 -0.50121927 0.97490138
4.8810935 4.0379977 -0.50121421 0.97490168
4.980947 3.9139745 -0.50120419 0.97490215
5.0296679 3.8510547 -0.50119936 0.97490239
1.2514062 0.88539058 -0.12128647 0.99386793
1.251621 0.86213863 -0.120247 0.99392033
1.2517968 0.83927733 -0.11924343 0.99397099
1.2521875 0.79466796 -0.11733951 0.99406689
1.2538183 0.70996094 -0.1140002 0.99423522
1.2913769 0.70995116 -0.11659718 0.99410439
1.4152637 0.70996094 -0.12527469 0.99366695
1.5592773 0.70995116 -0.13555615 0.99314898
1.9337499 0.70994139 -0.16298389 0.99176848
2.0235252 0.6857031 -0.16904205 0.99146372
2.0235252 0.6574707 -0.16833934 0.99149913
6.0475683 1.8812988 -0.50109845 0.97490728
6.0928712 1.7287109 -0.50109398 0.97490758
6.134336 1.5750195 -0.50108999 0.97490776
6.1536231 1.4978125 -0.50108814 0.97490788
6.2210155 1.1867285 -0.50108165 0.97490823
6.2727442 0.87263668 -0.5010767 0.97490841
6.2831836 0.79374999 -0.50107574 0.97490853
6.3011327 0.63560545 -0.50107408 0.97490853
6.3086033 0.55635738 -0.50107342 0.97490865
6.3151073 0.47705078 -0.50107288 0.97490859
6.3325682 0.079580076 -0.50107151 0.97490871
6.3325586 -0.079589844 -0.50107169 0.97490877
6.325078 -0.31820312 -0.5010727 0.97490865
6.3205857 -0.39765623 -0.50107324 0.97490865
6.3151073 -0.47705078 -0.50107384 0.97490859
6.3011422 -0.63560545 -0.50107545 0.97490853
6.2832127 -0.79374999 -0.50107747 0.97490841
6.2354298 -1.1084667 -0.5010826 0.97490823
6.2056737 -1.2648242 -0.50108582 0.97490799
6.1719532 -1.4203711 -0.50108939 0.97490788
6.1536522 -1.4978319 -0.5010913 0.97490776
6.1343651 -1.5750488 -0.50109333 0.97490764
6.114121 -1.6520116 -0.50109547 0.97490752
6.0928903 -1.7287207 -0.50109768 0.97490746
2.0235155 -0.71417969 -0.16977783 0.99142677
1.861123 -0.70995116 -0.15760139 0.9920392
1.7931347 -0.70993161 -0.15258682 0.99229151
1.7293066 -0.70994139 -0.14790408 0.99252725
1.6692969 -0.70995116 -0.14352253 0.99274778
1.6127148 -0.70995116 -0.13941437 0.99295467
1.5592968 -0.70994139 -0.13555568 0.99314892
1.4607714 -0.70993161 -0.12850361 0.99350429
1.3719727 -0.70994139 -0.12222251 0.99382079
1.3307226 -0.70994139 -0.1193338 0.9939664
1.2913965 -0.70994139 -0.11659698 0.99410433
1.2537988 -0.70994139 -0.11399998 0.99423528
1.2527149 -0.73026365 -0.11472572 0.99419868
1.252207 -0.79465818 -0.11733944 0.99406683
1.2518262 -0.83927733 -0.11924354 0.99397087
1.2516016 -0.86213863 -0.12024707 0.99392039
1.2512109 -0.90904295 -0.12236317 0.99381357
1.2509863 -0.93312496 -0.1234785 0.99375737
5.0297751 -3.8511131 -0.50120759 0.97490191
4.569375 -3.877871 -0.47417226 0.97623956
4.4527926 -3.8762305 -0.46709216 0.97659016
4.3396482 -3.8746386 -0.46029219 0.97692692
4.2296872 -3.8730857 -0.45375818 0.97725075
4.1228027 -3.8715723 -0.44747606 0.97756219
4.0188279 -3.8701172 -0.44143492 0.9778617
3.9176171 -3.868701 -0.43562216 0.97814995
3.8190136 -3.8673046 -0.43002844 0.97842753
3.7228808 -3.8659375 -0.42464155 0.97869492
3.6291308 -3.8646288 -0.41945395 0.97895235
3.5395899 -3.8654883 -0.41468504 0.9791891
3.3678906 -3.8688476 -0.40583557 0.97962868
3.2846777 -3.87041 -0.40163875 0.97983724
3.2089159 -3.8788867 -0.39830202 0.980003
3.1599414 -3.9189551 -0.39830703 0.98000282
3.1104784 -3.9583983 -0.39831206 0.98000258
3.0100975 -4.0354199 -0.39832231 0.98000211
2.9078319 -4.1098828 -0.39833274 0.98000157
2.8559766 -4.1461816 -0.39833805 0.98000127
2.8036914 -4.181787 -0.39834335 0.98000103
2.6441894 -4.284658 -0.3983596 0.98000026
2.5901854 -4.3176074 -0.39836514 0.97999996
2.4809375 -4.3814549 -0.39837623 0.97999936
2.3141308 -4.4720411 -0.39839321 0.97999853
2.0866308 -4.5829296 -0.39841637 0.9799974
2.0289159 -4.6088672 -0.39842224 0.97999704
1.9124999 -4.6585155 -0.39843407 0.97999656
1.8538378 -4.6822658 -0.39844 0.9799962
1.7948828 -4.7052636 -0.39844602 0.97999591
1.7356445 -4.7275 -0.39845201 0.97999567
1.5562891 -4.7897849 -0.39847025 0.97999477
1.4960351 -4.8090429 -0.39847636 0.97999442
0.81923825 -4.9701657 -0.39854503 0.97999102
0.69412106 -4.989336 -0.39855772 0.97999036
0.50557613 -5.012197 -0.3985768 0.97998941
0.35396484 -4.0137401 -0.31879744 0.98396236
0.30085936 -3.9827733 -0.31601387 0.98410136
0.20279296 -4.0309277 -0.31932896 0.98393589
0.18989258 -5.0344629 -0.39860877 0.9799878
-0.063320309 -5.0379686 -0.3986344 0.97998655
-0.12661132 -5.0368552 -0.39864081 0.97998619
-0.18989258 -5.0349412 -0.39864722 0.97998595
-0.25315428 -5.0322361 -0.39865363 0.97998559
-0.31636718 -5.0287304 -0.39866 0.97998536
-0.37956053 -5.0244431 -0.39866641 0.979985
-0.56868166 -5.0068064 -0.39868551 0.97998405
-0.63156247 -4.9993458 -0.39869189 0.97998375
-0.69433594 -4.9911132 -0.39869827 0.97998333
-0.75702149 -4.9820604 -0.39870456 0.97998309
-0.81960934 -4.9722362 -0.39871088 0.97998273
-0.88200194 -4.9616013 -0.39871719 0.9799825
-0.94431639 -4.9502149 -0.39872348 0.97998214
-1.0064551 -4.9380369 -0.39872977 0.97998184
-1.0684472 -4.9250779 -0.39873603 0.97998154
-1.1360644 -4.0040431 -0.32930273 0.98343831
-1.5575292 -4.7935839 -0.39878538 0.97997904
-1.6775488 -4.7530661 -0.39879748 0.97997844
-1.737168 -4.7316895 -0.39880347 0.97997814
-1.7965235 -4.7095509 -0.39880946 0.97997785
-1.9143554 -4.6630468 -0.39882135 0.97997731
-1.9728417 -4.638701 -0.39882722 0.97997695
-2.0309863 -4.6136231 -0.39883307 0.97997665
-2.1463768 -4.5612497 -0.39884475 0.97997606
-2.2035449 -4.5339842 -0.39885047 0.97997582
-2.2603807 -4.5059862 -0.39885619 0.97997558
-2.4287012 -4.4177928 -0.39887312 0.97997469
-2.5390234 -4.3554688 -0.39888427 0.97997421
-2.5935936 -4.3232908 -0.39888972 0.97997385
-2.7014842 -4.256875 -0.39890057 0.97997332
-2.6223731 -4.019629 -0.3797287 0.98092663
-2.6567383 -3.9625781 -0.37746435 0.98103935
-2.9121094 -4.1159668 -0.39892173 0.9799723
-2.9636328 -4.0791016 -0.39892691 0.97997206
-3.1290135 -3.9820018 -0.40068695 0.97988456
-3.1650195 -3.9252441 -0.39894715 0.97997105
-3.2141211 -3.8852148 -0.39895207 0.97997081
-3.3726561 -3.7774119 -0.40065941 0.97988594
-3.5396972 -3.7693748 -0.40911663 0.97946572
-3.6258495 -3.7651854 -0.41357291 0.97924435
-3.7138672 -3.7608299 -0.41818964 0.97901517
-3.9021094 -3.757705 -0.42861286 0.97849774
-1.0221386 -0.91258788 -0.10841388 0.99451697
-1.0223633 -0.88998044 -0.10724369 0.99457598
-1.0225977 -0.86782223 -0.10611473 0.9946329
-1.0227832 -0.84612304 -0.10502556 0.99468791
-1.0230078 -0.82486326 -0.10397431 0.9947409
-1.0234082 -0.78359371 -0.10198043 0.99484146
-1.023584 -0.76352537 -0.101035 0.9948892
-1.0237597 -0.74380857 -0.10012241 0.99493527
-1.0239648 -0.72447264 -0.099241406 0.99497962
-1.0306739 -0.70996094 -0.099019736 0.99499083
-1.1187011 -0.70994139 -0.10483028 0.99469769
-1.1834179 -0.70995116 -0.10918835 0.99447787
-1.2178515 -0.70994139 -0.11153373 0.99435967
-1.2537988 -0.70995116 -0.11400013 0.99423528
-1.3307323 -0.70994139 -0.11933395 0.99396634
-1.5087109 -0.70994139 -0.131925 0.99333191
-1.5592773 -0.70993161 -0.13555561 0.99314904
-1.6692871 -0.70995116 -0.14352272 0.99274778
-1.7293164 -0.70994139 -0.14790455 0.99252719
-1.7955078 -0.65918946 -0.15133198 0.99235469
-5.9869237 -2.1130273 -0.50232059 0.9748469
-6.0130272 -2.0376465 -0.50232315 0.97484678
-6.0623827 -1.8858984 -0.50232798 0.9748466
-6.1079297 -1.7329687 -0.50233245 0.97484636
-6.2047949 -1.3460644 -0.50234181 0.97484589
-6.2212596 -1.267998 -0.50234342 0.97484577
-6.2367282 -1.1897266 -0.50234491 0.97484565
-6.2511816 -1.1112499 -0.50234628 0.97484565
-6.2646775 -1.032627 -0.50234753 0.97484559
-6.2771583 -0.95380855 -0.50234872 0.97484559
-6.2886815 -0.87486327 -0.50234979 0.97484547
-6.2991796 -0.79577148 -0.50235081 0.97484541
-6.308672 -0.71656251 -0.5023517 0.97484547
-6.3312497 -0.47827148 -0.50235367 0.97484529
-6.3367381 -0.39868164 -0.50235415 0.97484535
-6.1285057 0.23114257 -0.50233239 0.97568685
-6.115459 0.46196288 -0.50233084 0.97568679
-6.1018848 0.61549801 -0.50232929 0.97568691
-6.074326 0.84502929 -0.50232625 0.97568703
-6.0632129 0.92130858 -0.50232506 0.97568703
-6.0241113 1.1491406 -0.50232089 0.97568733
-6.0091796 1.2247655 -0.50231928 0.97568738
-5.9764547 1.3753809 -0.50231582 0.97568756
-5.9586716 1.450371 -0.50231397 0.97568768
-5.939961 1.5251172 -0.50231194 0.97568774
-5.8557224 1.8216113 -0.50230312 0.97568822
-5.8323436 1.8950487 -0.50230068 0.97568828
-5.8080564 1.9681737 -0.50229818 0.97568834
-5.7828126 2.0409765 -0.50229549 0.97568858
-1.7964844 0.68530273 -0.15749095 0.99231291
-1.7966211 0.71132809 -0.15827309 0.99227488
-1.7293261 0.70995116 -0.15311703 0.99252552
-1.6692969 0.70996094 -0.14858124 0.99274611
-1.6127148 0.70996094 -0.14432815 0.99295306
-1.5087206 0.70995116 -0.13657477 0.99333036
-1.3307226 0.70996094 -0.12353973 0.99396503
-1.2178417 0.70996094 -0.11546447 0.99435842
-1.1834179 0.70995116 -0.11303684 0.99447668
-1.15042 0.70996094 -0.11072627 0.99458915
-1.0882324 0.70994139 -0.1064262 0.99479884
-1.0306739 0.70995116 -0.10250984 0.99498969
-1.0227149 0.78304684 -0.10550231 0.99484384
-1.0225097 0.80347657 -0.10651474 0.99479449
-1.0213867 0.9119336 -0.11215302 0.99451971
-1.0211426 0.93504882 -0.11340671 0.99445856
-4.4159961 4.2525973 -0.50215483 0.97569525
-4.3076463 4.3621192 -0.50214374 0.97569579
-4.2524414 4.4158592 -0.50213808 0.97569609
-4.1965818 4.4688869 -0.50213242 0.97569633
-4.1400485 4.5212302 -0.50212663 0.97569656
-4.0828419 4.5728221 -0.50212079 0.97569698
-3.9665527 4.6738868 -0.50210893 0.97569746
-3.9074609 4.7233105 -0.50210285 0.97569776
-3.787451 4.8198829 -0.50209063 0.97569829
-3.7265234 4.8670411 -0.50208443 0.97569865
-3.5403223 5.003828 -0.50206542 0.97569954
-3.477119 5.0478711 -0.50205898 0.97569984
-3.4133496 5.0911036 -0.50205249 0.97570014
-3.1530762 5.2558885 -0.50202596 0.97570145
-3.0199218 5.3333302 -0.50201237 0.97570205
-2.8848534 5.4073825 -0.50199866 0.97570276
-2.7479687 5.4780173 -0.50198472 0.97570342
-2.6788769 5.5120506 -0.50197768 0.97570372
-2.539453 5.5774608 -0.50196356 0.97570443
-2.4691405 5.6088572 -0.50195634 0.97570473
-2.0394335 5.7783985 -0.50191271 0.97570688
-1.8935254 5.8276658 -0.50189787 0.97570759
-1.8201367 5.8509083 -0.50189042 0.97570789
-1.7464257 5.8732324 -0.50188297 0.97570831
-1.5982422 5.9150877 -0.50186789 0.97570902
-1.5237499 5.9345994 -0.50186032 0.97570944
-1.2989355 5.9875584 -0.50183755 0.97571045
-1.1480273 6.0181251 -0.50182223 0.97571117
-1.072295 6.0319824 -0.50181454 0.97571152
-0.84413081 6.067832 -0.50179142 0.97571266
-0.76781249 6.0778809 -0.50178373 0.97571295
-0.69135743 6.0869431 -0.50177598 0.97571337
-0.61482418 6.0950489 -0.50176817 0.97571379
-0.30778319 6.1178708 -0.50173706 0.97571522
-0.23086913 6.1211524 -0.50172931 0.97571564
-0.15393554 6.1234765 -0.5017215 0.97571599
-0.076982424 6.1248436 -0.50171375 0.97571635
0.15392578 6.1230955 -0.50169033 0.97571748
0.30774415 6.1171093 -0.50167477 0.97571826
0.53803712 6.1008787 -0.50165153 0.97571933
0.6146484 6.0935545 -0.50164378 0.97571969
0.91999024 6.0545897 -0.5016129 0.97572118
1.0718163 6.0293846 -0.50159758 0.9757219
1.1474999 6.0153317 -0.50158989 0.97572231
1.2982519 5.9844141 -0.5015747 0.97572303
1.37333 5.9675488 -0.50156713 0.97572339
1.597207 5.9112692 -0.50154454 0.97572446
1.7196288 5.7831345 -0.49418381 0.97607642
1.8505175 5.6952734 -0.4904969 0.97625279
1.979502 5.6086326 -0.48716518 0.97641218
2.1068358 5.5230174 -0.4841764 0.97655517
2.1699121 5.4805956 -0.48280954 0.97662055
2.2950878 5.3964062 -0.4803251 0.97673953
2.3572071 5.3546286 -0.47920549 0.97679311
2.4190526 5.3130369 -0.47816548 0.97684282
2.6031151 5.1892381 -0.47552222 0.97696936
2.6640527 5.148242 -0.47479659 0.97700411
2.7247851 5.1073828 -0.47414786 0.97703516
3.0266016 4.9043455 -0.47204244 0.97713596
3.1467869 4.8234863 -0.47172552 0.97715116
3.2068357 4.7830858 -0.47167873 0.97715342
3.3473437 4.731113 -0.47470042 0.9770087
3.420166 4.7074313 -0.47659957 0.97691774
3.6422656 4.6351657 -0.48284769 0.97661877
3.870625 4.5608692 -0.48996741 0.97627813
4.0267773 4.5100389 -0.49522689 0.97602665
4.1864257 4.4581056 -0.5009203 0.97575432
4.3545017 4.3001366 -0.50126719 0.97573769
4.4081345 4.2450099 -0.50126183 0.97573805
4.5648632 4.0757322 -0.50124615 0.97573876
4.763701 3.8410742 -0.50122631 0.97573966
4.8115625 3.780869 -0.50122148 0.97573984
4.8586326 3.7200682 -0.50121683 0.97574013
1.250127 0.9325 -0.12774357 0.99376023
1.2509961 0.83874023 -0.12336487 0.99397349
1.2515723 0.7723828 -0.12046341 0.99411482
1.2538183 0.70996094 -0.11801792 0.99423391
1.2913769 0.70995116 -0.12070613 0.99410307
1.3307519 0.70994139 -0.12353984 0.99396497
1.4152637 0.70996094 -0.12968968 0.99366552
1.5087304 0.70995116 -0.13657482 0.9933303
1.6693164 0.70996094 -0.14858119 0.99274606
1.7293164 0.70995116 -0.15311728 0.99252552
1.7931347 0.70995116 -0.15796466 0.99228978
1.8611425 0.70995116 -0.16315624 0.99203736
2.0234277 0.71415037 -0.17575458 0.99142522
2.0234277 0.68568361 -0.17499335 0.99146223
5.8856931 1.6699219 -0.50111508 0.97574502
5.9061813 1.5958301 -0.50111306 0.97574514
5.9257617 1.5214844 -0.50111115 0.97574514
5.9443846 1.446875 -0.50110936 0.97574526
5.9946485 1.2217969 -0.50110447 0.97574544
6.0095019 1.146377 -0.5011031 0.97574556
6.0233884 1.0707617 -0.50110173 0.97574574
6.048418 0.91905272 -0.50109941 0.97574568
6.0695605 0.76675779 -0.50109738 0.9757458
6.094111 0.53746092 -0.50109518 0.97574598
6.1100292 0.30737305 -0.5010938 0.97574598
6.1134081 0.23057617 -0.50109357 0.97574598
6.1158204 0.15374023 -0.50109339 0.97574604
6.1172361 -0.076884761 -0.50109345 0.97574615
6.1158299 -0.15375 -0.50109369 0.97574598
6.1133885 -0.23059569 -0.50109404 0.9757461
6.1056933 -0.38414061 -0.50109494 0.97574598
6.1004004 -0.46083006 -0.50109559 0.97574592
6.094121 -0.53745115 -0.50109631 0.97574592
6.0787206 -0.69043946 -0.50109804 0.9757458
6.048418 -0.9190625 -0.50110132 0.97574562
6.0363965 -0.99499023 -0.50110263 0.97574562
6.023447 -1.0707812 -0.50110406 0.9757455
6.009541 -1.146377 -0.50110555 0.97574544
5.9946775 -1.2218066 -0.5011071 0.97574532
5.9788575 -1.2970507 -0.50110877 0.97574532
5.9258008 -1.5214844 -0.50111437 0.97574502
5.8857422 -1.6699414 -0.5011186 0.97574478
5.8643064 -1.7437793 -0.50112087 0.97574472
2.0234375 -0.68569332 -0.17499325 0.99146217
2.0234473 -0.71414059 -0.17575462 0.99142516
1.9337597 -0.70994139 -0.16872685 0.99176663
1.861123 -0.70995116 -0.16315529 0.99203742
1.7931445 -0.70994139 -0.15796402 0.99228978
1.7293066 -0.70994139 -0.15311664 0.99252558
1.6127148 -0.70995116 -0.14432746 0.99295306
1.4152539 -0.70994139 -0.12968929 0.99366558
1.2537988 -0.70994139 -0.11801769 0.99423403
1.251748 -0.75093746 -0.11956287 0.99415869
1.2513866 -0.79415035 -0.12139648 0.9940694
1.2512109 -0.81624019 -0.12236331 0.99402225
1.2508007 -0.86156249 -0.1244025 0.99392295
1.2505761 -0.88479489 -0.12547721 0.99387062
1.2503418 -0.90843749 -0.12659039 0.99381644
1.2501367 -0.93249023 -0.1277438 0.99376023
4.8587012 -3.7201464 -0.50122476 0.97573978
4.8116112 -3.7809277 -0.50122952 0.9757396
4.7637892 -3.8411424 -0.50123447 0.97573924
4.6895604 -3.8795605 -0.49851739 0.97586924
4.569375 -3.877871 -0.49088341 0.97623432
4.4527926 -3.8762207 -0.48355356 0.97658503
4.3396482 -3.8746386 -0.47651345 0.97692186
4.1228027 -3.8715723 -0.46324608 0.97755724
4.0188279 -3.8701172 -0.45699203 0.97785681
3.9176366 -3.8686912 -0.45097405 0.97814512
3.8190234 -3.8673143 -0.44518283 0.9784227
3.7228906 -3.8659472 -0.43960685 0.97869015
3.5376172 -3.8633299 -0.42906272 0.97919595
3.3609276 -3.8608594 -0.41927078 0.97966582
3.1959863 -3.8632715 -0.41067943 0.98007834
3.11625 -3.864785 -0.4066447 0.98027217
2.9077051 -3.8981347 -0.39833254 0.98067153
2.8585253 -3.9344139 -0.39833754 0.98067129
2.5542383 -4.1388965 -0.39836857 0.98066974
2.3432031 -4.2622166 -0.39839002 0.98066872
2.2354102 -4.3198829 -0.39840102 0.98066819
2.1809669 -4.3477049 -0.39840657 0.98066789
2.1261914 -4.374824 -0.39841217 0.98066765
2.071084 -4.4012599 -0.39841774 0.98066735
2.0156446 -4.4269919 -0.39842337 0.98066711
1.959873 -4.4520411 -0.39842904 0.98066682
1.9037988 -4.476377 -0.39843476 0.98066658
1.8474315 -4.5000196 -0.39844048 0.98066628
1.7907519 -4.5229392 -0.39844623 0.98066604
1.7337987 -4.5451465 -0.39845207 0.98066574
1.4450879 -4.6453905 -0.39848137 0.98066431
1.3866405 -4.6632614 -0.3984873 0.98066401
1.2690527 -4.6967673 -0.39849922 0.98066342
1.2099609 -4.7124219 -0.39850524 0.98066312
1.0911914 -4.7414746 -0.39851725 0.98066258
1.0315235 -4.7548728 -0.39852333 0.98066235
0.97171873 -4.767529 -0.39852938 0.98066205
0.91171873 -4.7794528 -0.39853546 0.98066169
0.79136717 -4.8009958 -0.39854765 0.98066115
0.73097652 -4.8106446 -0.39855379 0.9806608
0.54916012 -4.83499 -0.39857224 0.98065996
0.35396484 -4.0137401 -0.33003303 0.98395878
0.25094727 -3.9888768 -0.32736641 0.98408735
0.18341796 -4.8630662 -0.39860928 0.98065823
0.12228515 -4.865078 -0.39861545 0.98065788
-0.18344726 -4.8635349 -0.39864638 0.98065639
-0.24455078 -4.860918 -0.39865255 0.98065609
-0.30561522 -4.8575392 -0.39865875 0.98065579
-0.42759764 -4.8484669 -0.39867106 0.98065519
-0.54931641 -4.836328 -0.3986834 0.98065466
-0.85198241 -4.7926755 -0.39871398 0.98065311
-0.97219723 -4.7699022 -0.39872611 0.98065251
-1.0917871 -4.7440915 -0.39873821 0.98065203
-1.1513183 -4.7300878 -0.3987442 0.98065168
-1.269873 -4.6998143 -0.39875618 0.98065102
-1.1360644 -4.0040431 -0.34090751 0.98343462
-1.5044824 -4.630332 -0.39877981 0.98064995
-1.5625879 -4.6111231 -0.39878571 0.98064971
-1.6779981 -4.5705371 -0.39879733 0.98064917
-1.7353418 -4.54916 -0.39880309 0.98064882
-1.9056348 -4.4806933 -0.39882025 0.9806481
-1.9618067 -4.4564843 -0.39882594 0.98064774
-2.0176854 -4.4315333 -0.39883155 0.9806475
-2.0732617 -4.4058986 -0.39883715 0.98064715
-2.1833887 -4.3525195 -0.39884827 0.98064667
-2.345957 -4.2673144 -0.3988646 0.9806459
-2.3994629 -4.2375584 -0.39886999 0.9806456
-2.5575585 -4.1442575 -0.39888588 0.98064488
-2.6223731 -4.019629 -0.39311028 0.9809224
-2.7158203 -3.9426854 -0.39213276 0.98096919
-2.8626854 -3.9401464 -0.39891654 0.98064339
-2.9120018 -3.9039159 -0.39892149 0.98064315
-3.009248 -3.8295801 -0.39893126 0.9806428
-3.0571971 -3.7915235 -0.39893606 0.98064244
-3.1273632 -3.7803319 -0.40186164 0.98050189
-3.2050977 -3.7766407 -0.40571892 0.98031658
-3.2842968 -3.7728319 -0.40971264 0.98012483
-3.80667 -3.7591405 -0.43820438 0.97875744
-3.9020996 -3.757705 -0.44371784 0.97849303
-1.0211231 -0.93502927 -0.11340683 0.99445868
-1.0213672 -0.9119336 -0.1121529 0.99451977
-1.0216211 -0.88933593 -0.11094311 0.99457866
-1.0218457 -0.86720699 -0.1097763 0.99463558
-1.0222949 -0.82429683 -0.10756351 0.99474341
-1.0229003 -0.76300782 -0.10452499 0.99489146
-1.023086 -0.74331051 -0.10358131 0.99493754
-1.0589062 -0.70994139 -0.10442272 0.99489647
-1.0882422 -0.70994139 -0.10642578 0.99479878
-1.1187011 -0.70994139 -0.10852467 0.99469656
-1.2178515 -0.70994139 -0.11546425 0.99435842
-1.2537988 -0.70995116 -0.11801776 0.99423397
-1.2913965 -0.70995116 -0.12070598 0.99410301
-1.3719629 -0.70993161 -0.1265298 0.99381942
-1.4152637 -0.70994139 -0.12968941 0.99366558
-1.4607812 -0.70994139 -0.13303246 0.9935028
-1.5087109 -0.70994139 -0.1365746 0.99333042
-1.5592968 -0.70994139 -0.14033325 0.99314743
-1.6127245 -0.70994139 -0.14432785 0.99295306
-1.6692871 -0.70995116 -0.14858077 0.99274617
-1.7965137 -0.68530273 -0.15749066 0.99231279
-1.7963867 -0.65952146 -0.15674122 0.99234927
-5.7828808 -2.0410156 -0.50229985 0.97568828
-5.8080955 -1.9681835 -0.50230235 0.97568822
-5.8557715 -1.8216308 -0.502307 0.97568798
-5.8782325 -1.7479004 -0.5023092 0.97568786
-5.8997459 -1.6739258 -0.50231129 0.9756878
-5.99332 -1.3001758 -0.50232035 0.97568738
-6.0092187 -1.2247753 -0.5023219 0.97568721
-6.0241404 -1.1491699 -0.50232333 0.97568721
-6.0381346 -1.0733789 -0.50232464 0.97568709
-6.0511422 -0.99741209 -0.50232589 0.97568709
-6.0936718 -0.6921289 -0.50232989 0.97568691
-6.1091504 -0.53877926 -0.50233132 0.97568685
-6.1207519 -0.38508788 -0.50233227 0.97568685
-6.1285448 -0.23115234 -0.50233293 0.97568667
-6.1309571 -0.15412109 -0.5023331 0.97568673
-6.1323924 -0.077060543 -0.5023331 0.97568679
-5.9306445 -0 -0.50231266 0.97647363
-5.9301953 0.074521482 -0.50231254 0.97647357
-5.9287696 0.14904296 -0.5023123 0.97647363
-5.9264355 0.22352539 -0.50231194 0.97647363
-5.9231348 0.29798827 -0.50231159 0.97647369
-5.9189258 0.37238279 -0.50231105 0.97647369
-5.9137692 0.44673827 -0.50231045 0.97647375
-5.9076853 0.52101558 -0.50230974 0.97647375
-5.9006639 0.59520507 -0.50230896 0.97647381
-5.8927245 0.66929686 -0.50230813 0.97647375
-5.8838282 0.74328125 -0.50230712 0.97647387
-5.8515916 0.96453124 -0.5023036 0.97647399
-5.838994 1.0379883 -0.50230229 0.97647405
-5.8110251 1.1843749 -0.50229925 0.97647423
-5.7956638 1.2572949 -0.50229764 0.97647434
-5.7793751 1.3300292 -0.50229591 0.97647446
-5.7621875 1.4025292 -0.50229412 0.97647452
-5.7441015 1.4748242 -0.50229222 0.97647452
-5.7250876 1.5468946 -0.50229019 0.97647464
-5.705195 1.6187011 -0.5022881 0.9764747
-5.6626658 1.7615429 -0.50228363 0.97647488
-5.640039 1.8325683 -0.50228131 0.97647506
-5.5921483 1.9736913 -0.5022763 0.9764753
-1.7972461 0.65984374 -0.16215824 0.99234384
-1.7975 0.71166992 -0.16374373 0.99226934
-1.7293164 0.70995116 -0.15833163 0.99252379
-1.5592871 0.70995116 -0.14511275 0.99314582
-1.4607812 0.70996094 -0.13756344 0.99350125
-1.4152637 0.70996094 -0.13410649 0.99366409
-1.3719727 0.70995116 -0.13083942 0.99381793
-1.2913965 0.70995116 -0.12481712 0.99410164
-1.2538183 0.70995116 -0.12203735 0.99423259
-1.2178417 0.70996094 -0.11939697 0.99435711
-1.1834179 0.70995116 -0.11688663 0.99447542
-1.15042 0.70996094 -0.11449718 0.9945879
-1.1187011 0.70995116 -0.11222111 0.99469531
-1.0882324 0.70994139 -0.11005085 0.99479765
-1.058916 0.70995116 -0.10797916 0.99489528
-1.0306739 0.70995116 -0.10600112 0.99498856
-1.0225781 0.72351563 -0.10609627 0.99498409
-1.0217968 0.80292964 -0.11006615 0.99479687
-1.0215722 0.82372069 -0.11114921 0.99474585
-1.0213574 0.8449316 -0.1122715 0.99469298
-1.0211231 0.86660153 -0.11343437 0.99463809
-1.0206445 0.91126949 -0.11588813 0.99452245
-1.0203906 0.93435544 -0.11718311 0.99446136
-4.321836 4.0584569 -0.50214553 0.97648132
-4.1656542 4.2183299 -0.50212955 0.97648209
-4.1122947 4.2702928 -0.50212407 0.97648227
-4.0035839 4.3721876 -0.50211293 0.97648287
-3.9482908 4.4220996 -0.50210732 0.97648311
-3.6625879 4.6610255 -0.50207818 0.97648448
-3.544209 4.7514744 -0.50206608 0.97648507
-3.4842186 4.7955856 -0.50205994 0.97648525
-3.3008397 4.9233103 -0.50204128 0.97648621
-3.2387011 4.9643359 -0.50203496 0.97648644
-3.1759961 5.00458 -0.50202852 0.9764868
-2.7897851 5.2292089 -0.50198919 0.97648853
-2.7238085 5.2637792 -0.50198251 0.97648889
-2.3877635 5.4240427 -0.5019483 0.9764905
-2.2506542 5.4821777 -0.50193441 0.97649109
-2.0423338 5.562861 -0.50191319 0.97649217
-1.9018261 5.6122751 -0.50189894 0.97649282
-1.8311425 5.6356444 -0.50189179 0.97649312
-1.7601465 5.6581345 -0.50188458 0.97649348
-1.6888964 5.6797166 -0.50187731 0.97649384
-1.5455663 5.7202148 -0.50186276 0.97649443
-1.4735352 5.7391014 -0.50185543 0.97649479
-1.3288085 5.7741599 -0.50184077 0.97649544
-1.256162 5.7902927 -0.50183338 0.97649586
-1.1832714 5.8055468 -0.50182599 0.97649616
-1.1102051 5.8198438 -0.5018186 0.97649658
-0.89002925 5.8573141 -0.50179631 0.97649753
-0.81633788 5.867959 -0.50178879 0.97649783
-0.7425195 5.877656 -0.50178134 0.97649825
-0.59458005 5.8942871 -0.50176632 0.9764989
-0.520459 5.9012012 -0.50175881 0.97649926
-0.29764646 5.9163475 -0.50173628 0.97650033
-0.22328125 5.9195504 -0.50172877 0.97650063
0 5.9234667 -0.50170612 0.97650176
0.074443355 5.9229298 -0.50169861 0.97650206
0.14884765 5.9214354 -0.5016911 0.97650242
0.22324218 5.9190235 -0.50168359 0.97650272
0.37188476 5.9113574 -0.50166851 0.97650343
0.44615233 5.9061327 -0.501661 0.97650379
0.52032226 5.8999705 -0.50165349 0.97650415
0.59442383 5.8928709 -0.50164604 0.9765045
0.74229491 5.8759079 -0.50163108 0.97650516
0.81605464 5.8660154 -0.50162363 0.97650558
0.88969725 5.8552051 -0.50161618 0.97650594
1.109707 5.8172555 -0.50159395 0.97650695
1.2554981 5.7873535 -0.50157923 0.97650766
1.3280957 5.7710447 -0.50157189 0.97650796
1.6163183 5.6966991 -0.50154281 0.97650927
1.6877441 5.6758494 -0.50153565 0.97650963
1.758916 5.6541209 -0.50152844 0.97650993
1.9003711 5.6079688 -0.50151414 0.97651064
2.0406542 5.558291 -0.50150007 0.97651124
2.1067286 5.5227637 -0.50064373 0.97655088
2.1698339 5.4803419 -0.49923101 0.97661626
2.2325487 5.4381542 -0.49790403 0.97667772
2.3571093 5.3543944 -0.49550387 0.97678882
2.4189453 5.3128123 -0.49442935 0.97683853
2.5418553 5.2301364 -0.49252608 0.97692668
2.906074 4.985127 -0.48873565 0.97710222
2.9663281 4.9446092 -0.48837811 0.97711873
3.1466503 4.8232813 -0.48777014 0.97714692
3.2067089 4.7828708 -0.48772147 0.97714919
3.3472557 4.7309861 -0.49085495 0.97700405
3.4200683 4.7073145 -0.49281892 0.97691309
3.5674999 4.6593456 -0.49702933 0.97671819
3.7153223 4.6077733 -0.50133157 0.97651911
3.7729101 4.5606737 -0.50132579 0.97651929
3.8298728 4.5128417 -0.50132006 0.97651958
3.8862305 4.4643064 -0.5013144 0.97651988
3.9419823 4.4150782 -0.5013088 0.97652012
4.1586523 4.2112598 -0.5012871 0.97652107
4.2111912 4.1586227 -0.50128186 0.97652137
4.463779 3.8857908 -0.50125659 0.97652256
4.5599513 3.7723241 -0.50124699 0.97652292
4.6069531 3.7146873 -0.50124228 0.97652316
4.6532321 3.6564453 -0.50123769 0.9765234
4.6987696 3.5976562 -0.5012331 0.97652358
1.2495117 0.90782225 -0.13081379 0.99381912
1.2501659 0.83819336 -0.12748288 0.99397606
1.2503809 0.81573242 -0.12644863 0.99402475
1.2507714 0.77188474 -0.1244865 0.9941172
1.2511231 0.72935545 -0.12265892 0.99420333
1.2538183 0.70996094 -0.12203724 0.99423259
1.3307519 0.70994139 -0.12774739 0.99396354
1.3719629 0.70995116 -0.13083923 0.99381799
1.4152637 0.70996094 -0.13410671 0.99366409
1.6693164 0.70996094 -0.15364163 0.99274439
1.9337499 0.70994139 -0.17447399 0.99176478
2.0233495 0.71413082 -0.18173419 0.99142355
5.6497459 1.7575293 -0.50113881 0.97652793
5.6713476 1.6863965 -0.50113672 0.97652805
5.6920605 1.6149902 -0.50113469 0.97652817
5.7118945 1.5433105 -0.50113279 0.97652823
5.7308297 1.4714258 -0.50113094 0.97652823
5.7488379 1.3992773 -0.50112915 0.97652841
5.7821383 1.2543652 -0.50112599 0.97652858
5.7974415 1.1816113 -0.5011245 0.97652858
5.8118067 1.1086621 -0.50112313 0.9765287
5.8494043 0.88881832 -0.50111955 0.97652888
5.860117 0.81524414 -0.50111854 0.97652888
5.8787208 0.66771483 -0.50111681 0.976529
5.8866405 0.59378904 -0.5011161 0.97652906
5.8936424 0.51976562 -0.5011155 0.976529
5.9048243 0.37150389 -0.50111449 0.97652912
5.9122949 0.22298828 -0.50111389 0.97652912
5.9160252 0.074335933 -0.50111371 0.97652912
5.9165134 -0 -0.50111371 0.97652906
5.9146385 -0.14868164 -0.50111407 0.97652906
5.9123044 -0.22298828 -0.50111437 0.97652906
5.9090524 -0.29727539 -0.50111479 0.976529
5.8866696 -0.59379882 -0.50111735 0.97652894
5.8787498 -0.66772461 -0.50111824 0.97652888
5.860127 -0.81525391 -0.50112027 0.97652882
5.849453 -0.8888281 -0.50112146 0.9765287
5.837822 -0.96225584 -0.50112271 0.9765287
5.797451 -1.1816211 -0.501127 0.97652853
5.7821774 -1.2543848 -0.50112861 0.97652841
5.7659764 -1.3269433 -0.50113034 0.97652835
5.7488575 -1.3993067 -0.50113213 0.97652829
5.7119336 -1.5433301 -0.50113606 0.97652805
5.649785 -1.7575488 -0.50114256 0.97652775
2.0233495 -0.7141211 -0.18173416 0.99142355
1.9337597 -0.70994139 -0.1744733 0.99176472
1.7931445 -0.70994139 -0.16334419 0.99228799
1.7293066 -0.70995116 -0.15833156 0.99252385
1.5592968 -0.70994139 -0.14511226 0.99314582
1.5087011 -0.70995116 -0.14122601 0.99332887
1.4152734 -0.70993161 -0.13410625 0.99366409
1.3719727 -0.70994139 -0.13083915 0.99381799
1.2913965 -0.70994139 -0.12481704 0.99410164
1.2537988 -0.70994139 -0.12203708 0.99423271
1.250957 -0.75045896 -0.12355652 0.99416107
1.2507714 -0.77188474 -0.12448642 0.9941172
1.2505957 -0.79363281 -0.12545021 0.99407178
1.2504101 -0.81572264 -0.12644863 0.99402469
1.2499609 -0.86099607 -0.12855472 0.99392557
1.2497265 -0.88420898 -0.12966418 0.99387336
1.2495117 -0.90781248 -0.13081397 0.99381918
1.2493359 -0.93190426 -0.13201161 0.99376273
4.6532907 -3.6565235 -0.50124544 0.97652304
4.6070118 -3.714746 -0.50125021 0.9765228
4.560029 -3.7723827 -0.50125504 0.97652256
4.3396482 -3.8746386 -0.4927426 0.97691655
4.2296872 -3.8730857 -0.48574769 0.97724056
3.8190234 -3.8673143 -0.46034488 0.97841781
3.7228906 -3.8659472 -0.45457858 0.97868526
3.537627 -3.8633397 -0.44367576 0.97919118
3.2755468 -3.8596485 -0.42875883 0.97988367
3.1920018 -3.8584764 -0.42413855 0.98009831
2.9548829 -3.8592284 -0.41167915 0.98067731
2.8797166 -3.8606541 -0.40793639 0.98085123
2.805918 -3.8620312 -0.40432483 0.9810192
2.6680176 -3.8733008 -0.39835677 0.98129666
2.6191797 -3.9065623 -0.39836174 0.98129642
2.5202441 -3.9712498 -0.39837182 0.98129594
2.4701562 -4.002656 -0.39837691 0.98129576
2.4197071 -4.0334473 -0.39838207 0.98129547
2.3176367 -4.0930858 -0.39839247 0.98129499
2.2141016 -4.1501365 -0.39840302 0.98129451
2.10917 -4.2045703 -0.39841369 0.98129404
1.9492871 -4.28125 -0.39842993 0.98129332
1.8953613 -4.3054686 -0.39843544 0.98129302
1.7866015 -4.3518748 -0.3984465 0.98129249
1.7317871 -4.374033 -0.39845207 0.98129231
1.6767187 -4.3955173 -0.39845765 0.98129201
1.6213866 -4.4162989 -0.39846328 0.98129171
1.5657812 -4.4363866 -0.39846891 0.98129147
1.5099218 -4.4557714 -0.39847457 0.98129123
1.2842187 -4.526289 -0.39849749 0.9812901
1.1127832 -4.57166 -0.3985149 0.98128933
0.93970698 -4.6105566 -0.39853248 0.98128849
0.76530272 -4.6429005 -0.39855015 0.98128772
0.6483984 -4.6608105 -0.39856201 0.98128712
0.58979493 -4.6686621 -0.39856794 0.98128682
0.53109372 -4.6757712 -0.39857391 0.98128659
0.35396484 -4.0137401 -0.3412728 0.98395514
0.30085936 -3.9827733 -0.338292 0.98409414
0.25094727 -3.9888768 -0.33851641 0.98408371
0.20276366 -4.0309472 -0.3418425 0.98392856
0.11828125 -4.7048535 -0.39861569 0.98128456
0 -4.7064743 -0.39862767 0.98128408
-0.05915039 -4.706162 -0.39863363 0.98128384
-0.11828125 -4.7051268 -0.39863962 0.98128349
-0.29553711 -4.6975389 -0.39865756 0.98128265
-0.35455078 -4.6935153 -0.39866352 0.98128241
-0.41350585 -4.6887693 -0.39866951 0.98128211
-0.53124022 -4.677031 -0.3986814 0.98128158
-0.64861327 -4.662334 -0.39869323 0.98128104
-0.82391602 -4.6347852 -0.39871097 0.98128021
-0.88210934 -4.6241307 -0.39871684 0.98127997
-0.99806637 -4.6006346 -0.39872855 0.98127943
-1.0558106 -4.5878024 -0.39873439 0.98127913
-1.1708202 -4.5599704 -0.39874598 0.98127854
-1.2280371 -4.544951 -0.39875174 0.9812783
-1.1360644 -4.0040431 -0.35251823 0.9834308
-1.5670215 -4.4399118 -0.39878598 0.98127675
-1.6227148 -4.4199314 -0.39879158 0.98127651
-1.678164 -4.3992577 -0.39879715 0.98127621
-1.8971679 -4.3096189 -0.39881924 0.9812752
-1.9512109 -4.2855077 -0.39882469 0.9812749
-2.0583301 -4.2352343 -0.39883545 0.98127443
-2.1114354 -4.2090917 -0.39884081 0.98127413
-2.1641796 -4.1822753 -0.39884612 0.98127395
-2.2686424 -4.1266794 -0.39885664 0.98127347
-2.4732616 -4.0076756 -0.3988772 0.98127252
-2.5732715 -3.9443653 -0.39888728 0.98127198
-2.6226561 -3.9117675 -0.39889225 0.9812718
-2.7683301 -3.8102734 -0.39890686 0.98127109
-2.8963084 -3.7827246 -0.40351608 0.98105669
-2.9697266 -3.7792773 -0.40709794 0.98089021
-3.0444629 -3.7757323 -0.41080511 0.98071784
-3.1205468 -3.7720799 -0.41464195 0.98053956
-3.2793262 -3.7671192 -0.4230231 0.98015004
-3.3623438 -3.7658594 -0.42759338 0.97993779
-3.5339355 -3.7632713 -0.43724748 0.97948951
-3.7135839 -3.7605565 -0.44763741 0.9790073
-3.9999804 -3.7562206 -0.46475035 0.97821355
-1.0203809 -0.93434566 -0.11718281 0.99446142
-1.0208887 -0.88869137 -0.11463909 0.99458134
-1.0213574 -0.8449316 -0.11227146 0.99469298
-1.0218066 -0.80290037 -0.11006607 0.99479693
-1.022002 -0.78250974 -0.10902061 0.99484622
-1.0223925 -0.74281245 -0.1070369 0.99493974
-1.0225683 -0.7234863 -0.10609654 0.99498415
-1.0589062 -0.70994139 -0.10797916 0.99489534
-1.1187011 -0.70994139 -0.11222088 0.99469531
-1.1834179 -0.70995116 -0.11688618 0.99447542
-1.2537988 -0.70995116 -0.12203693 0.99423265
-1.3307323 -0.70994139 -0.12774695 0.9939636
-1.3719629 -0.70993161 -0.13083896 0.99381804
-1.4152637 -0.70994139 -0.13410614 0.99366409
-1.4607812 -0.70994139 -0.13756302 0.99350131
-1.6127245 -0.70994139 -0.14924331 0.99295145
-1.6692871 -0.70995116 -0.15364105 0.99274451
-1.7293066 -0.70994139 -0.1583318 0.99252385
-5.6166015 -1.903291 -0.50228292 0.97647488
-5.6626854 -1.7615625 -0.50228739 0.97647476
-5.6844044 -1.6902734 -0.50228953 0.97647464
-5.705195 -1.6187109 -0.50229156 0.97647464
-5.7251267 -1.5468946 -0.50229353 0.97647452
-5.7441406 -1.4748437 -0.50229532 0.9764744
-5.7622361 -1.4025488 -0.5022971 0.97647434
-5.7956934 -1.2573144 -0.50230032 0.97647417
-5.8254881 -1.1112597 -0.50230318 0.97647411
-5.8632812 -0.89092773 -0.50230676 0.97647387
-5.8927441 -0.66930664 -0.5023095 0.97647369
-5.900703 -0.59521484 -0.50231022 0.97647363
-5.9077148 -0.52101558 -0.50231087 0.97647363
-5.9137888 -0.44673827 -0.50231141 0.97647369
-5.9287696 -0.14905272 -0.5023126 0.97647363
-5.9302049 -0.07453125 -0.50231266 0.97647351
-5.74125 -9.7656248e-06 -0.50229347 0.97721094
-5.7407908 0.072138667 -0.50229335 0.977211
-5.7394333 0.14426757 -0.50229317 0.977211
