# .PCD v0.7 - Point Cloud Data file format
VERSION 0.7
FIELDS x y z intensity
SIZE 4 4 4 4
TYPE F F F F
COUNT 1 1 1 1
WIDTH 1081
HEIGHT 1
VIEWPOINT 0 0 0 1 0 0 0
POINTS 1081
DATA ascii
4.9016991 5.4899707 -0.39797783 0.97094822
4.9702439 5.4278517 -0.39797172 0.97094864
5.1710739 5.2364454 -0.39795431 0.97094983
5.2363768 5.1709766 -0.3979488 0.97095025
5.4273243 4.9697361 -0.39793307 0.97095144
5.4892578 4.9010935 -0.39792812 0.97095186
5.5503807 4.8316894 -0.39792326 0.97095203
5.7858787 4.546494 -0.39790609 0.97095335
5.8424997 4.4733787 -0.39790222 0.97095364
1.2586426 0.93883789 -0.084909283 0.99372965
1.2593554 0.82159179 -0.081310004 0.99399465
1.2596093 0.77734375 -0.080039404 0.99408823
1.3307421 0.70995116 -0.081559218 0.99397629
1.3719727 0.70995116 -0.083533287 0.99383098
1.4152734 0.70995116 -0.085619316 0.99367738
1.5592871 0.70996094 -0.092646219 0.99316025
1.6127245 0.70994139 -0.095283426 0.99296629
1.6692871 0.70996094 -0.098091044 0.99275976
1.7293261 0.70994139 -0.10108604 0.99253953
1.8611132 0.70994139 -0.10771331 0.99205244
1.9337499 0.70995116 -0.11139172 0.99178207
2.0241601 0.71438473 -0.11607174 0.99143821
2.0241504 0.68592775 -0.11556854 0.99147522
8.9374218 2.4148536 -0.50061756 0.96359348
9.0218849 2.0762498 -0.50060755 0.96359426
9.0471869 1.9626757 -0.50060457 0.96359462
9.0935545 1.7346874 -0.50059909 0.96359497
9.1145992 1.6202929 -0.50059664 0.96359509
9.1342087 1.505625 -0.50059438 0.96359521
9.1523733 1.3906933 -0.50059223 0.96359539
9.1690912 1.2755859 -0.50059026 0.96359551
9.1843452 1.1602539 -0.50058854 0.96359569
9.1981735 1.0447558 -0.50058693 0.96359581
9.2105761 0.92907226 -0.50058556 0.96359581
9.2215137 0.81327146 -0.5005843 0.96359587
9.2389746 0.5812695 -0.5005824 0.96359611
9.2506733 0.34890625 -0.5005812 0.96359605
9.2542868 0.23263672 -0.50058091 0.96359622
9.2506733 -0.34890625 -0.50058198 0.96359605
9.2310057 -0.69732422 -0.50058478 0.96359587
9.1982126 -1.044746 -0.50058919 0.96359563
9.1342573 -1.5056152 -0.50059754 0.96359503
9.0472755 -1.9626952 -0.50060874 0.96359426
8.9952145 -2.1894727 -0.50061536 0.96359378
8.9065037 -2.5270019 -0.50062668 0.96359295
8.8741407 -2.6387401 -0.50063074 0.96359259
8.8403616 -2.750078 -0.50063503 0.96359223
2.0241601 -0.68592775 -0.11556862 0.99147516
2.0241504 -0.71440428 -0.11607174 0.99143821
1.9337499 -0.70994139 -0.11139095 0.99178213
1.8611327 -0.70995116 -0.10771301 0.99205232
1.7931055 -0.70994139 -0.10428581 0.99230438
1.6693066 -0.70994139 -0.098090701 0.9927597
1.6127245 -0.70994139 -0.095282897 0.99296629
1.5087109 -0.70994139 -0.090164453 0.99334294
1.3307323 -0.70994139 -0.081558987 0.99397635
1.2598339 -0.73443359 -0.078856163 0.99417537
1.2597167 -0.75573242 -0.079437025 0.99413264
1.2596093 -0.77734375 -0.08003933 0.99408823
1.2594726 -0.79929686 -0.080663413 0.99404234
1.2593652 -0.82159179 -0.081309848 0.99399465
1.2590917 -0.86727536 -0.082673907 0.99389428
1.2587988 -0.9145605 -0.084137842 0.99378645
5.8427048 -4.4735255 -0.39791587 0.97095263
5.7286325 -4.6191015 -0.39793006 0.97095168
5.6109567 -4.7617869 -0.39794472 0.9709506
5.5507908 -4.8320017 -0.3979522 0.97095001
5.4278026 -4.9701757 -0.39796746 0.97094893
4.1553612 -4.1034765 -0.31579658 0.97687739
4.0515528 -4.1027832 -0.31180337 0.97716659
3.9323633 -4.0834665 -0.30654612 0.97754657
3.8833008 -4.1352735 -0.30675441 0.97753197
3.9023535 -4.2616405 -0.3124654 0.97711849
3.8909667 -4.3579197 -0.31591392 0.97686887
4.8331151 -5.5519919 -0.39804122 0.97094369
4.6922655 -5.6719627 -0.39805868 0.97094238
4.6207323 -5.7305956 -0.39806753 0.97094172
4.4754491 -5.8451657 -0.39808553 0.97094053
4.3273535 -5.9560642 -0.39810389 0.97093916
4.2522559 -6.0101171 -0.39811319 0.9709385
4.1764941 -6.0632224 -0.39812255 0.97093779
4.1000681 -6.1153612 -0.39813206 0.97093719
4.0230079 -6.166533 -0.39814153 0.97093654
3.9453027 -6.2167773 -0.39815119 0.9709357
3.8669531 -6.265996 -0.39816087 0.97093511
3.7880273 -6.3142576 -0.39817065 0.97093433
3.7084668 -6.3615136 -0.39818045 0.97093362
3.6283104 -6.407783 -0.39819038 0.9709329
3.547627 -6.4530172 -0.39820036 0.97093219
3.302119 -6.5826364 -0.3982307 0.9709301
3.219209 -6.6237988 -0.39824095 0.97092932
3.0519042 -6.702949 -0.39826164 0.97092783
2.7115331 -6.8485446 -0.39830366 0.97092479
2.6253514 -6.8822556 -0.39831427 0.97092402
2.5387206 -6.9149022 -0.398325 0.97092324
2.4516895 -6.9464355 -0.39833573 0.97092253
2.3642676 -6.9768748 -0.39834654 0.97092175
2.2764647 -7.0062499 -0.39835739 0.97092092
2.1883299 -7.0344725 -0.39836821 0.97092015
2.0998144 -7.0616403 -0.39837918 0.97091925
1.6524805 -7.1805077 -0.39843431 0.9709155
1.5621874 -7.2008982 -0.39844543 0.97091466
1.2897656 -7.2552929 -0.39847904 0.97091222
1.1070899 -7.28582 -0.39850155 0.97091061
0.83177733 -7.322998 -0.39853546 0.97090816
0.55523437 -7.3497653 -0.39856952 0.97090572
0.20036133 -3.9827342 -0.21563832 0.9841525
0.15043946 -3.9889061 -0.21585262 0.98413688
0.092656247 -7.371191 -0.39862645 0.97090161
0 -7.3719821 -0.39863783 0.97090077
-0.092636719 -7.3716016 -0.39864925 0.9709
-0.18527344 -7.3700781 -0.39866066 0.97089911
-0.46294922 -7.3584862 -0.39869478 0.97089666
-0.5553906 -7.3522949 -0.39870617 0.97089589
-0.64775389 -7.3449411 -0.39871749 0.97089505
-0.92420894 -7.3159471 -0.39875147 0.97089255
-1.0160937 -7.3039551 -0.39876276 0.97089177
-1.107832 -7.2908106 -0.39877406 0.970891
-1.199414 -7.2765136 -0.39878532 0.97089016
-1.2907617 -7.2610545 -0.39879653 0.97088945
-1.3819629 -7.244482 -0.39880773 0.97088856
-1.6541601 -7.187871 -0.39884117 0.97088611
-1.744375 -7.1666698 -0.39885226 0.97088552
-1.8343652 -7.1444039 -0.39886329 0.97088462
-1.9240625 -7.120986 -0.39887431 0.97088379
-2.0134375 -7.0964451 -0.39888525 0.97088301
-2.1025 -7.0707812 -0.39889622 0.97088224
-1.24333 -3.9967773 -0.22634031 0.98337251
-2.4554002 -6.9569626 -0.39893952 0.97087908
-2.5426855 -6.9257517 -0.39895022 0.9708783
-2.6295702 -6.8934274 -0.39896086 0.97087759
-2.7160742 -6.8600292 -0.39897147 0.97087681
-2.8021288 -6.8255563 -0.39898199 0.97087598
-3.1418457 -6.6768064 -0.39902365 0.97087312
-3.3088477 -6.5961032 -0.3990441 0.97087151
-3.3915429 -6.5541601 -0.39905426 0.97087085
-3.6364257 -6.4221482 -0.39908424 0.97086877
-3.7169628 -6.376123 -0.3990941 0.97086793
-3.8762012 -6.2809863 -0.3991136 0.97086662
-3.9549413 -6.2319727 -0.39912322 0.97086573
-4.0329981 -6.1818848 -0.39913279 0.97086525
-2.7312889 -4.0738182 -0.26521966 0.98054433
-2.7409277 -3.9791601 -0.26127958 0.98083061
-2.7911425 -3.9449902 -0.26131797 0.98082775
-4.4137301 -5.9171677 -0.39917937 0.97086179
-4.4878516 -5.8613672 -0.39918843 0.97086114
-4.5612402 -5.8046384 -0.39919737 0.97086054
-4.6339064 -5.7469921 -0.39920628 0.97085994
-4.77707 -5.6289649 -0.39922374 0.97085869
-4.9861717 -5.4452734 -0.39924929 0.97085679
-5.318779 -5.1219435 -0.39928985 0.97085398
-1.0288574 -0.91861326 -0.074583277 0.99449009
-1.0291601 -0.87341797 -0.072991714 0.99460739
-1.0293067 -0.8515234 -0.0722377 0.994663
-1.0294532 -0.83007812 -0.071510121 0.99471658
-1.0297461 -0.78842771 -0.070130274 0.99481821
-1.029873 -0.76820308 -0.069476128 0.99486643
-1.0299804 -0.74833006 -0.068844721 0.99491304
-1.0589062 -0.70995116 -0.068938404 0.99490607
-1.1504004 -0.70995116 -0.073099591 0.9945994
-1.2178613 -0.70994139 -0.076227948 0.99436897
-1.2538086 -0.70995116 -0.07791359 0.99424475
-1.2913867 -0.70994139 -0.079688378 0.9941141
-1.3719727 -0.70994139 -0.083533324 0.99383098
-1.4607714 -0.70994139 -0.087825961 0.99351501
-1.5087402 -0.70994139 -0.09016449 0.99334282
-1.5592871 -0.70994139 -0.092645988 0.99316031
-1.6692871 -0.70995116 -0.098090895 0.99275976
-1.7293164 -0.70995116 -0.10108577 0.99253953
-1.7877344 -0.65633786 -0.10297988 0.99240029
-8.8064747 -2.9842577 -0.50280648 0.96343732
-8.91292 -2.6502733 -0.50281924 0.96343642
-8.9768162 -2.4254882 -0.50282687 0.96343601
-9.0066795 -2.3125196 -0.50283045 0.96343559
-9.0350685 -2.1991699 -0.50283378 0.96343547
-9.1343651 -1.7424706 -0.50284553 0.96343464
-9.1753807 -1.5123827 -0.50285035 0.96343416
-9.1936617 -1.3969727 -0.50285244 0.96343416
-9.281045 -0.58390623 -0.50286233 0.96343338
-9.2876654 -0.46724609 -0.50286305 0.96343333
-9.2928219 -0.35048828 -0.50286353 0.96343327
-8.8439064 9.7656248e-06 -0.50280797 0.96518761
-8.8432226 0.11113281 -0.50280774 0.96518761
-8.8375874 0.33333007 -0.50280678 0.96518779
-8.832715 0.44435546 -0.50280607 0.96518773
-8.8187103 0.66617185 -0.50280416 0.96518791
-8.7872658 0.99807614 -0.50279993 0.96518821
-8.7433004 1.3285449 -0.50279415 0.96518856
-8.7070704 1.5478418 -0.50278944 0.96518892
-8.686904 1.6571094 -0.50278687 0.96518904
-8.6424122 1.8748828 -0.50278115 0.96518946
-8.6181049 1.9833202 -0.50277805 0.9651897
-8.5924606 2.0914452 -0.50277478 0.96518987
-8.4762697 2.5204394 -0.50276005 0.96519089
-8.4438667 2.6267579 -0.50275594 0.96519113
-8.4101171 2.7326269 -0.50275165 0.96519142
-8.3750391 2.8380566 -0.50274724 0.96519178
-8.3386421 2.943037 -0.50274265 0.96519208
-1.7886621 0.68230468 -0.10883979 0.99235946
-1.7293066 0.70994139 -0.10628082 0.99253845
-1.4607812 0.70994139 -0.092339784 0.993514
-1.415293 0.70994139 -0.090019412 0.99367636
-1.1834277 0.70996094 -0.078460194 0.99448615
-1.1504004 0.70995116 -0.07685665 0.99459857
-1.0588964 0.70994139 -0.072481498 0.99490535
-1.0294238 0.72833985 -0.0716938 0.99496049
-1.0293067 0.747832 -0.072333947 0.9949156
-1.0291895 0.76767576 -0.072996788 0.99486905
-1.0289062 0.80849606 -0.074395142 0.99477106
-1.028584 0.85091794 -0.075896226 0.99466592
-1.0284375 0.87278318 -0.076687999 0.99461043
-1.0281055 0.9179492 -0.078358918 0.99449325
-1.0279199 0.94126952 -0.079240911 0.99443144
-6.4430661 6.0504394 -0.50250608 0.96520817
-6.0498533 6.442451 -0.50245732 0.96521145
-5.8023629 6.6654687 -0.50242656 0.9652136
-5.7180467 6.7377243 -0.50241619 0.96521425
-5.5466795 6.8789845 -0.50239491 0.96521574
-5.4596972 6.9480176 -0.50238413 0.9652164
-5.3718066 7.0159082 -0.50237328 0.96521723
-5.2830954 7.0827146 -0.50236225 0.96521801
-5.1936035 7.1483788 -0.50235122 0.96521866
-5.1032224 7.2129102 -0.50234002 0.9652195
-5.0120897 7.2763085 -0.50232869 0.96522021
-4.8274412 7.3996191 -0.50230592 0.96522176
-4.6397362 7.5182614 -0.50228268 0.96522337
-4.4491405 7.6321192 -0.50225908 0.96522492
-4.3527832 7.6872654 -0.50224715 0.9652257
-4.0596385 7.8452735 -0.50221097 0.96522826
-3.9606543 7.8954978 -0.5021987 0.96522897
-3.7608006 7.9921093 -0.50217402 0.96523076
-3.5585938 8.0837307 -0.50214905 0.96523237
-3.4566503 8.1275778 -0.50213647 0.96523333
-3.1476269 8.2514648 -0.50209832 0.96523589
-3.0436132 8.2901659 -0.50208545 0.96523672
-2.3031151 8.5239553 -0.50199407 0.96524286
-2.0880957 8.578681 -0.50196755 0.96524471
-1.9800781 8.6039944 -0.50195426 0.96524566
-1.654248 8.6718063 -0.50191408 0.96524847
-1.4357128 8.7101755 -0.50188714 0.96525025
-1.3261132 8.7272854 -0.50187367 0.96525121
-0.88585937 8.7819529 -0.50181943 0.9652549
-0.55416989 8.8083982 -0.5017786 0.96525759
-0.10921875 8.6917477 -0.4941963 0.96577358
1.953125e-05 8.3975677 -0.47743151 0.96691519
0.62322265 7.0665231 -0.40331569 0.97197849
0.79099607 6.96417 -0.39848274 0.97230953
0.87841797 6.9534082 -0.39846709 0.9723106
1.3130078 6.882988 -0.39837897 0.97231674
1.3993359 6.865654 -0.39836088 0.97231787
1.4854394 6.8472166 -0.39834282 0.97231913
1.5712988 6.8276854 -0.39832464 0.97232038
1.6568944 6.8070993 -0.39830658 0.97232163
1.7422071 6.7854295 -0.39828846 0.97232288
1.9964355 6.7140231 -0.39823416 0.97232664
2.1643457 6.6611423 -0.39819801 0.97232902
2.247793 6.633203 -0.39818525 0.97232997
2.3309178 6.6042576 -0.39817572 0.97233063
2.4137206 6.5744238 -0.39817306 0.97233075
2.4961231 6.5435352 -0.39817047 0.97233093
2.9019725 6.3737011 -0.39815888 0.97233176
2.9818358 6.3366895 -0.39815679 0.97233188
3.0612304 6.2987008 -0.39815482 0.97233194
3.1401172 6.259697 -0.39815292 0.97233212
3.2184863 6.2197165 -0.39815116 0.9723323
3.3737402 6.1368065 -0.39814785 0.9723326
3.526875 6.0500293 -0.39814329 0.97233278
3.6025195 6.0050974 -0.39813387 0.97233343
3.6776268 5.9592185 -0.39812464 0.97233403
3.8260643 5.8646679 -0.39810839 0.97233522
3.8993652 5.8160157 -0.39810047 0.97233576
3.9720507 5.7664356 -0.39809266 0.97233635
4.0441504 5.7159667 -0.39808494 0.97233677
4.2564745 5.5591798 -0.39806259 0.97233826
4.3946776 5.450254 -0.39804831 0.97233927
4.4627247 5.3945017 -0.39804137 0.97233981
4.6626267 5.2222071 -0.39802137 0.97234118
4.7922459 5.1032224 -0.39800879 0.97234201
4.8559079 5.0425196 -0.3980031 0.97234249
4.9809766 4.9187889 -0.39799246 0.97234309
5.0423341 4.855742 -0.39798737 0.97234344
5.2215624 4.6620703 -0.39797279 0.97234452
5.2796969 4.596045 -0.3979682 0.9723447
5.3934178 4.4618163 -0.39795944 0.97234529
5.4599118 4.4024415 -0.39875266 0.97229099
5.5574899 4.2551756 -0.39794165 0.97234654
1.2579395 0.91395503 -0.088401906 0.99378973
1.2583886 0.84369141 -0.08613617 0.9939484
1.2585351 0.82107419 -0.085432544 0.99399763
1.2587988 0.77684569 -0.084098436 0.99409115
1.2589258 0.75524414 -0.083466373 0.99413544
1.2591602 0.71299803 -0.082267798 0.99421936
1.3307421 0.70995116 -0.085750803 0.99397534
1.460791 0.70996094 -0.092339858 0.99351394
1.5087206 0.70994139 -0.094798125 0.99334186
1.6692871 0.70995116 -0.10313205 0.99275869
1.7293359 0.70993161 -0.10628082 0.99253833
1.7931347 0.70995116 -0.10964565 0.99230307
1.8611523 0.70994139 -0.11324852 0.99205106
1.9337499 0.70995116 -0.11711589 0.99178082
2.0240722 0.71437496 -0.1220322 0.99143726
8.4090424 2.6159179 -0.50068241 0.96533215
8.4411917 2.5100195 -0.50067854 0.96533239
8.472002 2.4037206 -0.50067484 0.96533269
8.5014553 2.2970703 -0.50067133 0.96533298
8.6286621 1.7586621 -0.50065625 0.965334
8.6500587 1.6500976 -0.50065374 0.96533406
8.6700678 1.5412598 -0.50065142 0.96533424
8.6887302 1.4321874 -0.50064927 0.96533436
8.7218847 1.2133691 -0.5006454 0.96533471
8.7364454 1.1036816 -0.50064373 0.96533465
8.7495413 0.99378902 -0.50064224 0.96533501
8.7613478 0.88375974 -0.50064087 0.96533495
8.7717476 0.7736035 -0.50063974 0.96533501
8.7883787 0.55291992 -0.50063795 0.96533519
8.7994823 -0.33188477 -0.50063747 0.96533525
8.7946386 -0.4424414 -0.50063819 0.96533513
8.7717476 -0.7736035 -0.50064135 0.96533501
8.7613869 -0.88375974 -0.50064278 0.96533483
8.749609 -0.99379879 -0.50064433 0.96533477
8.7364254 -1.1036816 -0.50064605 0.96533477
8.7219334 -1.2133691 -0.50064796 0.96533453
8.7060251 -1.3228809 -0.50065005 0.96533442
8.6501074 -1.6500976 -0.50065726 0.96533388
8.6060152 -1.8669823 -0.50066292 0.96533346
8.5819235 -1.9749902 -0.50066602 0.96533328
8.5564642 -2.0826855 -0.50066924 0.9653331
8.529707 -2.1900487 -0.5006727 0.96533281
8.4412985 -2.5100391 -0.5006839 0.96533197
8.4091206 -2.6159179 -0.50068796 0.96533191
2.0240722 -0.71438473 -0.12203224 0.99143726
1.7931055 -0.70994139 -0.10964508 0.99230319
1.6693164 -0.70995116 -0.1031316 0.99275857
1.6127245 -0.70994139 -0.10017975 0.99296522
1.4607812 -0.70994139 -0.092339553 0.993514
1.3307323 -0.70994139 -0.085750423 0.9939754
1.2913867 -0.70995116 -0.083783418 0.99411321
1.2591699 -0.71297848 -0.082267798 0.99421936
1.2590625 -0.73395509 -0.082856216 0.99417812
1.2588184 -0.77683592 -0.084098548 0.99409109
1.2586621 -0.79877931 -0.084753759 0.99404526
1.2583984 -0.8437109 -0.086136013 0.99394834
1.2582519 -0.86670899 -0.086864926 0.99389738
1.2579492 -0.91395503 -0.088401943 0.99378967
1.2577929 -0.9382031 -0.089212149 0.99373293
5.3371582 -4.5294237 -0.39797813 0.97234416
5.2799025 -4.5961914 -0.39798525 0.97234374
5.2218261 -4.6622949 -0.39799246 0.97234315
4.2420802 -4.0851073 -0.33482468 0.97668111
4.1540136 -4.102119 -0.3319144 0.97688138
4.0499415 -4.101162 -0.32769477 0.97717208
3.9307127 -4.081748 -0.32216606 0.97755247
3.8815918 -4.1334667 -0.32237753 0.97753829
3.8902147 -4.3570704 -0.3320832 0.97686976
4.5972071 -5.2810154 -0.39806998 0.9723379
4.5305858 -5.3384666 -0.39807823 0.97233731
4.4632421 -5.3950977 -0.39808658 0.97233671
4.3951755 -5.4508691 -0.39809501 0.97233617
4.1868653 -5.6130271 -0.39812082 0.97233438
3.9726074 -5.7672167 -0.39814734 0.9723326
3.7526855 -5.9132419 -0.39817458 0.97233075
3.6781836 -5.9600682 -0.39818376 0.97233009
3.5274022 -6.0509176 -0.39820242 0.97232878
3.4511523 -6.0949121 -0.39821187 0.97232813
3.3743749 -6.1379199 -0.39822134 0.97232759
3.0620117 -6.3003516 -0.39825997 0.97232485
2.9028711 -6.3756051 -0.39827964 0.97232354
2.6606934 -6.4809766 -0.39830956 0.97232151
2.5791309 -6.5140624 -0.39831963 0.9723208
2.4970996 -6.546123 -0.39832973 0.97232014
2.4147265 -6.5771384 -0.3983399 0.97231948
2.3319335 -6.6071386 -0.39835009 0.97231877
2.2487988 -6.6361032 -0.39836037 0.97231799
2.1652734 -6.6640134 -0.39837065 0.97231728
1.9127246 -6.7413964 -0.39840183 0.97231519
1.8279101 -6.7650976 -0.39841229 0.97231442
1.6574023 -6.809248 -0.3984333 0.97231305
1.3996972 -6.8674216 -0.39846507 0.97231084
1.226748 -6.9007812 -0.39848641 0.97230947
1.1399707 -6.9158497 -0.39849707 0.97230864
0.96585935 -6.9426856 -0.39851856 0.97230721
0.79112303 -6.9651365 -0.39854008 0.97230577
0.70355469 -6.9747262 -0.39855087 0.972305
0.52809566 -6.9905663 -0.39857244 0.97230357
-0.17620116 -7.0098047 -0.39865914 0.97229755
-0.26428711 -7.0072265 -0.39866996 0.97229683
-0.35233396 -7.0035448 -0.39868081 0.97229606
-0.44032225 -6.9987497 -0.39869162 0.97229534
-0.61609375 -6.9858594 -0.39871323 0.97229385
-0.70383787 -6.9777536 -0.39872402 0.97229314
-0.79149413 -6.968545 -0.39873481 0.97229236
-0.87902343 -6.9582324 -0.39874557 0.97229165
-0.96642578 -6.9468164 -0.3987563 0.97229093
-1.0536621 -6.9343162 -0.39876699 0.97229022
-1.1407422 -6.9207225 -0.39877769 0.97228944
-1.2276562 -6.9060154 -0.39878836 0.97228873
-1.3143651 -6.890244 -0.39879906 0.97228795
-1.4008985 -6.8733592 -0.39880964 0.97228724
-1.5732812 -6.8363571 -0.39883086 0.97228575
-1.7446581 -6.7950191 -0.39885187 0.97228432
-1.9996777 -6.7249413 -0.39888319 0.97228229
-1.3442578 -3.9669335 -0.23813277 0.98335892
-2.4183104 -6.5869727 -0.39893454 0.97227871
-2.5009472 -6.5562205 -0.39894471 0.97227806
-2.7464941 -6.4578028 -0.39897481 0.97227591
-2.8274803 -6.4229198 -0.3989847 0.97227532
-2.9080467 -6.3870702 -0.39899459 0.97227454
-3.0677636 -6.3122654 -0.39901415 0.97227329
-3.2256055 -6.2334962 -0.39903349 0.97227186
-3.4585059 -6.1079001 -0.39906204 0.97227001
-3.6110742 -6.0193357 -0.39908072 0.97226876
-2.7911425 -3.9449804 -0.27474663 0.98082489
-2.8920801 -3.9806151 -0.27973765 0.98048002
-4.1976953 -5.6275582 -0.39915243 0.97226381
-4.4755468 -5.4099998 -0.3991864 0.97226143
-4.5432811 -5.3534665 -0.39919466 0.97226077
-4.7420897 -5.1787205 -0.39921898 0.97225922
-4.9341993 -4.9965916 -0.3992424 0.97225767
-5.0583982 -4.8711915 -0.39925754 0.97225666
-1.0279101 -0.94124997 -0.079241067 0.99443156
-1.0281055 -0.91791987 -0.078359067 0.99449331
-1.0287597 -0.82949215 -0.075132407 0.99471939
-1.0288867 -0.80849606 -0.074395023 0.99477112
-1.0294141 -0.72833008 -0.071693949 0.99496055
-1.0306641 -0.70994139 -0.071153216 0.9949984
-1.0882324 -0.70994139 -0.073871613 0.99480778
-1.1504004 -0.70995116 -0.076856382 0.99459857
-1.2178613 -0.70994139 -0.080145337 0.99436808
-1.3307421 -0.70993161 -0.085750274 0.9939754
-1.4607714 -0.70993161 -0.09233959 0.99351406
-1.5087402 -0.70994139 -0.094798125 0.9933418
-1.5592871 -0.70994139 -0.097407185 0.99315923
-1.6692773 -0.70996094 -0.10313186 0.99275869
-1.7887597 -0.70822263 -0.10937794 0.99232173
-1.7886523 -0.68231446 -0.1088401 0.99235946
-1.7885742 -0.65666014 -0.10832432 0.99239552
-8.3387203 -2.9430761 -0.50274891 0.96519172
-8.4102144 -2.7326367 -0.50275749 0.96519107
-8.443965 -2.6267676 -0.50276154 0.96519077
-8.5371284 -2.3066895 -0.50277269 0.96519011
-8.565547 -2.1992481 -0.50277603 0.9651897
-8.5925484 -2.091455 -0.50277925 0.96518952
-8.6424904 -1.8748926 -0.50278515 0.9651891
-8.66541 -1.7661523 -0.50278783 0.96518898
-8.6869135 -1.6571192 -0.50279039 0.96518898
-8.7433596 -1.3285546 -0.50279701 0.96518838
-8.7740231 -1.1084082 -0.50280052 0.96518821
-8.7873144 -0.99808592 -0.50280201 0.96518797
-8.7991695 -0.88757813 -0.50280339 0.96518797
-8.8187208 -0.66617185 -0.50280553 0.96518785
-8.8327341 -0.44435546 -0.50280702 0.96518767
-8.8376465 -0.33332032 -0.50280756 0.96518755
-8.8432226 -0.11113281 -0.50280797 0.96518761
-8.4301271 0.10594726 -0.50275689 0.9667812
-8.4281349 0.21186523 -0.50275654 0.9667812
-8.4247656 0.31776366 -0.50275606 0.96678132
-8.4067965 0.63506836 -0.5027535 0.96678138
-8.3981247 0.74063474 -0.5027523 0.9667815
-8.3881445 0.84612304 -0.50275093 0.9667815
-8.3767872 0.95145506 -0.50274944 0.96678174
-8.3641701 1.0566406 -0.50274777 0.96678174
-8.3501949 1.1616601 -0.50274599 0.96678191
-8.3182907 1.3711231 -0.50274181 0.96678221
-8.2605953 1.6836425 -0.50273436 0.96678263
-8.1653709 2.0965233 -0.5027222 0.9667834
-8.1383009 2.1989355 -0.50271881 0.9667837
-8.0494728 2.5040526 -0.50270748 0.96678442
-7.9491992 2.8055859 -0.5026949 0.96678513
-1.7894336 0.65696287 -0.11367519 0.99239069
-1.7895215 0.68262696 -0.11421672 0.99235457
-1.7293066 0.70994139 -0.11147712 0.99253726
-1.6127148 0.70994139 -0.10507805 0.99296409
-1.5592968 0.70996094 -0.10216983 0.9931581
-1.5087109 0.70995116 -0.099433593 0.99334079
-1.4607812 0.70994139 -0.096854478 0.99351293
-1.415293 0.70994139 -0.094420739 0.99367535
-1.3719823 0.70995116 -0.092120476 0.99382901
-1.3307323 0.70995116 -0.089943156 0.99397445
-1.2178711 0.70995116 -0.084064178 0.99436712
-1.1834277 0.70996094 -0.08229664 0.99448526
-1.1504004 0.70995116 -0.080614358 0.99459773
-1.0287597 0.72785157 -0.075149111 0.99496293
-1.0286034 0.74734372 -0.075819433 0.99491817
-1.028457 0.76715821 -0.076513782 0.9948718
-1.0283203 0.78736329 -0.07723324 0.99482369
-1.0281738 0.80793941 -0.077978626 0.99477386
-1.0280175 0.82892579 -0.078750879 0.99472225
-1.0275097 0.89448237 -0.081239469 0.99455595
-6.1422753 5.7679782 -0.50246942 0.96679986
-5.8442478 6.0688672 -0.50243241 0.9668023
-5.611084 6.2844725 -0.5024035 0.96680403
-5.5315528 6.3543553 -0.50239366 0.96680474
-5.2877731 6.55792 -0.50236344 0.96680677
-5.2048435 6.6237106 -0.50235313 0.96680748
-4.9512205 6.8147655 -0.50232172 0.96680939
-4.865088 6.8762989 -0.50231111 0.96681011
-4.7781835 6.9367285 -0.50230032 0.96681088
-4.6021681 7.054316 -0.50227857 0.96681219
-4.5130372 7.1114354 -0.50226754 0.96681297
-4.332705 7.2222753 -0.50224519 0.96681446
-4.1496582 7.3285546 -0.50222254 0.96681589
-4.057158 7.3799415 -0.50221115 0.96681666
-3.870244 7.479248 -0.50218803 0.96681803
-3.7758496 7.5270896 -0.50217634 0.96681893
-3.6808887 7.5737696 -0.50216466 0.96681964
-3.5853417 7.6192675 -0.5021528 0.96682036
-3.3925683 7.7066016 -0.50212902 0.96682191
-2.6015136 8.0066013 -0.50203133 0.96682829
-1.9907031 8.1786127 -0.50195599 0.96683306
-1.6809082 8.2471676 -0.50191784 0.96683568
-1.57708 8.2674313 -0.50190502 0.96683651
-1.4730469 8.2863865 -0.50189221 0.96683735
-1.3687598 8.3040333 -0.50187939 0.96683818
-1.1595898 8.335371 -0.50185359 0.96683991
-0.42277342 8.4034958 -0.50176287 0.96684575
-0.3170996 8.407939 -0.50174987 0.96684659
-9.7656248e-06 8.3975782 -0.50077492 0.96690989
0.19771484 7.8643355 -0.46912512 0.96896851
0.28748047 7.622148 -0.45485678 0.96989793
0.45535156 7.2376852 -0.43245882 0.97135866
0.53878903 7.132246 -0.4265309 0.97174573
0.69974607 6.9370313 -0.41577742 0.97244817
0.77766597 6.8466892 -0.41091564 0.97276592
1.0037011 6.6053805 -0.39842215 0.97358292
1.0865723 6.5919724 -0.39840594 0.973584
1.2549804 6.5786915 -0.39938235 0.97352004
1.3341113 6.5455761 -0.39835808 0.97358704
1.4980567 6.5094137 -0.39832354 0.9735893
1.5796484 6.4897752 -0.39830628 0.97359049
1.6610059 6.4691405 -0.39828902 0.97359163
1.7420897 6.4474902 -0.39827174 0.9735927
2.2224219 6.2968259 -0.39820114 0.97359729
2.3013475 6.2683592 -0.3981986 0.97359747
2.3799121 6.2388964 -0.39819613 0.97359771
2.4581249 6.208457 -0.39819375 0.97359782
2.6903222 6.1113181 -0.3981871 0.97359824
2.9187012 6.0054879 -0.39818123 0.9735986
3.2166991 5.8511329 -0.39817449 0.97359914
3.2899511 5.8102441 -0.39817306 0.9735992
3.3627245 5.7684274 -0.39817172 0.9735992
3.7179492 5.5454001 -0.39813656 0.97360158
3.7872558 5.4981542 -0.39812911 0.97360206
3.8559766 5.4500194 -0.39812174 0.97360253
3.9915819 5.3512011 -0.39810744 0.97360349
4.1246486 5.2490234 -0.39809361 0.97360438
4.4457226 4.9792771 -0.39806119 0.97360653
4.5079103 4.9229393 -0.39805508 0.97360682
4.5693064 4.8658299 -0.39804912 0.97360736
4.6300292 4.8079591 -0.39804325 0.97360772
4.6900196 4.7493358 -0.39803755 0.97360802
5.0340333 4.3822169 -0.3980059 0.9736101
5.0886326 4.3185349 -0.39799926 0.97361052
5.1424317 4.2541795 -0.39799273 0.97361088
5.2438278 4.2282128 -0.4016979 0.97336864
1.2569336 0.93757808 -0.093510322 0.99373615
1.2571094 0.91333008 -0.092661776 0.99379283
1.2575684 0.84314454 -0.090288162 0.99395138
1.2578613 0.7982617 -0.088840254 0.99404806
1.257998 0.77634764 -0.088153876 0.99409395
1.2581249 0.75477535 -0.087491646 0.99413818
1.2582617 0.73349607 -0.086852454 0.99418086
1.2583691 0.71254879 -0.086236149 0.99422204
1.3307421 0.70995116 -0.089943312 0.99397439
1.4152734 0.70995116 -0.094420582 0.99367541
1.460791 0.70996094 -0.096854702 0.99351287
1.5087206 0.70994139 -0.099433362 0.99334079
1.7293359 0.70993161 -0.11147712 0.99253714
1.8611523 0.70994139 -0.11878608 0.99204975
2.0240135 0.71434569 -0.12799484 0.99143612
2.0239942 0.65762693 -0.12690975 0.99150854
8.0484858 2.3932226 -0.500727 0.96691304
8.0778513 2.2919042 -0.50072348 0.96691328
8.132803 2.0881445 -0.50071692 0.9669137
8.158349 1.9857812 -0.50071388 0.96691388
8.1826363 1.8830858 -0.50071102 0.966914
8.2272654 1.6768457 -0.50070572 0.96691442
8.266758 1.4695703 -0.50070113 0.96691459
8.284502 1.3655468 -0.50069904 0.96691489
8.3010054 1.2613477 -0.50069714 0.96691489
8.3161421 1.1569238 -0.50069535 0.96691507
8.3537502 0.84265625 -0.50069106 0.96691543
8.385498 0.42185545 -0.5006876 0.96691561
8.3954201 0.10549805 -0.50068676 0.96691567
8.3960638 -9.7656248e-06 -0.50068676 0.96691573
8.3954296 -0.10550781 -0.50068694 0.96691561
8.3795509 -0.52718747 -0.50068933 0.96691555
8.3722944 -0.63245118 -0.5006904 0.96691543
8.3637009 -0.73761719 -0.50069153 0.96691537
8.3537989 -0.84265625 -0.50069284 0.96691525
8.3300486 -1.0523437 -0.500696 0.96691501
8.3010254 -1.2613281 -0.50069982 0.96691477
8.266777 -1.4695605 -0.50070423 0.96691453
8.227334 -1.6768554 -0.50070935 0.96691412
8.2056341 -1.7801269 -0.5007121 0.96691406
8.1826954 -1.8831054 -0.50071502 0.96691376
8.1328516 -2.0881641 -0.5007214 0.96691346
8.1060839 -2.1902149 -0.50072479 0.96691304
8.0779686 -2.2919238 -0.50072831 0.96691281
8.0179291 -2.4942284 -0.50073594 0.96691239
2.0240135 -0.65764648 -0.12690994 0.99150842
2.0240037 -0.68587887 -0.12743972 0.99147314
2.0240037 -0.71436524 -0.12799476 0.99143612
1.9337305 -0.70995116 -0.12284184 0.99177957
1.8611327 -0.70995116 -0.11878532 0.99204981
1.7293261 -0.70995116 -0.11147659 0.99253714
1.6693164 -0.70995116 -0.1081744 0.99275738
1.3719823 -0.70993161 -0.092120089 0.99382901
1.2581347 -0.75476563 -0.08749149 0.99413818
1.2578418 -0.7982617 -0.088840142 0.99404818
1.2577051 -0.82052732 -0.089551546 0.99400061
1.2575781 -0.84313476 -0.090288348 0.99395138
1.2574023 -0.86614257 -0.091051482 0.99390042
1.2572558 -0.88953125 -0.091842651 0.99384761
1.2570996 -0.91333008 -0.092661858 0.99379289
1.2569238 -0.93756837 -0.093510471 0.99373621
5.1955175 -4.1892285 -0.3979952 0.97361082
5.0887499 -4.3186231 -0.3980085 0.97360998
4.922617 -4.5075779 -0.39802912 0.97360861
4.8656836 -4.56916 -0.39803618 0.97360814
4.1523242 -4.1004786 -0.34800312 0.97688693
3.8798926 -4.13166 -0.33799064 0.97754443
4.383203 -5.0351758 -0.39809602 0.97360426
4.2554588 -5.1439352 -0.39811188 0.97360319
4.190547 -5.1971092 -0.39811993 0.97360271
4.0587988 -5.3009958 -0.39813626 0.97360164
3.9919336 -5.3516893 -0.39814451 0.9736011
3.9244628 -5.4015331 -0.39815289 0.97360057
3.7876463 -5.4987011 -0.39816982 0.97359943
3.6484473 -5.5923729 -0.39818707 0.9735983
3.1435156 -5.8921971 -0.39824951 0.97359425
3.0692968 -5.9313669 -0.39825866 0.97359365
2.919414 -6.0069141 -0.39827719 0.9735924
2.8437598 -6.0432615 -0.39828655 0.9735918
2.7676659 -6.0786619 -0.39829594 0.97359121
2.6141601 -6.1466012 -0.39831489 0.9735899
2.3807812 -6.2412009 -0.39834371 0.97358811
2.3022363 -6.270781 -0.39835343 0.97358745
2.144043 -6.3269725 -0.39837295 0.97358614
2.0644238 -6.3535547 -0.39838275 0.97358555
1.9844824 -6.3791504 -0.39839262 0.97358489
1.8236035 -6.4273338 -0.39841247 0.97358358
1.6616113 -6.4714551 -0.3984324 0.97358227
1.5801953 -6.4919825 -0.39844245 0.97358161
1.4985254 -6.5114841 -0.39845255 0.97358102
1.3344922 -6.5474219 -0.39847279 0.97357965
1.1695899 -6.5792284 -0.39849308 0.97357833
0.92084956 -6.6191502 -0.39852375 0.97357631
0.83761716 -6.6303711 -0.398534 0.97357565
0.58717769 -6.6577539 -0.39856482 0.97357357
0.50347656 -6.6647654 -0.39857513 0.97357297
0.15044922 -3.9889159 -0.23804149 0.98413187
0.10139648 -4.0333495 -0.24059837 0.98396283
9.7656248e-06 -6.6847849 -0.39863712 0.97356892
-0.16799805 -6.6830273 -0.3986578 0.97356755
-0.25197265 -6.6805563 -0.39866808 0.97356689
-0.33588865 -6.6770506 -0.39867842 0.97356617
-0.41977537 -6.6724801 -0.39868873 0.97356546
-0.50361329 -6.6668262 -0.39869902 0.97356492
-0.58735353 -6.6601462 -0.39870936 0.97356421
-0.6710254 -6.6524315 -0.39871964 0.97356343
-0.75458986 -6.6436229 -0.39872992 0.9735629
-0.83804685 -6.6337891 -0.39874014 0.97356218
-0.92135739 -6.62291 -0.39875042 0.97356153
-1.0045313 -6.6109667 -0.39876059 0.97356087
-1.1704102 -6.5839844 -0.398781 0.9735595
-1.2530762 -6.5689354 -0.39879116 0.97355878
-1.3355566 -6.5528126 -0.3988013 0.97355825
-1.4178516 -6.5356836 -0.3988114 0.97355753
-1.5817187 -6.4983201 -0.39883155 0.97355622
-1.663291 -6.4781055 -0.39884153 0.97355551
-1.7445996 -6.4568553 -0.39885154 0.97355485
-1.825664 -6.4345798 -0.39886147 0.97355419
-1.9064159 -6.4112887 -0.39887136 0.97355354
-1.2886328 -3.9660254 -0.24867971 0.98342872
-1.3442578 -3.9669335 -0.24977611 0.9833563
-2.4626954 -6.2200875 -0.39893961 0.97354913
-2.6183593 -6.1565137 -0.39895868 0.97354788
-2.695586 -6.1232715 -0.39896816 0.97354728
-2.7723632 -6.0890622 -0.39897758 0.97354668
-2.8487303 -6.0538864 -0.39898697 0.97354603
-2.9246581 -6.0177441 -0.39899623 0.97354543
-3.0001073 -5.9806738 -0.3990055 0.97354478
-3.0750976 -5.9426365 -0.39901468 0.97354418
-3.1496093 -5.9036622 -0.3990238 0.97354358
-3.2971289 -5.8229198 -0.39904186 0.97354239
-3.3700976 -5.7811422 -0.39905077 0.97354186
-3.4425683 -5.7384667 -0.39905968 0.97354126
-3.5144823 -5.6948729 -0.39906844 0.97354072
-3.5858397 -5.6503806 -0.39907721 0.97354013
-2.7312889 -4.0737791 -0.29248157 0.98053843
-2.7409277 -3.9791601 -0.28813723 0.98082465
-4.0017772 -5.364912 -0.39912808 0.97353679
-4.068965 -5.3142872 -0.39913628 0.97353637
-4.1355176 -5.2628512 -0.39914444 0.97353578
-4.5825095 -4.8798633 -0.39919901 0.97353214
-4.6435447 -4.8219824 -0.39920646 0.97353172
-4.703867 -4.7633591 -0.39921382 0.97353113
-4.7634277 -4.7039452 -0.39922106 0.97353077
-4.8222556 -4.6437988 -0.39922825 0.97353023
-4.2321191 -3.9742284 -0.34620848 0.97700477
-1.0271777 -0.94056636 -0.083054006 0.99443465
-1.0273535 -0.91726559 -0.082130238 0.99449641
-1.0275097 -0.89447266 -0.081239432 0.99455601
-1.027871 -0.85031247 -0.079550818 0.99466878
-1.0280273 -0.82892579 -0.078750491 0.99472225
-1.028164 -0.80792969 -0.077978477 0.99477392
-1.0283105 -0.78735352 -0.07723324 0.99482375
-1.1504004 -0.70995116 -0.080614164 0.99459773
-1.2538086 -0.70995116 -0.08592277 0.99424297
-1.4152734 -0.70994139 -0.094420351 0.99367541
-1.5087402 -0.70994139 -0.099433057 0.99334073
-1.5592871 -0.70994139 -0.1021696 0.99315816
-1.6127148 -0.70996094 -0.10507793 0.99296409
-1.7293164 -0.70995116 -0.11147694 0.9925372
-1.7895312 -0.68264645 -0.11421654 0.99235451
-1.7894434 -0.65697265 -0.11367515 0.99239063
-8.0495605 -2.504082 -0.50271291 0.96678406
-8.0804586 -2.4027441 -0.50271654 0.96678376
-8.1100588 -2.3010254 -0.50272012 0.96678358
-8.1383886 -2.1989453 -0.50272352 0.9667834
-8.1911812 -1.9937695 -0.50272977 0.96678299
-8.2387991 -1.7873144 -0.50273538 0.96678257
-8.2811813 -1.579707 -0.50274038 0.96678233
-8.3004293 -1.4755468 -0.50274265 0.96678209
-8.3183498 -1.3711133 -0.50274473 0.96678197
-8.3641987 -1.0566406 -0.50275004 0.96678162
-8.3981638 -0.74064451 -0.50275391 0.96678132
-8.406826 -0.63505858 -0.50275487 0.96678126
-8.4201269 -0.42358398 -0.50275624 0.96678126
-8.4248047 -0.31774414 -0.50275671 0.9667812
-8.0538177 0.1012207 -0.50271064 0.96823496
-8.0518942 0.20240234 -0.50271028 0.96823502
-8.0442572 0.40469727 -0.50270909 0.96823502
-8.0385056 0.50575197 -0.50270832 0.96823514
-8.0314941 0.60671872 -0.50270736 0.96823525
-8.023242 0.7075879 -0.50270623 0.96823519
-8.0136814 0.80834961 -0.50270492 0.96823537
-7.9628415 1.2099512 -0.50269824 0.96823579
-7.9469919 1.3099121 -0.50269616 0.96823585
-7.9298534 1.4096582 -0.50269395 0.96823603
-7.870986 1.7075391 -0.50268644 0.96823645
-7.8255172 1.9047558 -0.5026806 0.96823674
-7.8008981 2.0029297 -0.5026775 0.96823698
-7.7750583 2.100791 -0.50267422 0.96823722
-7.7479782 2.1983008 -0.50267076 0.96823746
-7.690166 2.3922851 -0.50266343 0.968238
-7.6275096 2.5847363 -0.50265551 0.96823841
-1.7903906 0.68297851 -0.11960068 0.99234957
-1.7905176 0.70890623 -0.12019245 0.99231172
-1.7293066 0.70994139 -0.11667518 0.99253601
-1.6692969 0.70994139 -0.11321884 0.99275625
-1.5592968 0.70995116 -0.10693416 0.99315691
-1.5087011 0.70994139 -0.1040699 0.99333972
-1.4607812 0.70994139 -0.10137092 0.99351186
-1.3719823 0.70995116 -0.096415669 0.99382794
-1.3307323 0.70995116 -0.094137497 0.99397343
-1.2538086 0.70995116 -0.089929581 0.99424201
-1.1834277 0.70996094 -0.086133994 0.99448431
-1.1504004 0.70995116 -0.084373437 0.99459678
-1.0306641 0.70996094 -0.078112297 0.99499673
-1.0280468 0.72735351 -0.078600883 0.99496555
-1.0279199 0.74682617 -0.079301529 0.99492073
-1.0276172 0.78681642 -0.08077915 0.99482638
-1.0274707 0.80737305 -0.081558034 0.99477661
-1.0269629 0.87154293 -0.084067918 0.99461633
-1.0264159 0.93987304 -0.086862639 0.99443781
-5.8682227 5.510654 -0.50243592 0.968252
-5.7984276 5.583838 -0.50242728 0.9682526
-5.6560645 5.7275977 -0.50240964 0.96825367
-5.5835547 5.7981153 -0.50240064 0.96825421
-5.5101271 5.8677149 -0.50239152 0.96825486
-5.4358788 5.936377 -0.50238228 0.9682554
-5.2079883 6.1366992 -0.50235403 0.96825713
-5.0519137 6.2653904 -0.50233471 0.96825838
-4.9726954 6.3282614 -0.50232488 0.96825898
-4.730361 6.5108008 -0.5022949 0.96826082
-4.6480956 6.5696092 -0.50228471 0.96826136
-4.396904 6.739707 -0.50225359 0.96826333
-4.0523829 6.9515133 -0.50221097 0.96826601
-3.6976562 7.1457224 -0.50216717 0.96826875
-3.5167675 7.236074 -0.50214481 0.96827006
-3.4254785 7.2795215 -0.50213349 0.96827084
-3.1484473 7.4029589 -0.50209928 0.96827298
-3.0551074 7.4417577 -0.50208777 0.9682737
-2.9612792 7.4793944 -0.50207615 0.96827441
-2.8670311 7.5158396 -0.50206453 0.96827507
-2.7722657 7.551084 -0.50205284 0.9682759
-2.5815136 7.6180172 -0.5020293 0.96827734
-2.3891504 7.6801171 -0.50200558 0.96827883
-2.1953125 7.7373729 -0.50198168 0.96828026
-2.0978515 7.7641501 -0.50196964 0.96828103
-1.7049218 7.8590136 -0.50192118 0.96828395
-1.6059862 7.8795896 -0.50190902 0.9682849
-1.3077637 7.9339547 -0.50187224 0.96828711
-1.0077343 7.9770212 -0.50183529 0.96828938
-0.80689454 7.9994431 -0.50181055 0.96829093
-0.6056152 8.0167866 -0.50178576 0.96829247
-0.50478512 8.0235643 -0.50177336 0.96829325
-0.30298826 8.0333395 -0.5017485 0.96829474
9.7656248e-06 8.0384474 -0.50171125 0.96829706
0.10100586 8.0376167 -0.50169885 0.96829784
0.28748047 7.622148 -0.47606695 0.96989286
0.37200195 7.3942184 -0.46208739 0.97076398
0.45536131 7.2376757 -0.45262393 0.97135389
0.53878903 7.132246 -0.44642034 0.97174102
0.61997068 7.0296679 -0.44045231 0.97211349
0.6990332 6.9297752 -0.43470955 0.97247201
0.77605468 6.8324313 -0.42918128 0.9728173
0.85165036 6.7414255 -0.42410263 0.97313458
0.92562497 6.6535153 -0.4192704 0.97343653
1.137959 6.4013867 -0.40579978 0.97427899
1.2746484 6.2538476 -0.39835152 0.97474498
1.3530761 6.2370801 -0.39833593 0.97474605
1.7416894 6.1386032 -0.39825651 0.97475094
1.8186133 6.1159668 -0.39824003 0.97475201
1.8952929 6.0925193 -0.39823207 0.97475249
2.0477636 6.0428805 -0.3982268 0.97475284
2.1235352 6.0166306 -0.39822429 0.97475302
2.3487303 5.9322362 -0.39821723 0.97475338
2.4970312 5.8712597 -0.39821288 0.97475374
2.8607128 5.7027535 -0.39820352 0.97475427
2.9321387 5.666328 -0.39820188 0.97475439
3.143584 5.5517478 -0.39819747 0.97475457
3.2130663 5.5117674 -0.39819616 0.97475481
3.2820897 5.4709373 -0.39819494 0.97475481
3.6188378 5.2536325 -0.39816234 0.97475684
3.7495897 5.1608591 -0.39814842 0.97475767
3.8779492 5.064795 -0.39813498 0.97475868
4.0038671 4.9656053 -0.39812198 0.97475946
4.127285 4.8632617 -0.39810944 0.97476017
4.1879978 4.8109469 -0.39810339 0.97476053
4.5380759 4.4814062 -0.39806685 0.9747628
4.5939646 4.4239354 -0.39806002 0.97476327
4.6491113 4.3658009 -0.39805329 0.97476363
4.7035251 4.306953 -0.39804667 0.97476411
4.7969041 4.2829099 -0.40136343 0.97455651
4.902041 4.2673044 -0.4056423 0.97428882
5.3461328 4.2009668 -0.42436564 0.97311819
5.463613 4.1833005 -0.42948318 0.97279841
1.2562402 0.91272461 -0.096917152 0.99379599
1.2564257 0.88894528 -0.096060939 0.99385059
1.2565918 0.86556637 -0.095234334 0.9939034
1.2567383 0.84258789 -0.094436526 0.99395436
1.2569042 0.81998044 -0.093666345 0.99400347
1.257041 0.79775387 -0.092922859 0.99405092
1.257334 0.75428706 -0.091512986 0.99414086
1.2575879 0.71209961 -0.090200648 0.99422467
1.3307421 0.70995116 -0.094137266 0.99397337
1.460791 0.70996094 -0.10137085 0.9935118
1.5087304 0.70994139 -0.1040699 0.9933396
1.6127343 0.70993161 -0.10997787 0.99296284
1.7293359 0.70993161 -0.11667526 0.99253589
1.7931347 0.70995116 -0.12036914 0.99230051
2.0239258 0.71432614 -0.13395828 0.99143505
2.0239356 0.65761715 -0.13282302 0.99150735
7.6613183 2.3833008 -0.50077462 0.96835524
7.8407125 1.7009569 -0.50075328 0.96835667
7.8614354 1.6022851 -0.50075084 0.96835679
7.9318848 1.2052538 -0.50074261 0.96835726
7.9715915 0.90542966 -0.50073802 0.96835762
8.0126467 0.40310547 -0.50073349 0.96835786
8.0221291 0.10081054 -0.50073266 0.96835792
8.0227633 -0 -0.50073266 0.96835792
8.0171089 -0.30237305 -0.50073373 0.96835774
8.0069818 -0.50375974 -0.50073516 0.96835774
8.0000095 -0.60432613 -0.50073618 0.9683578
7.971611 -0.90542966 -0.50073999 0.9683575
7.959619 -1.005537 -0.50074154 0.96835744
7.9319043 -1.2052636 -0.50074518 0.96835721
7.9161716 -1.304834 -0.5007472 0.96835703
7.8991599 -1.4042187 -0.50074941 0.96835703
7.8188281 -1.7993652 -0.50075972 0.96835619
7.7956247 -1.8974901 -0.50076264 0.96835613
7.7455759 -2.0928321 -0.50076902 0.96835572
7.6906834 -2.2868261 -0.50077599 0.96835518
2.0239258 -0.65761715 -0.13282318 0.99150735
2.0239356 -0.68584961 -0.13337764 0.99147201
2.0239453 -0.71431637 -0.13395821 0.99143499
1.8611327 -0.70995116 -0.12432419 0.9920485
1.6693164 -0.70995116 -0.11321827 0.99275619
1.6127245 -0.70994139 -0.10997764 0.9929629
1.5592968 -0.70996094 -0.10693351 0.99315691
1.4152734 -0.70995116 -0.098823205 0.99367434
1.3719823 -0.70993161 -0.096415594 0.993828
1.3307323 -0.70994139 -0.09413711 0.99397343
1.2575879 -0.71208984 -0.090200648 0.99422473
1.2574804 -0.73301756 -0.090845145 0.99418354
1.2571875 -0.77583981 -0.09220539 0.99409676
1.256914 -0.81998044 -0.093666226 0.99400342
1.256748 -0.84257811 -0.094436489 0.9939543
1.2565918 -0.8655566 -0.095234334 0.9939034
1.2560742 -0.93693358 -0.097804375 0.99373937
5.0908885 -3.8978906 -0.40018415 0.97463042
4.9137692 -4.0650001 -0.39802974 0.97476518
4.7572947 -4.247539 -0.39804921 0.97476393
4.7036328 -4.3070407 -0.39805588 0.97476357
4.649209 -4.3658786 -0.39806259 0.97476315
4.2362013 -4.0794435 -0.36706269 0.97670543
4.1506443 -4.0988278 -0.36408523 0.97689229
3.8782032 -4.1298728 -0.35359648 0.97755027
3.8974609 -4.2562985 -0.36020079 0.9771359
4.1881833 -4.8111229 -0.39811981 0.97475958
4.0040917 -4.9658594 -0.39814261 0.97475809
3.5528514 -5.2991405 -0.39819852 0.97475469
3.4860644 -5.3434863 -0.39820677 0.97475415
3.3508203 -5.4296288 -0.39822349 0.97475308
3.1440039 -5.5524316 -0.39824909 0.97475147
3.0740526 -5.5916114 -0.3982577 0.97475094
3.0035839 -5.6299219 -0.39826643 0.97475046
2.9326854 -5.6673532 -0.39827523 0.97474986
2.8612792 -5.7038965 -0.39828399 0.97474927
2.644453 -5.8080564 -0.39831081 0.97474766
2.5713184 -5.8409567 -0.39831984 0.97474712
2.2748046 -5.9633203 -0.39835644 0.9747448
2.1997266 -5.9915719 -0.39836571 0.97474426
2.1243165 -6.0189061 -0.398375 0.9747436
2.0485644 -6.0452442 -0.39838439 0.97474307
1.896084 -6.0951071 -0.3984032 0.97474188
1.819414 -6.1185937 -0.39841264 0.97474128
1.7424219 -6.1411328 -0.39842215 0.97474068
1.6651562 -6.1626854 -0.39843169 0.97474009
1.5098242 -6.2029004 -0.39845085 0.97473884
1.353545 -6.2391696 -0.39847007 0.97473764
1.2750391 -6.2558298 -0.39847976 0.97473711
0.95920897 -6.3126268 -0.39851868 0.9747346
0.64088863 -6.353457 -0.39855787 0.97473222
0.56101561 -6.3611817 -0.39856774 0.9747315
0.25244141 -4.0124803 -0.25093058 0.98401618
0.20037109 -3.982744 -0.2488936 0.98414487
0.15044922 -3.9889159 -0.24914108 0.98412919
0.10139648 -4.0333495 -0.25181767 0.98396015
0.080273435 -6.3863087 -0.39862692 0.97472787
2.9296874e-05 -6.3869629 -0.39863676 0.97472727
-0.080234371 -6.3866305 -0.39864665 0.97472662
-0.32094726 -6.3795214 -0.39867625 0.97472483
-0.40108398 -6.3751559 -0.39868614 0.97472417
-0.4811621 -6.3697457 -0.39869598 0.97472364
-0.56121093 -6.363379 -0.39870581 0.97472292
-0.80070311 -6.3381834 -0.39873526 0.97472101
-0.88028318 -6.3277636 -0.39874503 0.97472048
-0.95976561 -6.3163376 -0.39875481 0.97471994
-1.2760448 -6.2607713 -0.39879364 0.97471744
-1.3546484 -6.2443848 -0.39880332 0.97471684
-1.433037 -6.2270312 -0.39881292 0.97471619
-1.5891503 -6.1893358 -0.39883211 0.97471505
-1.6668359 -6.1690235 -0.39884162 0.97471446
-1.7442676 -6.1477442 -0.39885116 0.97471386
-1.2886328 -3.9660254 -0.26027519 0.98342592
-1.3442578 -3.9669335 -0.26142287 0.9833535
-2.12708 -6.0267868 -0.39889812 0.97471094
-2.2027051 -5.9997168 -0.39890739 0.9747104
-2.2779882 -5.9717088 -0.39891663 0.97470975
-2.35291 -5.9427633 -0.39892581 0.97470915
-2.4274414 -5.9128513 -0.39893493 0.97470862
-2.6487694 -5.8175583 -0.39896208 0.97470689
-2.7942383 -5.749414 -0.3989799 0.97470582
-2.9379785 -5.6776366 -0.39899752 0.97470468
-3.0091698 -5.6403904 -0.39900628 0.97470409
-3.0798829 -5.6022558 -0.39901489 0.97470355
-3.1500878 -5.5632224 -0.3990235 0.97470307
-3.2197948 -5.5233107 -0.39903203 0.9747026
-3.2890234 -5.4825292 -0.39904052 0.97470206
-3.357744 -5.4408789 -0.39904892 0.97470152
-3.4935546 -5.3550196 -0.39906555 0.97470039
-2.7312987 -4.0737696 -0.30611956 0.98053515
-2.7911425 -3.9449804 -0.3016178 0.98081863
-3.823281 -5.1256151 -0.39910588 0.97469789
-3.8874805 -5.0772557 -0.39911368 0.97469741
-4.0139842 -4.9781446 -0.39912918 0.97469652
-4.1990137 -4.8236036 -0.39915174 0.97469503
-4.3780565 -4.6621385 -0.39917362 0.97469378
-1.0264159 -0.93986326 -0.086862601 0.99443781
-1.0265918 -0.91660154 -0.085897177 0.9944995
-1.0276269 -0.78680664 -0.080779225 0.99482638
-1.0280371 -0.72736329 -0.078600846 0.99496561
-1.0589062 -0.70995116 -0.079570197 0.99490362
-1.0882324 -0.70994139 -0.081096344 0.99480611
-1.1187011 -0.70996094 -0.082695924 0.99470389
-1.1504004 -0.70995116 -0.084373012 0.99459678
-1.1834277 -0.70994139 -0.086133763 0.99448436
-1.2178613 -0.70994139 -0.087983705 0.99436623
-1.2538086 -0.70995116 -0.08992935 0.99424201
-1.4607714 -0.70993161 -0.10137058 0.99351192
-1.6127148 -0.70996094 -0.10997783 0.9929629
-1.6693164 -0.70996094 -0.11321869 0.99275619
-1.7904882 -0.70891601 -0.1201926 0.99231184
-1.7903124 -0.65729493 -0.11903308 0.99238569
-7.5944724 -2.6804004 -0.50265706 0.96823823
-7.6275878 -2.5847754 -0.50266105 0.96823812
-7.6595407 -2.4887304 -0.50266486 0.96823782
-7.6902733 -2.3923047 -0.50266856 0.96823752
-7.7197556 -2.2954881 -0.50267208 0.96823746
-7.7480564 -2.1983202 -0.50267547 0.96823716
-7.7751074 -2.1008008 -0.50267869 0.96823704
-7.8009567 -2.0029492 -0.50268173 0.96823674
-7.8255467 -1.9047656 -0.50268465 0.96823663
-7.848906 -1.8062987 -0.50268745 0.96823645
-7.8710351 -1.7075293 -0.50269008 0.96823627
-7.8918943 -1.6084961 -0.50269252 0.96823615
-7.9628611 -1.2099512 -0.50270081 0.96823567
-7.9774804 -1.1097949 -0.50270253 0.96823549
-8.0029297 -0.90898436 -0.50270545 0.96823519
-8.0315237 -0.60671872 -0.50270861 0.96823514
-8.0385542 -0.50574219 -0.50270939 0.96823496
-8.0487204 -0.30356446 -0.5027104 0.96823502
-8.0519037 -0.20239258 -0.5027107 0.96823496
-8.0537987 -0.10120117 -0.50271082 0.96823502
-7.6949019 0.48413086 -0.50266606 0.96956676
-7.6881833 0.580791 -0.5026651 0.96956688
-7.671123 0.77379882 -0.50266278 0.969567
-7.6492381 0.96631831 -0.50265992 0.96956706
-7.6364746 1.062373 -0.50265825 0.96956712
-7.6224804 1.1582421 -0.5026564 0.9695673
-7.6072946 1.253916 -0.50265443 0.96956742
-7.5345211 1.6345507 -0.50264508 0.96956807
-7.5133691 1.729082 -0.50264239 0.96956813
-7.4427242 2.0109863 -0.50263339 0.96956873
-7.3897262 2.1973729 -0.50262666 0.96956915
-7.3614841 2.2900293 -0.50262308 0.96956933
-7.3320799 2.3823438 -0.50261939 0.9695695
-7.3014941 2.4742577 -0.50261551 0.9695698
-1.7912695 0.68329102 -0.12499138 0.9923445
-1.7913476 0.70925778 -0.12561043 0.99230677
-1.6692969 0.70994139 -0.11826469 0.992755
-1.6127148 0.70994139 -0.11487968 0.99296165
-1.5087011 0.70994139 -0.10870804 0.99333858
-1.4152832 0.70994139 -0.1032278 0.99367321
-1.3719823 0.70995116 -0.100713 0.99382687
-1.3307323 0.70995116 -0.098332897 0.99397236
-1.2913965 0.70995116 -0.096077383 0.99411017
-1.2538086 0.70995116 -0.093937531 0.994241
-1.2178711 0.70995116 -0.091905288 0.99436516
-1.1187109 0.70995116 -0.086381756 0.99470294
-1.0588964 0.70994139 -0.083116569 0.99490273
-1.0306641 0.70996094 -0.081593663 0.99499583
-1.0273731 0.7268945 -0.082049064 0.99496794
-1.0270801 0.76611328 -0.083537139 0.99487692
-1.026914 0.78627926 -0.084321439 0.994829
-1.026582 0.82776368 -0.085975759 0.99472779
-1.0264159 0.84913087 -0.086848222 0.99467444
-1.0262402 0.87092769 -0.087752149 0.99461913
-1.0260546 0.89319336 -0.088688888 0.99456185
-5.6175098 5.2751951 -0.50240535 0.96958232
-5.5506735 5.345293 -0.50239706 0.96958286
-5.4144239 5.4828906 -0.50238013 0.96958387
-5.1317577 5.7476268 -0.50234509 0.96958584
-4.985498 5.8745508 -0.50232697 0.96958703
-4.911201 5.9366307 -0.50231773 0.96958756
-4.8361034 5.9977636 -0.50230843 0.96958816
-4.6837206 6.1171679 -0.50228959 0.96958917
-4.5283203 6.2326951 -0.50227028 0.96959043
-4.4495606 6.2889938 -0.50226057 0.96959096
-4.2899508 6.3985543 -0.50224084 0.96959215
-4.2091308 6.4518552 -0.50223082 0.96959263
-4.1276169 6.5040917 -0.50222069 0.96959335
-4.0454783 6.5553317 -0.50221056 0.96959388
-3.8793066 6.6546383 -0.50218999 0.96959519
-3.7953026 6.7027245 -0.50217962 0.96959579
-3.6255078 6.7957029 -0.50215864 0.96959704
-3.4534373 6.8843846 -0.50213736 0.96959829
-3.3665819 6.9270701 -0.50212663 0.96959895
-3.2792187 6.9686813 -0.50211585 0.96959955
-3.1913183 7.0091796 -0.502105 0.96960026
-3.0140135 7.086875 -0.50208306 0.96960151
-2.9246678 7.124033 -0.50207204 0.96960217
-2.7446094 7.1949315 -0.5020498 0.9696036
-2.6539257 7.2287207 -0.50203866 0.96960413
-2.4712987 7.2927928 -0.50201607 0.96960557
-2.3794239 7.3231053 -0.50200474 0.96960622
-2.194541 7.3802633 -0.50198197 0.96960753
-1.9146875 7.4571972 -0.5019474 0.96960968
-1.820791 7.4805079 -0.5019359 0.96961033
-1.7265917 7.5026269 -0.50192422 0.96961099
-1.6321582 7.5235543 -0.50191259 0.9696117
-1.5374414 7.5433006 -0.50190091 0.96961236
-1.0606347 7.624043 -0.5018422 0.96961594
-0.67617184 7.6669922 -0.50179482 0.96961874
-0.57976562 7.6747069 -0.50178295 0.96961939
-0.3866699 7.6865039 -0.50175917 0.96962076
-0.1933789 7.6934371 -0.50173539 0.96962214
-9.7656248e-06 7.6954784 -0.50171161 0.96962368
