# .PCD v0.7 - Point Cloud Data file format
VERSION 0.7
FIELDS x y z intensity
SIZE 4 4 4 4
TYPE F F F F
COUNT 1 1 1 1
WIDTH 1084
HEIGHT 1
VIEWPOINT 0 0 0 1 0 0 0
POINTS 1084
DATA ascii
1.8820508 -5.5540333 -0.39864102 0.97676313
1.3151073 -5.7146387 -0.39862415 0.97676402
1.1710839 -5.7458005 -0.39861986 0.97676438
1.0262988 -5.7733593 -0.39861557 0.97676456
0.88087887 -5.7972655 -0.39861122 0.97676486
0.66174805 -5.8262596 -0.39860466 0.97676516
0.51510739 -5.8409762 -0.39860025 0.97676545
0.44165039 -5.8469629 -0.3985981 0.97676557
0.36814451 -5.8520312 -0.39859584 0.97676563
0.29458007 -5.8561621 -0.39859366 0.97676575
0.14732422 -5.8616405 -0.39858925 0.97676605
-1.953125e-05 -5.8634176 -0.39858481 0.97676635
-0.14736328 -5.8615036 -0.3985804 0.97676659
-0.15198241 -4.0290723 -0.27408326 0.98396498
-0.25056639 -3.9824023 -0.27125016 0.98412937
-0.30324218 -4.0140719 -0.2736471 0.98399031
-0.73483396 -5.816865 -0.3985627 0.9767676
-0.80790037 -5.8071384 -0.39856046 0.97676772
-0.88080078 -5.7965035 -0.39855826 0.97676784
-0.95355469 -5.7849412 -0.39855608 0.97676796
-1.0986133 -5.7590818 -0.3985517 0.97676826
-1.1708887 -5.7448044 -0.39854953 0.97676831
-1.242998 -5.7295899 -0.39854732 0.97676849
-1.3148828 -5.7135057 -0.39854515 0.97676855
-1.4580468 -5.6785936 -0.39854082 0.97676879
-1.5292578 -5.6597753 -0.39853865 0.97676903
-1.6709961 -5.6195116 -0.39853436 0.97676921
-1.7414649 -5.5980272 -0.39853221 0.97676939
-1.8815722 -5.5524511 -0.39852798 0.97676957
-2.0894921 -5.4775 -0.39852163 0.97676992
-1.6489453 -4.0164843 -0.29514524 0.98274338
-1.6897949 -3.9731152 -0.29349607 0.98283899
-2.4292285 -5.335371 -0.39851126 0.97677046
-2.7593651 -5.1721678 -0.39850119 0.97677112
-2.8241601 -5.1370606 -0.39849922 0.97677118
-3.015703 -5.0268946 -0.39849335 0.97677153
-3.1410546 -4.9494824 -0.39848948 0.97677171
-3.3856738 -4.7853122 -0.39848197 0.97677225
-3.5048339 -4.6986618 -0.39847827 0.97677249
-3.5635839 -4.6542382 -0.39847648 0.97677255
-3.1880956 -3.9538574 -0.34526408 0.97984278
-3.7928612 -4.4692283 -0.39846939 0.97677296
-3.9039745 -4.3724804 -0.39846596 0.97677308
-3.9585838 -4.3230567 -0.39846426 0.9767732
-4.0125585 -4.2729392 -0.39846259 0.97677338
-4.0659375 -4.222158 -0.39846092 0.97677344
-4.1707029 -4.1186328 -0.39845768 0.97677362
-4.2221189 -4.0658689 -0.39845607 0.97677374
-1.0255274 -0.870332 -0.091431886 0.99462187
-1.0258789 -0.82719725 -0.08958248 0.99473041
-1.0260742 -0.80626953 -0.088706054 0.99478179
-1.0262402 -0.78575194 -0.087859914 0.99483144
-1.0263965 -0.765625 -0.087043263 0.99487936
-1.0266992 -0.72640622 -0.085493848 0.99497032
-1.0589453 -0.70998043 -0.086663932 0.99490154
-1.0882519 -0.70996094 -0.088326335 0.99480408
-1.1187304 -0.70997071 -0.090068392 0.99470186
-1.1504394 -0.70997071 -0.091895372 0.99459469
-1.2914257 -0.70998043 -0.10017784 0.99410892
-1.3307519 -0.70997071 -0.10252975 0.99397111
-1.3719921 -0.70996094 -0.10501125 0.99382567
-1.415293 -0.70997071 -0.1076337 0.99367195
-1.6693262 -0.70997071 -0.12331226 0.99275351
-1.7293457 -0.70997071 -0.12707695 0.99253315
-1.7922559 -0.70962888 -0.13103534 0.99230146
-1.7921777 -0.68365234 -0.13038941 0.99233919
-6.9562597 -2.4551463 -0.50146198 0.97085774
-7.0966406 -2.0134962 -0.50145733 0.97085798
-7.121367 -1.9241797 -0.5014565 0.97085798
-7.1449609 -1.8345116 -0.50145566 0.9708581
-7.1887693 -1.6543945 -0.50145417 0.97085822
-7.2280564 -1.4732128 -0.5014528 0.97085828
-7.245996 -1.3822558 -0.50145215 0.97085834
-7.2627926 -1.2911035 -0.50145155 0.97085834
-7.2784472 -1.1997266 -0.50145102 0.97085834
-7.3062596 -1.0164453 -0.50145 0.97085845
-7.3294921 -0.83251953 -0.50144905 0.97085845
-7.339375 -0.74033201 -0.50144869 0.97085845
-7.3620505 -0.46319336 -0.50144768 0.97085851
-7.3672752 -0.37064451 -0.50144744 0.97085857
-7.3713279 -0.27802733 -0.50144726 0.97085869
-7.0859571 0.089042969 -0.50145543 0.97198302
-7.0842872 0.17805664 -0.50145537 0.97198302
-7.0725389 0.4449414 -0.50145543 0.97198302
-7.0591502 0.62254882 -0.50145566 0.9719829
-7.0507712 0.71119142 -0.50145584 0.9719829
-7.0412598 0.7997461 -0.50145602 0.97198296
-7.0306444 0.88816404 -0.5014562 0.97198302
-7.0189548 0.97643554 -0.5014565 0.9719829
-7.0061035 1.0645605 -0.5014568 0.97198302
-6.9921875 1.1525097 -0.5014571 0.97198296
-6.9771776 1.2403027 -0.50145745 0.97198284
-6.9610348 1.3278711 -0.50145787 0.9719829
-6.8412595 1.848457 -0.50146091 0.97198278
-6.8174901 1.9342773 -0.50146151 0.97198278
-6.7398047 2.1898632 -0.50146359 0.97198254
-1.7930371 0.68393552 -0.13579437 0.99233413
-1.7931249 0.70992184 -0.13646781 0.99229634
-1.5593262 0.70992184 -0.12123657 0.9931531
-1.5087402 0.70993161 -0.11798942 0.99333596
-1.4608105 0.70993161 -0.11492946 0.99350816
-1.4153028 0.70992184 -0.11204135 0.99367076
-1.3307421 0.70992184 -0.10672805 0.9939701
-1.2914159 0.70992184 -0.10428028 0.99410796
-1.2178906 0.70992184 -0.099751852 0.99436307
-1.15042 0.70993161 -0.095658265 0.9945938
-1.0882617 0.70992184 -0.091943473 0.99480319
-1.0307031 0.70993161 -0.088560022 0.99499393
-1.0260156 0.72589844 -0.088935547 0.99497277
-1.0255274 0.78516603 -0.091395296 0.99483413
-1.0253515 0.80567384 -0.092274778 0.99478453
-1.0249902 0.84790039 -0.09412998 0.99467993
-1.0247949 0.8696484 -0.095108338 0.99462479
-5.1050487 4.9160838 -0.50150979 0.97198009
-5.0428905 4.9798727 -0.50151157 0.97197998
-4.7203221 5.286787 -0.50152093 0.9719795
-4.6535544 5.3457127 -0.5015229 0.97197932
-4.5860353 5.403789 -0.50152487 0.9719792
-4.5177536 5.4610157 -0.50152683 0.97197914
-4.3791504 5.5728612 -0.50153089 0.9719789
-4.2377343 5.681201 -0.501535 0.97197866
-4.1660352 5.7340231 -0.50153714 0.97197855
-4.0206637 5.8369627 -0.50154138 0.97197831
-3.7978613 5.9844432 -0.50154793 0.97197789
-3.6462986 6.0780172 -0.5015524 0.97197777
-3.5696678 6.1233983 -0.50155461 0.97197759
-3.4146678 6.2112403 -0.5015592 0.97197729
-3.2575586 6.2951269 -0.50156385 0.97197706
-2.9371874 6.4509668 -0.50157326 0.97197658
-2.6920116 6.5571876 -0.50158054 0.97197616
-2.6093946 6.5905271 -0.50158298 0.97197604
-2.5263867 6.6228123 -0.50158542 0.97197598
-2.3591895 6.6842871 -0.50159037 0.97197568
-2.275039 6.7134471 -0.50159287 0.97197545
-2.1055956 6.7685642 -0.50159794 0.97197527
-2.0204003 6.7945018 -0.50160044 0.97197515
-1.8490429 6.8432226 -0.50160557 0.97197479
-1.6764746 6.887578 -0.5016107 0.97197461
-1.5898144 6.908164 -0.50161326 0.97197437
-1.5028808 6.9276171 -0.50161588 0.97197425
-1.3283398 6.9632616 -0.50162107 0.97197402
-1.240752 6.9794335 -0.50162369 0.9719739
-1.1529492 6.9945312 -0.50162631 0.97197366
-1.0649707 7.0084863 -0.50162894 0.9719736
-0.53403318 7.0690331 -0.50164479 0.97197264
-0.35622069 7.0803027 -0.50165015 0.97197235
-2.9296874e-05 7.0894041 -0.50166082 0.97197175
0.17749023 7.0611424 -0.49982056 0.9720732
0.42458984 6.7489061 -0.47851214 0.97324771
0.50236326 6.6506052 -0.47195208 0.97360957
0.6517871 6.4618063 -0.45957175 0.97429287
0.72362304 6.3710251 -0.45372748 0.97461563
0.86197263 6.1961913 -0.44267926 0.97522604
0.99510741 6.037168 -0.43296772 0.97576284
1.122793 5.8859277 -0.4240118 0.97625822
1.2517577 5.770205 -0.41781002 0.97660136
1.317959 5.7269335 -0.41584319 0.9767102
1.3835058 5.6840134 -0.41395822 0.97681463
1.4484668 5.6414647 -0.41215122 0.97691458
1.512871 5.5992575 -0.41042191 0.97701019
1.5768163 5.557539 -0.4087863 0.97710085
1.7657324 5.4344239 -0.40434128 0.97734702
1.8278124 5.3938866 -0.40300208 0.97742116
1.8894824 5.3535547 -0.40173292 0.97749156
2.1391211 5.2105856 -0.39857543 0.9776665
2.3341308 5.1265821 -0.39860043 0.97766513
2.5258789 5.0352736 -0.39862525 0.9776637
2.5889843 5.003252 -0.39863348 0.97766322
2.6517186 4.9704294 -0.39864174 0.97766274
2.8372948 4.8671579 -0.3986586 0.97766179
2.8982422 4.8311424 -0.39866045 0.97766173
2.95875 4.7943749 -0.39866233 0.97766155
3.01875 4.7568259 -0.39866415 0.97766155
3.137373 4.6795115 -0.39866781 0.97766131
3.1989551 4.6440821 -0.39904436 0.97764045
3.6271679 4.4984083 -0.40890518 0.97709429
4.0786133 4.3433008 -0.42160994 0.97639102
4.1566014 4.3163376 -0.42403206 0.97625715
4.2354689 4.2890429 -0.42654517 0.97611809
4.3253026 4.2712989 -0.43015277 0.97591853
4.4205856 4.2570019 -0.43427375 0.97569066
4.6166697 4.2274508 -0.44295788 0.97521067
4.7176561 4.2121677 -0.44753218 0.97495782
4.8230271 4.1985254 -0.45248657 0.97468412
5.4153614 4.1463475 -0.48262993 0.97302067
1.2534863 0.935 -0.11066021 0.99374878
1.2537011 0.91085935 -0.10965873 0.99380517
1.2538867 0.88714844 -0.10869167 0.99385959
1.254082 0.86381835 -0.10775829 0.99391222
1.2544335 0.81836915 -0.10598743 0.99401194
1.2545996 0.79619139 -0.10514774 0.99405921
1.2550488 0.73161131 -0.10280113 0.99419153
1.255205 0.71074218 -0.10207336 0.99423242
1.2913672 0.70993161 -0.10428013 0.99410808
1.3719629 0.70993161 -0.10931167 0.99382466
1.5087011 0.70992184 -0.1179895 0.99333608
1.612705 0.70993161 -0.12468765 0.99295908
1.7293066 0.70992184 -0.13228081 0.9925319
1.7930957 0.70992184 -0.13646874 0.99229646
1.9337305 0.70992184 -0.14576663 0.99177372
2.0237012 0.65752929 -0.1505727 0.99150366
6.7722363 2.106709 -0.50186956 0.97196031
6.7981639 2.0214453 -0.50187045 0.97196031
6.8230467 1.9358593 -0.50187129 0.97196025
6.8468552 1.8499902 -0.50187206 0.97196013
6.891201 1.6773242 -0.50187361 0.97196013
6.9495602 1.4164355 -0.50187564 0.97195995
6.966836 1.3289844 -0.50187624 0.97195983
6.9829884 1.2413379 -0.50187683 0.97195983
6.9980078 1.153496 -0.50187737 0.97195995
7.0119629 1.0654687 -0.5018779 0.97195989
7.0248241 0.97725582 -0.50187838 0.97195977
7.0365429 0.88890624 -0.5018788 0.97195983
7.0566602 0.7118066 -0.50187963 0.97195983
7.0723438 0.53423828 -0.50188023 0.97195971
7.0785055 0.4453125 -0.50188059 0.97195971
7.0835352 0.35634765 -0.50188076 0.97195971
7.0874705 0.26729491 -0.501881 0.97195965
7.0919333 0.08910156 -0.5018813 0.97195971
7.0919433 -0.089140624 -0.50188154 0.97195971
7.0723534 -0.53426754 -0.50188142 0.97195965
7.0566893 -0.71183592 -0.50188112 0.97195971
7.036572 -0.88893551 -0.50188071 0.97195971
7.0248437 -0.97729492 -0.50188047 0.97195971
7.0120215 -1.065498 -0.50188017 0.97195965
6.9980564 -1.1535351 -0.50187981 0.97195971
6.9668555 -1.3290136 -0.5018791 0.97195977
6.9117966 -1.590664 -0.50187773 0.97195983
6.8912401 -1.6773731 -0.50187719 0.97195989
6.8696289 -1.7638476 -0.50187665 0.97195989
6.8231053 -1.9358984 -0.5018754 0.97196001
6.7982225 -2.0214942 -0.50187474 0.97196007
6.772285 -2.1067579 -0.50187409 0.97196007
2.0237012 -0.68580079 -0.15120128 0.99146825
2.0236816 -0.71425778 -0.15185943 0.99143136
1.8611034 -0.70996094 -0.14095333 0.99204421
1.7930957 -0.70997071 -0.13646828 0.9922964
1.6692871 -0.70997071 -0.12836166 0.99275225
1.559248 -0.70996094 -0.12123634 0.99315333
1.5086914 -0.70997071 -0.11798927 0.99333602
1.3719727 -0.70997071 -0.10931152 0.99382454
1.3307129 -0.70996094 -0.10672825 0.99397016
1.2913867 -0.70996094 -0.10428028 0.99410796
1.2551855 -0.71077144 -0.10207336 0.99423242
1.2550683 -0.7316699 -0.10280109 0.99419135
1.2547559 -0.77438474 -0.10433742 0.9941048
1.2545898 -0.79624021 -0.10514778 0.99405915
1.2540722 -0.86386716 -0.10775837 0.9939121
1.2536817 -0.91090816 -0.10965873 0.99380511
1.2535058 -0.93504882 -0.11066021 0.99374861
4.9502635 -3.8899024 -0.44549945 0.97507006
4.5780954 -3.8852928 -0.42489421 0.97620934
4.1421385 -3.8897753 -0.40208641 0.97747189
4.0585351 -3.9083691 -0.39870468 0.97765917
4.0090623 -3.9590526 -0.39870322 0.97765929
3.9590039 -4.0090919 -0.39870179 0.97765934
3.8297753 -4.07833 -0.39588881 0.97781527
3.5478027 -4.0755663 -0.38235778 0.97856528
3.4759765 -4.3109374 -0.39186192 0.97803837
3.4523046 -4.3934569 -0.39538559 0.97784299
3.4251659 -4.473496 -0.3986862 0.97766024
3.2540722 -4.5993652 -0.39868122 0.97766054
3.1960254 -4.639873 -0.39867949 0.9776606
3.0783985 -4.7186813 -0.39867607 0.97766078
3.0188282 -4.7569628 -0.39867431 0.97766089
2.9588084 -4.7945118 -0.39867255 0.97766095
2.8983202 -4.8313084 -0.39867079 0.97766101
2.8373535 -4.8673143 -0.39866897 0.97766119
2.7759666 -4.9025583 -0.39866719 0.97766125
2.7141211 -4.9370213 -0.39866534 0.97766143
2.5891991 -5.0036325 -0.39866167 0.97766155
2.4625781 -5.06708 -0.39865795 0.97766179
2.1395311 -5.2115722 -0.39864838 0.97766227
2.0738573 -5.2380075 -0.39864647 0.97766244
2.0078516 -5.2636619 -0.39864448 0.97766244
1.8749218 -5.3123922 -0.39864054 0.97766274
1.7408105 -5.3577733 -0.39863658 0.97766298
1.5376269 -5.4195118 -0.39863053 0.97766322
1.4694042 -5.4383593 -0.3986285 0.9776634
1.3322558 -5.4735155 -0.39862442 0.97766364
1.2633691 -5.4898047 -0.39862236 0.9776637
0.9161523 -5.5581446 -0.39861202 0.97766429
0.7059961 -5.588623 -0.39860573 0.97766471
0.42428711 -5.6169434 -0.3985973 0.97766507
0.28299806 -5.6257615 -0.39859307 0.97766536
0.070761718 -5.6323338 -0.39858669 0.97766572
-1.953125e-05 -5.6327634 -0.39858454 0.97766578
-0.14159179 -5.630918 -0.39858031 0.97766602
-0.15199219 -4.0290818 -0.28530702 0.98396188
-0.20066406 -3.9884081 -0.28258362 0.98411381
-0.63566405 -5.5965037 -0.39856544 0.97766685
-0.70594722 -5.588037 -0.3985633 0.97766703
-0.84615231 -5.5684958 -0.39855909 0.97766715
-1.332041 -5.4724121 -0.39854437 0.97766805
-1.4006835 -5.4552145 -0.39854228 0.97766817
-1.4691015 -5.4371676 -0.39854023 0.97766823
-1.8075585 -5.334033 -0.39852995 0.97766888
-1.9410254 -5.2868848 -0.39852586 0.977669
-2.0073047 -5.2620506 -0.39852387 0.97766912
-2.0732422 -5.2363963 -0.39852187 0.97766924
-1.6489453 -4.0164843 -0.30723181 0.9827401
-1.6897949 -3.9731152 -0.30551451 0.98283571
-2.3336718 -5.1254883 -0.39851394 0.97766978
-2.3978808 -5.0957618 -0.39851195 0.97766978
-2.461709 -5.0651855 -0.39851001 0.97766995
-2.588203 -5.0016699 -0.39850616 0.97767013
-2.65083 -4.96874 -0.3985042 0.97767025
-2.7748535 -4.9005175 -0.39850044 0.97767037
-2.8361816 -4.8652148 -0.39849854 0.97767061
-2.8970995 -4.8291798 -0.39849669 0.97767061
-3.0770214 -4.7165036 -0.39849117 0.97767085
-3.2525585 -4.5971189 -0.39848575 0.97767115
-3.3100195 -4.5558395 -0.39848399 0.97767138
-3.3670018 -4.5138865 -0.39848223 0.97767138
-3.1459961 -4.0035739 -0.36030141 0.97978914
-3.1880956 -3.9538574 -0.35940352 0.97983891
-3.6437011 -4.2934666 -0.39847368 0.97767192
-3.6973729 -4.247324 -0.39847201 0.97767198
-3.7504296 -4.2005177 -0.39847037 0.97767204
-3.9060352 -4.0561228 -0.39846554 0.97767234
-3.9566698 -4.0066991 -0.39846396 0.97767246
-4.0264258 -3.9761522 -0.40042555 0.97756374
-4.0560741 -3.9059765 -0.39846087 0.97767264
-1.0241601 -0.93782222 -0.09826275 0.99444687
-1.0248047 -0.86970699 -0.095108449 0.99462461
-1.0253613 -0.80572265 -0.092274509 0.99478441
-1.0255274 -0.78522462 -0.091395222 0.99483401
-1.0258691 -0.74534178 -0.089726448 0.99492806
-1.0306835 -0.70996094 -0.088560022 0.99499387
-1.0589453 -0.70998043 -0.090212822 0.99490058
-1.0882519 -0.70996094 -0.091943279 0.99480313
-1.1504394 -0.70997071 -0.095658265 0.99459362
-1.2538476 -0.70998043 -0.10195785 0.99423862
-1.3307519 -0.70997071 -0.10672821 0.99396998
-1.4608105 -0.70997071 -0.11492931 0.9935081
-1.5592968 -0.70996094 -0.12123672 0.99315315
-1.6127343 -0.70997071 -0.12468765 0.9929589
-1.7931542 -0.70997071 -0.13646778 0.99229616
-1.7930273 -0.68398434 -0.13579457 0.99233413
-1.7929199 -0.65826172 -0.13514969 0.99237037
-6.682744 -2.3586133 -0.50147015 0.97198206
-6.7668262 -2.1050489 -0.50146735 0.97198236
-6.7927537 -2.0198534 -0.50146645 0.9719823
-6.8175879 -1.9343359 -0.50146562 0.97198236
-6.8412986 -1.8484961 -0.50146484 0.9719826
-6.8640037 -1.7623925 -0.50146407 0.97198248
-6.9255466 -1.5024316 -0.50146192 0.97198254
-6.9771972 -1.2403222 -0.50146008 0.97198278
-6.9922462 -1.1525586 -0.50145954 0.97198272
-7.0061622 -1.0645996 -0.50145906 0.97198278
-7.0306931 -0.88820308 -0.50145811 0.97198278
-7.0412889 -0.79977536 -0.50145769 0.97198284
-7.0591407 -0.62256837 -0.50145698 0.9719829
-7.0664158 -0.53381836 -0.50145668 0.9719829
-7.0725389 -0.4449707 -0.50145638 0.97198302
-7.0775976 -0.35607421 -0.50145614 0.9719829
-7.0859571 -0.089062497 -0.50145561 0.97198302
-6.8183007 -0 -0.50146353 0.97302365
-6.8177633 0.085664064 -0.50146347 0.97302365
-6.8097067 0.34257811 -0.50146347 0.97302359
-6.804863 0.42811522 -0.50146347 0.97302359
-6.7989645 0.51358396 -0.50146359 0.97302353
-6.7919335 0.59897459 -0.50146371 0.97302371
-6.7838964 0.68427736 -0.50146383 0.97302359
-6.7532811 0.93947262 -0.50146449 0.97302359
-6.7275681 1.1089063 -0.50146508 0.97302347
-6.7131052 1.1933398 -0.50146544 0.97302347
-6.6975584 1.2776074 -0.5014658 0.97302359
-6.6633396 1.4455273 -0.50146669 0.97302353
-6.6041794 1.6956445 -0.50146818 0.97302336
-6.5823436 1.778496 -0.50146878 0.97302336
-6.5594625 1.8610644 -0.50146931 0.97302341
-6.5355759 1.9433692 -0.50146997 0.97302336
-6.4577246 2.1883104 -0.50147206 0.97302318
-6.4297071 2.2692969 -0.50147283 0.97302324
-1.7293555 0.70992184 -0.13748631 0.99253023
-1.5593262 0.70992184 -0.12600777 0.99315172
-1.4608105 0.70993161 -0.11945217 0.99350691
-1.4153028 0.70992184 -0.11645053 0.99366951
-1.2914159 0.70992184 -0.10838398 0.99410677
-1.253828 0.70993161 -0.10597035 0.99423766
-1.2178906 0.70992184 -0.10367763 0.99436194
-1.15042 0.70993161 -0.099422909 0.99459273
-1.1187207 0.70993161 -0.097446248 0.9946999
-1.0882617 0.70992184 -0.095561713 0.99480212
-1.058916 0.70992184 -0.09376312 0.99489981
-1.025332 0.72539061 -0.09237396 0.99497515
-1.025166 0.74479491 -0.093195185 0.99493057
-1.025 0.76453125 -0.094045751 0.99488443
-1.0248339 0.78462887 -0.094927177 0.99483663
-1.0240527 0.86904293 -0.098780781 0.99462759
-1.0234277 0.93707031 -0.10205478 0.99444997
-4.911787 4.7300096 -0.50151581 0.97302097
-4.8519821 4.7913771 -0.50151753 0.97302085
-4.7914257 4.8519921 -0.50151926 0.97302073
-4.6680079 4.9708886 -0.50152284 0.97302055
-4.4774022 5.1433496 -0.50152838 0.97302026
-4.2133789 5.3619041 -0.50153607 0.97301984
-4.0773339 5.4661427 -0.50154006 0.9730196
-4.0083299 5.5169725 -0.50154209 0.97301954
-3.9387109 5.5669336 -0.50154412 0.97301942
-3.4345019 5.891582 -0.50155896 0.97301871
-3.2854199 5.9760938 -0.50156331 0.97301841
-3.1342187 6.0568161 -0.50156778 0.97301823
-3.0578711 6.0957618 -0.50157005 0.97301805
-2.981035 6.1337304 -0.50157231 0.97301793
-2.9037499 6.1707225 -0.50157458 0.97301787
-2.747793 6.241787 -0.50157923 0.97301763
-2.6691504 6.2758594 -0.50158155 0.97301751
-2.5900879 6.3089452 -0.50158387 0.97301733
-2.5106053 6.3410254 -0.5015862 0.97301722
-2.430742 6.3721189 -0.50158858 0.97301704
-2.3504882 6.4021678 -0.50159097 0.97301698
-2.2698729 6.4312205 -0.50159335 0.97301692
-2.1888769 6.4592772 -0.50159574 0.97301674
-2.1075683 6.4862986 -0.50159818 0.97301662
-1.7790234 6.5841403 -0.50160789 0.97301608
-1.6130469 6.6268258 -0.5016129 0.97301579
-1.5296289 6.6466012 -0.50161535 0.97301573
-1.445996 6.6653223 -0.50161785 0.97301561
-1.193789 6.7152047 -0.50162536 0.97301513
-0.93982422 6.755537 -0.50163293 0.97301471
-0.85486329 6.7668262 -0.50163549 0.97301465
-0.51381832 6.8013864 -0.50164568 0.97301406
-0.42830077 6.8073239 -0.50164825 0.973014
-0.34274414 6.8122067 -0.50165081 0.97301382
-0.25710937 6.8160152 -0.50165337 0.9730137
-0.17143555 6.8187203 -0.50165594 0.97301364
-0.085712887 6.8203907 -0.50165856 0.9730134
-2.9296874e-05 6.8209667 -0.50166112 0.97301328
0.17138672 6.8188767 -0.50166625 0.97301304
0.34272459 6.8124704 -0.50167143 0.9730128
0.42457029 6.7488961 -0.4973422 0.97324246
0.50237304 6.6505957 -0.49052483 0.97360438
0.57807618 6.5549512 -0.48396805 0.97395259
0.72362304 6.3710251 -0.47158316 0.97461063
1.0576855 5.9498825 -0.44445723 0.97605342
1.3159667 5.7182617 -0.43155378 0.97674042
1.3814062 5.6754489 -0.42959988 0.97684461
1.4463086 5.632988 -0.42772803 0.97694433
1.5743945 5.5490427 -0.42422381 0.97713095
1.6376464 5.5075097 -0.42258987 0.97721815
1.7627636 5.4252734 -0.41954619 0.97738028
1.8862597 5.3444333 -0.41683039 0.97752506
1.9474413 5.3044138 -0.41558573 0.9775914
2.0082226 5.2646093 -0.41441092 0.97765404
2.1886718 5.1461911 -0.41129568 0.97782016
2.3074803 5.0679884 -0.40955174 0.97791314
2.366504 5.0290818 -0.40877753 0.97795439
2.4252734 4.9902635 -0.40806851 0.97799224
2.5422559 4.91291 -0.40683997 0.97805774
2.6004491 4.8743358 -0.4063198 0.97808552
2.6584961 4.8358297 -0.40586388 0.9781099
2.7164257 4.7973633 -0.40546843 0.97813094
2.8505175 4.7516012 -0.407529 0.97802109
3.0549414 4.6827245 -0.41121134 0.97782469
3.1239257 4.6594138 -0.41257843 0.97775173
3.1933105 4.6358981 -0.41401717 0.97767502
3.3335643 4.5882716 -0.41711548 0.97750986
3.4759374 4.5397654 -0.42051676 0.97732854
3.5479491 4.5151463 -0.42233291 0.9772318
3.6206152 4.490293 -0.42423075 0.97713065
3.6938963 4.4651561 -0.42620814 0.97702527
3.7678516 4.4397559 -0.4282701 0.97691542
3.9179101 4.3880954 -0.43265042 0.97668207
4.0710154 4.3352051 -0.43738657 0.97642982
4.2274804 4.2809668 -0.44249693 0.97615784
4.4120312 4.2487402 -0.45048708 0.97573245
4.5114746 4.2365623 -0.45517269 0.9754833
4.6130857 4.2241502 -0.46003008 0.97522479
4.8229685 4.1984668 -0.4702886 0.97467947
5.0426168 4.1716113 -0.48132709 0.97409284
5.2796874 4.1487498 -0.49384847 0.97342807
5.4153614 4.1463475 -0.5016228 0.97301537
1.252666 0.93437499 -0.11493721 0.99375165
1.2530664 0.88655269 -0.11289398 0.99386245
1.2534375 0.84037107 -0.11098976 0.99396563
1.2536035 0.81784177 -0.11008697 0.99401462
1.2537891 0.79566407 -0.10921543 0.99406189
1.2539452 0.77384764 -0.10837425 0.99410748
1.2541015 0.75235349 -0.10756252 0.99415153
1.2913672 0.70993161 -0.10838405 0.99410695
1.3307226 0.70993161 -0.11092842 0.99396896
1.4152539 0.70993161 -0.1164505 0.99366969
1.5087011 0.70992184 -0.12263252 0.99333477
1.5592675 0.70992184 -0.12600762 0.99315196
1.6692675 0.70993161 -0.13341342 0.99275094
1.7930957 0.70992184 -0.14183922 0.99229491
1.9337305 0.70992184 -0.1515031 0.99177206
2.023623 0.68573242 -0.15714638 0.99146694
6.5406542 1.9448828 -0.50186276 0.97300267
6.5874996 1.7799023 -0.50186437 0.97300249
6.6863084 1.3627636 -0.50186777 0.97300231
6.7029004 1.2786328 -0.50186837 0.97300231
6.7184668 1.1943164 -0.5018689 0.97300225
6.7329197 1.1097949 -0.50186944 0.97300231
6.7700291 0.8552441 -0.50187081 0.97300208
6.7802243 0.77010739 -0.50187123 0.97300214
6.797451 0.59947264 -0.50187194 0.97300208
6.8044434 0.51399416 -0.50187224 0.97300208
6.8152146 0.3428418 -0.50187272 0.97300208
6.8232908 0.085732423 -0.50187325 0.97300208
6.8233008 -0.085761718 -0.50187343 0.97300208
6.8152342 -0.34288085 -0.50187343 0.97300202
6.8044629 -0.5140332 -0.50187337 0.97300202
6.7893748 -0.68487304 -0.50187308 0.97300208
6.7587399 -0.94028318 -0.50187242 0.97300208
6.7463965 -1.0251367 -0.50187212 0.97300208
6.7184668 -1.1943457 -0.50187147 0.9730022
6.7029295 -1.2786816 -0.50187111 0.9730022
6.649961 -1.5304004 -0.50186974 0.97300225
6.6302052 -1.6138378 -0.50186926 0.97300225
6.6094141 -1.6970215 -0.50186872 0.9730022
6.5875292 -1.7799511 -0.50186819 0.97300237
6.5407128 -1.9449219 -0.50186694 0.97300237
6.5157714 -2.026953 -0.50186628 0.97300231
2.023623 -0.68577147 -0.15714641 0.99146688
1.9337207 -0.70996094 -0.15150291 0.99177206
1.7930957 -0.70997071 -0.14183913 0.99229485
1.7292773 -0.70997071 -0.13748626 0.99253047
1.6692871 -0.70997071 -0.13341324 0.99275082
1.4152246 -0.70997071 -0.11645042 0.99366969
1.3719727 -0.70997071 -0.11361328 0.99382329
1.3307129 -0.70996094 -0.11092861 0.99396896
1.2544141 -0.71033204 -0.10602371 0.9942348
1.2539648 -0.77389646 -0.10837413 0.99410731
1.2536132 -0.81788087 -0.1100869 0.9940145
1.2534277 -0.8404004 -0.11098979 0.99396563
1.2530664 -0.88659179 -0.11289402 0.99386233
1.2528515 -0.91029292 -0.11389755 0.99380797
4.9502635 -3.8899024 -0.4630315 0.97506511
4.8222852 -3.8883398 -0.45559722 0.97546059
4.6983399 -3.8868358 -0.44846684 0.97583997
4.4612989 -3.8836522 -0.4350214 0.97655571
4.3479099 -3.8820605 -0.42868835 0.97689307
3.9330175 -3.8839257 -0.40653145 0.97807413
3.7602441 -3.9047949 -0.39869568 0.97849226
3.660918 -3.9980273 -0.39869282 0.97849238
3.6104002 -4.0437012 -0.39869133 0.97849238
3.4740136 -4.0935645 -0.39487213 0.97869623
3.4553614 -4.1768556 -0.39868683 0.97849268
3.4025781 -4.2199411 -0.39868531 0.97849274
3.349287 -4.2623339 -0.39868373 0.97849286
3.2954395 -4.3040919 -0.39868218 0.97849286
3.1862206 -4.385498 -0.39867896 0.97849303
2.9045117 -4.5768065 -0.39867073 0.97849351
2.729912 -4.6829686 -0.39866558 0.97849375
2.6708398 -4.7168946 -0.39866382 0.97849381
2.3693261 -4.8751659 -0.39865494 0.97849435
2.2460449 -4.9331346 -0.3986513 0.97849452
2.183877 -4.960947 -0.39864942 0.97849458
2.1213672 -4.9879684 -0.39864761 0.9784947
1.9318066 -5.0643067 -0.398642 0.97849506
1.8039258 -5.1112204 -0.39863822 0.97849518
1.7395409 -5.1334567 -0.39863628 0.9784953
1.6099805 -5.1754785 -0.39863244 0.9784956
1.3478906 -5.2497458 -0.39862463 0.97849596
1.2817968 -5.2662401 -0.39862269 0.97849607
1.2155077 -5.2819138 -0.39862072 0.97849613
1.1490527 -5.2967381 -0.39861873 0.97849625
1.0823828 -5.3107324 -0.39861673 0.97849637
0.94856441 -5.3362207 -0.39861274 0.97849655
0.54391599 -5.392324 -0.39860064 0.97849727
0.40823242 -5.4042382 -0.39859655 0.97849745
0.20424804 -5.4157128 -0.39859048 0.97849774
0.13617188 -5.4178319 -0.39858845 0.9784978
0.068076171 -5.4190817 -0.39858639 0.97849792
-0.13622069 -5.4177146 -0.39858022 0.97849828
-0.15199219 -4.0290623 -0.29653513 0.98395878
-0.20066406 -3.9884081 -0.29370424 0.98411065
-0.25057617 -3.9823925 -0.2934697 0.98412323
-0.47610351 -5.3983202 -0.39857 0.97849888
-0.61161131 -5.3846192 -0.39856592 0.978499
-0.67922848 -5.3764648 -0.39856392 0.97849917
-0.94847655 -5.3354492 -0.39855576 0.97849959
-1.0822461 -5.3098631 -0.3985517 0.97849983
-1.1488867 -5.2958298 -0.39854968 0.97849989
-1.3476562 -5.2486911 -0.39854369 0.97850019
-1.413496 -5.2313085 -0.39854166 0.97850031
-1.4790918 -5.2131052 -0.39853969 0.97850043
-1.5444726 -5.1940818 -0.3985377 0.97850055
-1.867539 -5.0867381 -0.39852789 0.97850102
-1.9947656 -5.0381346 -0.39852402 0.97850126
-1.6489453 -4.0164843 -0.31932229 0.98273665
-1.6897949 -3.9731152 -0.31753799 0.98283231
-2.2453418 -4.9314551 -0.39851639 0.97850168
-2.3070996 -4.9028416 -0.39851448 0.97850174
-2.3685155 -4.8734274 -0.3985126 0.97850192
-2.4902344 -4.812324 -0.39850891 0.97850204
-2.550498 -4.7806444 -0.39850703 0.97850209
-2.6698046 -4.7149801 -0.39850336 0.97850233
-2.7288086 -4.6810546 -0.39850157 0.97850245
-2.845576 -4.6109471 -0.398498 0.97850263
-2.9605076 -4.5379395 -0.39849445 0.97850287
-3.0173047 -4.500371 -0.39849272 0.97850287
-3.5057714 -4.1309276 -0.39847767 0.97850376
-3.5573926 -4.0865331 -0.39847606 0.97850382
-3.6084471 -4.0414939 -0.39847445 0.97850394
-3.6589453 -3.9958105 -0.39847291 0.978504
-3.7088475 -3.9495213 -0.39847136 0.97850406
-3.7581737 -3.9025781 -0.39846984 0.97850412
-3.8550389 -3.806875 -0.3984668 0.9785043
-1.0234082 -0.9371289 -0.1020549 0.99444985
-1.023623 -0.91394532 -0.10092407 0.99451125
-1.0244434 -0.82604492 -0.096785463 0.99473572
-1.0246484 -0.80516601 -0.095839575 0.99478698
-1.0248145 -0.78467774 -0.09492702 0.99483657
-1.0250098 -0.7645703 -0.094045639 0.99488431
-1.0251758 -0.74484372 -0.093195073 0.99493045
-1.0589453 -0.70998043 -0.093763083 0.99489957
-1.2178711 -0.70997071 -0.10367741 0.99436188
-1.2538476 -0.70998043 -0.1059703 0.99423748
-1.2914257 -0.70998043 -0.10838394 0.99410665
-1.3719921 -0.70996094 -0.11361347 0.99382329
-1.4608105 -0.70997071 -0.11945217 0.99350685
-1.50875 -0.70997071 -0.1226329 0.99333453
-1.6127343 -0.70997071 -0.12959449 0.99295753
-1.7293457 -0.70997071 -0.13748641 0.99253023
-1.793789 -0.658584 -0.14053626 0.99236518
-6.4577732 -2.1883495 -0.50147671 0.97302294
-6.4847655 -2.1070213 -0.50147581 0.97302294
-6.5107322 -2.0253711 -0.50147492 0.97302294
-6.5595212 -1.8611132 -0.50147331 0.97302318
-6.5823922 -1.7785351 -0.50147253 0.97302312
-6.6041989 -1.6956934 -0.50147176 0.97302324
-6.6249704 -1.6125488 -0.5014711 0.9730233
-6.6447067 -1.5291699 -0.50147039 0.9730233
-6.681025 -1.361709 -0.50146914 0.97302336
-6.697607 -1.277666 -0.50146854 0.97302336
-6.7131348 -1.1933789 -0.501468 0.97302336
-6.7275877 -1.1089355 -0.50146747 0.97302341
-6.7409863 -1.0243067 -0.50146699 0.97302341
-6.7645798 -0.85457027 -0.5014661 0.97302347
-6.774785 -0.7695117 -0.50146568 0.97302347
-6.783916 -0.68430662 -0.50146532 0.97302353
-6.798955 -0.51360351 -0.50146466 0.97302359
-6.8097067 -0.34260741 -0.50146419 0.97302359
-6.8161621 -0.17134765 -0.50146383 0.97302359
-6.8177829 -0.085693359 -0.50146365 0.97302359
-6.5695505 -9.7656248e-06 -0.50147098 0.97398961
-6.5690331 0.082539059 -0.50147092 0.97398961
-6.536406 0.65932614 -0.50147134 0.97398949
-6.5275974 0.74140626 -0.50147152 0.97398955
-6.5177732 0.8233496 -0.5014717 0.97398955
-6.4950194 0.98691404 -0.50147218 0.97398955
-6.4821091 1.0684375 -0.50147247 0.97398949
-6.4681735 1.1498241 -0.50147283 0.97398949
-6.4532323 1.2310058 -0.50147325 0.97398943
-6.4372458 1.3120019 -0.50147361 0.97398949
-6.4202442 1.3927929 -0.50147402 0.97398949
-6.4022751 1.4733496 -0.5014745 0.97398937
-6.3832421 1.5536816 -0.50147498 0.97398937
-6.3421969 1.713623 -0.50147605 0.97398931
-6.3201852 1.7931836 -0.50147665 0.97398925
-6.2971387 1.8724608 -0.50147724 0.97398931
-6.2481055 2.030117 -0.50147855 0.97398925
-6.2221289 2.1084764 -0.50147921 0.97398913
-1.7947656 0.68460935 -0.14662746 0.99232364
-1.7948828 0.71061522 -0.14735508 0.99228573
-1.6127343 0.70993161 -0.13450371 0.9929561
-1.5593262 0.70992184 -0.13078086 0.99315035
-1.4608105 0.70993161 -0.12397716 0.99350554
-1.4153028 0.70992184 -0.12086155 0.9936682
-1.3720019 0.70993161 -0.11791706 0.99382198
-1.2914159 0.70992184 -0.11248958 0.99410558
-1.2178906 0.70992184 -0.10760502 0.99436074
-1.1834472 0.70993161 -0.10534225 0.994479
-1.15042 0.70993161 -0.10318901 0.99459159
-1.0307031 0.70993161 -0.095531918 0.99499184
-1.0244921 0.74429685 -0.096660271 0.99493289
-1.0242969 0.76402342 -0.097542115 0.99488682
-1.024121 0.78410155 -0.098455198 0.99483907
-1.0239453 0.80457032 -0.099401437 0.99478954
-1.0237499 0.8254199 -0.10038158 0.99473834
-1.0235351 0.84670895 -0.10139717 0.99468529
-1.0233399 0.86842769 -0.10244957 0.99463022
-1.0231055 0.8905859 -0.10354012 0.9945733
-1.0228808 0.91324216 -0.10467064 0.99451417
-1.022666 0.93639648 -0.10584259 0.99445289
-4.6749606 4.6165624 -0.50152302 0.97398692
-4.616611 4.6749415 -0.50152475 0.97398686
-4.5575099 4.7326169 -0.50152642 0.97398674
-4.4976954 4.7895117 -0.50152814 0.97398674
-4.4371777 4.8456736 -0.50152993 0.97398663
-4.375957 4.9010739 -0.50153172 0.97398645
-4.3140135 4.9556932 -0.50153351 0.97398645
-4.1881542 5.0625587 -0.50153714 0.97398627
-3.7949901 5.3637986 -0.50154871 0.97398567
-3.7273145 5.4110742 -0.50155067 0.97398555
-3.5901659 5.5030761 -0.50155467 0.97398537
-3.5207617 5.5477633 -0.50155669 0.97398531
-3.4507811 5.5916014 -0.50155872 0.9739852
-3.3091991 5.6766014 -0.50156289 0.97398496
-3.2376366 5.717783 -0.50156504 0.97398472
-3.0929394 5.7973633 -0.50156927 0.97398466
-2.9462793 5.8733106 -0.50157362 0.97398442
-2.7228613 5.9802732 -0.50158024 0.97398406
-2.571748 6.046875 -0.50158471 0.97398376
-2.419004 6.1096191 -0.50158918 0.97398365
-2.3420508 6.1395702 -0.5015915 0.97398353
-2.2647264 6.1685548 -0.50159377 0.97398335
-2.187041 6.1965528 -0.50159609 0.97398323
-2.108994 6.2235641 -0.50159836 0.97398317
-1.8729589 6.2987204 -0.50160539 0.97398281
-1.7141016 6.3438573 -0.50161016 0.97398257
-1.634248 6.3649216 -0.50161248 0.97398245
-1.5541503 6.3849707 -0.50161493 0.97398239
-1.3932323 6.4220896 -0.5016197 0.9739821
-1.312412 6.4391208 -0.50162214 0.97398198
-1.2314062 6.4551368 -0.50162452 0.9739818
-1.150205 6.4701366 -0.50162691 0.97398168
-1.0688183 6.4841013 -0.50162935 0.97398162
-0.98725581 6.4970508 -0.5016318 0.9739815
-0.90552735 6.5089841 -0.50163424 0.97398132
-0.8236621 6.5198827 -0.50163668 0.9739812
-0.33023438 6.5635839 -0.50165147 0.97398049
-2.9296874e-05 6.5720115 -0.50166136 0.97398001
0.082558595 6.5715332 -0.50166386 0.97397983
0.16512695 6.5700192 -0.50166631 0.97397965
0.24767578 6.5674415 -0.50166887 0.97397959
0.33019531 6.5638375 -0.50167131 0.97397947
0.57735348 6.5468454 -0.50167876 0.97397906
0.65177733 6.4617968 -0.49575153 0.97428256
0.79365236 6.2825294 -0.48337534 0.9749164
0.86197263 6.1961813 -0.47752848 0.97521609
0.92868161 6.1118846 -0.47189483 0.97550493
0.99382812 6.0295506 -0.46646366 0.97578329
1.1198144 5.8703809 -0.45618337 0.97631061
1.3139453 5.7095995 -0.4472225 0.97677052
1.3793163 5.666904 -0.44520134 0.97687435
1.5083495 5.5825195 -0.44140959 0.9770689
1.6352441 5.4993653 -0.43794677 0.97724676
1.6979394 5.4581833 -0.43633398 0.97732967
1.8833495 5.3362303 -0.43195546 0.97755456
1.9443554 5.2960253 -0.43064505 0.97762185
2.0049803 5.2560253 -0.42940706 0.97768545
2.1849804 5.1375389 -0.42615822 0.97785246
2.2444434 5.0984669 -0.42522171 0.97790051
2.4797266 4.9432907 -0.42215183 0.9780584
2.5380077 4.904736 -0.4215486 0.97808939
2.845664 4.7434864 -0.422243 0.97805369
2.9133008 4.7207127 -0.42344156 0.97799206
2.9812889 4.6977735 -0.42471012 0.97792685
3.0496972 4.6746387 -0.4260515 0.97785795
3.469785 4.5317383 -0.43567413 0.97736353
3.6141405 4.4822655 -0.43951446 0.97716635
3.9876366 4.354785 -0.45072329 0.97659087
4.0655956 4.3294239 -0.45334879 0.97645605
4.3144922 4.2606153 -0.46285537 0.97596836
4.411963 4.2487011 -0.467547 0.97572774
4.511445 4.2365232 -0.47240931 0.97547841
4.6130271 4.2240915 -0.47745138 0.97522008
4.7168064 4.2114062 -0.48267752 0.97495222
5.0425587 4.1715622 -0.49955466 0.97408783
5.1176562 4.1264744 -0.5018177 0.97397202
5.1691308 4.0618653 -0.50181931 0.97397184
5.2197752 3.9966016 -0.50182092 0.97397178
1.2518066 0.9337402 -0.11920998 0.99375463
1.2522266 0.88596678 -0.11709213 0.99386525
1.2524121 0.8626855 -0.1160881 0.99391776
1.2529882 0.79515624 -0.11327934 0.99406445
1.2531641 0.77335936 -0.11240765 0.99410993
1.25333 0.75188476 -0.11156601 0.99415392
1.2534667 0.73070312 -0.11075424 0.99419641
1.2537695 0.70992184 -0.10998455 0.99423665
1.3719629 0.70993161 -0.11791694 0.99382216
1.4607714 0.70993161 -0.12397709 0.99350572
1.5087011 0.70992184 -0.12727791 0.9933334
1.6692675 0.70993161 -0.13846713 0.99274945
1.7293066 0.70992184 -0.14269455 0.99252886
1.8611034 0.70994139 -0.15204968 0.99204099
1.9337305 0.70992184 -0.15724231 0.99177039
6.3018651 1.8738769 -0.50185567 0.97397
6.4421582 1.3130078 -0.5018605 0.97396988
6.4581738 1.2319434 -0.50186104 0.97396976
6.5119529 0.90590817 -0.50186306 0.97396964
6.5228319 0.82400388 -0.50186348 0.97396958
6.5492477 0.57757813 -0.50186449 0.97396964
6.5617089 0.41282225 -0.50186509 0.97396958
6.5663671 0.33032227 -0.50186533 0.97396958
6.5746875 -9.7656248e-06 -0.50186586 0.97396952
6.572607 -0.16524413 -0.50186598 0.97396952
6.5617089 -0.41285154 -0.50186592 0.97396952
6.556025 -0.49526367 -0.50186586 0.97396946
6.5492673 -0.57760739 -0.50186574 0.97396952
6.5414844 -0.65986329 -0.50186563 0.97396958
6.5326657 -0.74201173 -0.50186539 0.97396958
6.5119629 -0.90594727 -0.50186497 0.97396958
6.5000782 -0.98770505 -0.50186467 0.97396952
6.4871192 -1.0693164 -0.50186437 0.97396964
6.4731932 -1.1507422 -0.50186408 0.97396958
6.4422169 -1.313037 -0.5018633 0.97396964
6.4071679 -1.4745214 -0.50186247 0.9739697
6.3881249 -1.5549219 -0.50186193 0.9739697
6.3470311 -1.7149609 -0.50186086 0.9739697
6.3019137 -1.873916 -0.50185966 0.97396976
6.2778516 -1.9529492 -0.50185907 0.97396988
2.0235546 -0.65752929 -0.16241531 0.99150074
2.0235546 -0.71422851 -0.16380303 0.99142838
1.9337401 -0.70996094 -0.15724197 0.99177027
1.7930957 -0.70997071 -0.14721169 0.99229324
1.7292773 -0.70997071 -0.14269409 0.99252892
1.5086914 -0.70997071 -0.12727791 0.99333334
1.2913867 -0.70996094 -0.11248958 0.99410558
1.2537891 -0.70996094 -0.10998432 0.99423653
1.2529784 -0.79520506 -0.11327931 0.99406433
1.2520312 -0.90967768 -0.11813274 0.99381077
4.9502635 -3.8898926 -0.48057106 0.97506005
4.6983399 -3.8868358 -0.46545494 0.97583503
4.5780954 -3.8852928 -0.45834392 0.97619981
4.4612989 -3.883662 -0.45150051 0.97655088
4.3479099 -3.8820605 -0.44492736 0.9768883
4.1306834 -3.8790135 -0.43253973 0.97752446
3.8279102 -3.8763573 -0.41585055 0.97838229
3.6435156 -3.8799999 -0.40628645 0.97887421
3.5544043 -3.8816991 -0.40175548 0.97910726
3.3795311 -3.9822361 -0.39868429 0.97926533
3.2897949 -4.080029 -0.4000693 0.97919399
3.2270215 -4.1067286 -0.39867988 0.97926551
3.1751463 -4.1469531 -0.39867836 0.97926557
3.1227636 -4.1865134 -0.39867681 0.97926563
3.069912 -4.2254004 -0.39867529 0.97926569
2.9627049 -4.3011718 -0.39867213 0.97926599
2.9084473 -4.3380466 -0.39867058 0.97926599
2.8536718 -4.374238 -0.39866897 0.97926611
2.7984765 -4.4097266 -0.39866734 0.97926617
2.7428222 -4.444531 -0.3986657 0.97926629
2.6867578 -4.4786229 -0.39866406 0.97926635
2.5733202 -4.5446973 -0.39866072 0.97926652
2.5160253 -4.5766501 -0.39865905 0.97926658
2.4582715 -4.6079001 -0.39865732 0.97926664
2.4001856 -4.6383886 -0.39865562 0.97926676
2.3416893 -4.6681638 -0.39865386 0.97926688
2.2236426 -4.7255077 -0.39865038 0.979267
2.1640625 -4.7530565 -0.39864865 0.97926712
2.0439062 -4.8058982 -0.39864507 0.9792673
1.9833496 -4.8311815 -0.39864329 0.97926736
1.9224805 -4.8556933 -0.3986415 0.97926748
1.6137598 -4.9667087 -0.39863235 0.97926795
1.5512011 -4.9865818 -0.39863047 0.97926801
1.4253808 -5.0239453 -0.39862674 0.97926819
1.3621386 -5.0414352 -0.39862487 0.97926831
1.1711426 -5.0891209 -0.39861915 0.97926861
1.1070995 -5.1034079 -0.39861724 0.97926867
0.97849607 -5.12958 -0.39861342 0.97926885
0.78447264 -5.162744 -0.39860764 0.97926915
0.58929688 -5.1885548 -0.3986018 0.9792695
0.52405274 -5.1955175 -0.39859983 0.97926962
0.39333007 -5.2070017 -0.39859593 0.9792698
0.32786131 -5.211494 -0.39859396 0.97926992
0.19679686 -5.2180567 -0.39859003 0.97927004
-0.065644532 -5.2212501 -0.39858213 0.97927046
-0.1312207 -5.2199802 -0.39858016 0.97927058
-0.20066406 -3.9884081 -0.30482998 0.98410738
-0.52405274 -5.195117 -0.39856833 0.97927117
-0.5892871 -5.188076 -0.3985664 0.97927135
-0.65442383 -5.180254 -0.39856446 0.97927141
-0.71946287 -5.1715918 -0.39856246 0.97927153
-0.78440428 -5.1621094 -0.39856052 0.97927165
-0.97839844 -5.1288085 -0.39855465 0.97927189
-1.0427636 -5.1160841 -0.39855269 0.97927201
-1.234834 -5.0730762 -0.3985469 0.97927231
-1.4251269 -5.022861 -0.39854109 0.9792726
-1.488125 -5.0045309 -0.39853919 0.97927266
-1.6134082 -4.9655075 -0.39853537 0.97927284
-1.7376758 -4.9233398 -0.39853159 0.97927308
-1.7993749 -4.9010935 -0.39852974 0.9792732
-1.8608301 -4.8780856 -0.39852786 0.9792732
-1.6489453 -4.0164843 -0.33141807 0.98273313
-1.6897949 -3.9731152 -0.32956594 0.9828288
-1.7443945 -3.9624901 -0.33048332 0.98278171
-2.1633985 -4.7515039 -0.39851862 0.97927374
-2.2229297 -4.7239256 -0.39851683 0.9792738
-2.3993359 -4.6367087 -0.39851141 0.97927415
-2.5723827 -4.5429392 -0.3985061 0.97927433
-2.685703 -4.4768262 -0.39850265 0.97927451
-2.8525 -4.3723631 -0.39849752 0.97927475
-2.9071972 -4.3361521 -0.39849585 0.97927487
-3.1213379 -4.1845407 -0.39848927 0.97927523
-3.1880956 -3.9538574 -0.38769674 0.9798308
-3.2670898 -3.9492383 -0.39123937 0.97964847
-3.3834276 -3.9867578 -0.39913633 0.97924185
-3.4275877 -3.9374316 -0.39847976 0.97927576
-3.5254393 -3.8500292 -0.39847675 0.97927582
-3.573535 -3.8054004 -0.39847526 0.97927594
-3.6409862 -3.7808886 -0.40066755 0.97916311
-3.8199315 -3.772207 -0.40979508 0.97869354
-3.9124901 -3.7676952 -0.41461051 0.97844577
-1.022666 -0.93643552 -0.10584259 0.99445277
-1.0231249 -0.890625 -0.10354023 0.99457312
-1.0235351 -0.84674805 -0.10139721 0.99468517
-1.0306835 -0.70996094 -0.095531918 0.99499184
-1.0589453 -0.70998043 -0.097314715 0.9948985
-1.0882519 -0.70996094 -0.099181518 0.99480098
-1.1187304 -0.70997071 -0.10113765 0.9946987
-1.1504394 -0.70997071 -0.10318908 0.99459141
-1.2178711 -0.70997071 -0.10760494 0.99436074
-1.2538476 -0.70998043 -0.10998428 0.99423629
-1.2914257 -0.70998043 -0.11248947 0.9941054
-1.4608105 -0.70997071 -0.12397709 0.99350548
-1.5087304 -0.70996094 -0.12727813 0.99333322
-1.5592968 -0.70996094 -0.13078064 0.99315035
-1.6693262 -0.70997071 -0.13846698 0.99274915
-1.7293457 -0.70997071 -0.14269447 0.99252868
-1.7948925 -0.71065426 -0.14735481 0.99228561
-6.1951952 -2.1865332 -0.50148457 0.97398889
-6.2731934 -1.9514941 -0.50148201 0.97398895
-6.2971973 -1.8724999 -0.50148118 0.97398901
-6.3202147 -1.7932129 -0.50148046 0.97398907
-6.3632421 -1.6338086 -0.50147897 0.97398925
-6.3832712 -1.5537305 -0.50147825 0.97398925
-6.4023046 -1.4733984 -0.5014776 0.97398919
-6.4203124 -1.3928223 -0.501477 0.97398919
-6.4372754 -1.3120215 -0.50147641 0.97398931
-6.4532518 -1.2310351 -0.50147581 0.97398931
-6.4821286 -1.0684668 -0.5014748 0.97398943
-6.5069237 -0.90523434 -0.50147384 0.97398943
-6.536406 -0.65933591 -0.50147271 0.97398949
-6.5441794 -0.57715821 -0.50147241 0.97398949
-6.5566015 -0.41251951 -0.50147188 0.97398955
-6.5612793 -0.33009765 -0.50147164 0.97398949
-6.5649118 -0.24762695 -0.50147146 0.97398949
-6.5674996 -0.16510741 -0.50147128 0.97398949
-6.3377147 0.079628907 -0.5014779 0.97488856
-6.3362207 0.15926757 -0.5014779 0.97488856
-6.3337011 0.23887695 -0.50147784 0.97488862
-6.3202243 0.47743163 -0.50147802 0.9748885
-6.2882419 0.79438478 -0.50147861 0.97488856
-6.2777829 0.87333983 -0.50147885 0.9748885
-6.2662988 0.95213866 -0.50147915 0.97488856
-6.2538671 1.0308203 -0.50147939 0.97488844
-6.225986 1.1876562 -0.5014801 0.97488844
-6.210566 1.2658105 -0.50148046 0.97488844
-6.1768165 1.4214746 -0.50148129 0.97488838
-6.1584764 1.4989648 -0.50148177 0.97488832
-6.1391602 1.5762597 -0.50148225 0.97488832
-6.1188865 1.6532714 -0.50148278 0.97488827
-6.0976171 1.7300292 -0.50148338 0.97488827
-6.0753903 1.8065332 -0.50148392 0.97488827
-6.0522265 1.8827245 -0.50148457 0.97488821
-6.0280957 1.9586328 -0.50148523 0.97488821
-1.7955273 0.65916991 -0.15133178 0.99235469
-1.7293555 0.70992184 -0.14790432 0.99252707
-1.6693164 0.70993161 -0.14352229 0.99274772
-1.5593262 0.70992184 -0.1355558 0.99314886
-1.5087402 0.70993161 -0.13192512 0.99333179
-1.4153028 0.70992184 -0.12527432 0.99366683
-1.3720019 0.70993161 -0.1222224 0.99382067
-1.2914159 0.70992184 -0.11659671 0.99410427
-1.253828 0.70993161 -0.11400005 0.99423522
-1.1834472 0.70993161 -0.1091883 0.99447781
-1.058916 0.70992184 -0.10086807 0.99489766
-1.0307031 0.70993161 -0.099020079 0.99499077
-1.023623 0.7634961 -0.10103485 0.99488914
-1.0230273 0.8248437 -0.10397426 0.9947409
-1.0228125 0.84611326 -0.10502521 0.99468786
-1.0219042 0.9357031 -0.10962665 0.99445581
-4.3970213 4.5659375 -0.50153142 0.97488594
-4.2218456 4.7284765 -0.50153649 0.97488564
-4.1016994 4.8331056 -0.50154001 0.97488552
-4.0406542 4.8842773 -0.50154179 0.97488546
-3.726084 5.1284571 -0.50155097 0.97488493
-3.6613379 5.1749024 -0.50155288 0.97488487
-3.3292577 5.3946776 -0.5015626 0.97488439
-3.2612207 5.4361033 -0.50156462 0.97488433
-3.0540428 5.5552244 -0.5015707 0.97488403
-2.9134765 5.6302829 -0.50157487 0.97488379
-2.8425195 5.6664648 -0.50157696 0.97488374
-2.7711034 5.7017479 -0.50157905 0.97488368
-2.4811718 5.8338866 -0.50158763 0.9748832
-2.4076855 5.8646188 -0.50158978 0.97488308
-2.3337891 5.894453 -0.50159198 0.97488296
-2.1100194 5.9782715 -0.5015986 0.97488272
-2.0347364 6.004365 -0.50160086 0.97488254
-1.9591211 6.0294919 -0.50160313 0.97488242
-1.7305175 6.0991306 -0.50160992 0.97488207
-1.6537304 6.1204004 -0.50161219 0.97488207
-1.3441503 6.1958885 -0.50162137 0.97488153
-1.0311718 6.255713 -0.50163072 0.97488111
-0.95249021 6.2682128 -0.50163311 0.97488093
-0.39813477 6.3278613 -0.50164968 0.97488016
-0.31859374 6.3323827 -0.50165206 0.97488004
-0.079687499 6.3399801 -0.50165921 0.97487974
0.079658203 6.3400488 -0.50166404 0.97487944
0.15933594 6.3385739 -0.50166643 0.97487932
0.31857422 6.3326364 -0.5016712 0.97487909
0.47759765 6.3226852 -0.50167596 0.97487885
0.79364258 6.2825294 -0.50102466 0.97491109
0.86197263 6.1961813 -0.49496391 0.97521085
0.92868161 6.1118846 -0.48912421 0.97549969
1.0575 5.9488864 -0.47805572 0.9760474
1.1197363 5.8699317 -0.47280297 0.97630739
1.2479784 5.7527637 -0.46574581 0.97665691
1.6335351 5.4935937 -0.45346221 0.97726548
1.7577929 5.4100294 -0.45006976 0.97743368
1.8193066 5.3687792 -0.44850314 0.97751123
1.8806055 5.3284178 -0.44707289 0.97758228
2.0622461 5.208662 -0.44323525 0.97777253
2.2409277 5.0904784 -0.44005671 0.97793007
2.299912 5.0513768 -0.43914062 0.97797549
2.3586524 5.0123825 -0.43829387 0.97801757
2.417207 4.9736423 -0.4375273 0.97805554
2.5337889 4.8965821 -0.4362146 0.97812074
2.6496875 4.8198047 -0.43517134 0.97817248
3.0444238 4.6666017 -0.44084704 0.97789097
3.182246 4.6198239 -0.44384515 0.97774225
3.2518163 4.5961328 -0.44546017 0.97766221
3.3926075 4.5482421 -0.4489418 0.97748959
3.4645116 4.5248532 -0.45089611 0.97739273
3.5370409 4.5012498 -0.45293713 0.97729152
3.6841502 4.4533787 -0.45729631 0.97707558
3.910449 4.3797655 -0.46454993 0.97671616
4.0655079 4.3293066 -0.46989119 0.97645164
4.5114059 4.2364841 -0.48965299 0.97547346
4.612998 4.2240624 -0.49487904 0.97521496
4.8868847 4.0427833 -0.50181085 0.97487229
1.2513769 0.88538086 -0.12128673 0.99386805
1.2515918 0.86211914 -0.12024715 0.99392045
1.2523534 0.77285153 -0.11643711 0.99411249
1.2526855 0.73025388 -0.1147258 0.9941988
1.2537695 0.70992184 -0.11400005 0.99423546
1.2913672 0.70993161 -0.11659709 0.99410444
1.3719629 0.70993161 -0.12222244 0.99382085
1.4607714 0.70993161 -0.12850368 0.99350429
1.5087011 0.70992184 -0.13192527 0.99333197
1.7930957 0.70992184 -0.15258735 0.99229169
1.8611034 0.70994139 -0.15760143 0.99203932
1.9337305 0.70992184 -0.16298336 0.9917686
2.0234668 0.71414059 -0.16977797 0.991427
2.0234766 0.68567383 -0.1690422 0.99146396
6.056582 1.8841015 -0.50184834 0.97487038
6.1020508 1.7313086 -0.50184983 0.9748702
6.1436229 1.5774024 -0.50185126 0.97487026
6.1629882 1.5000879 -0.50185192 0.97487015
6.1813669 1.4225292 -0.50185257 0.97487009
6.2151661 1.2667481 -0.50185376 0.97487009
6.2305956 1.1885351 -0.5018543 0.97487009
6.2824802 0.87399411 -0.50185621 0.97486991
6.2929587 0.79498047 -0.50185657 0.97486997
6.3024511 0.71583009 -0.50185692 0.97486997
6.3109665 0.63658202 -0.50185728 0.97486991
6.3184762 0.55721676 -0.50185758 0.97486985
6.3424997 0.079687499 -0.50185883 0.97486985
6.342998 -1.953125e-05 -0.50185895 0.97486985
6.3425097 -0.079726562 -0.50185901 0.97486985
6.3349805 -0.31871092 -0.50185907 0.97486991
6.3304882 -0.39829102 -0.50185895 0.97486985
6.2929783 -0.79499996 -0.50185829 0.97486985
6.2450681 -1.1101953 -0.50185716 0.97486997
6.2152047 -1.2667773 -0.50185645 0.97486991
6.1987891 -1.3447753 -0.50185603 0.97486997
6.1436715 -1.5774413 -0.5018546 0.97487009
6.1020799 -1.7313281 -0.50185353 0.97487009
6.0798535 -1.8078711 -0.50185293 0.97487009
2.0234766 -0.68572265 -0.16904262 0.9914639
1.6692871 -0.70997071 -0.14352264 0.99274778
1.5086914 -0.70997071 -0.13192527 0.99333191
1.4607714 -0.70997071 -0.12850372 0.99350423
1.4152637 -0.70997071 -0.12527451 0.99366689
1.3307129 -0.70996094 -0.11933399 0.9939664
1.2526855 -0.73029298 -0.1147258 0.99419868
1.2523438 -0.7729004 -0.11643714 0.99411243
1.2519727 -0.81681639 -0.11827499 0.99401981
1.2517675 -0.83930659 -0.1192437 0.99397099
1.2515918 -0.86216795 -0.12024719 0.99392033
1.2513769 -0.88541991 -0.1212867 0.99386793
1.2511718 -0.90905273 -0.12236355 0.99381369
1.250957 -0.93314451 -0.12347889 0.99375743
4.9502635 -3.8898926 -0.4981184 0.97505474
4.6983399 -3.8868358 -0.48245037 0.9758299
4.4612989 -3.883662 -0.46798614 0.97654587
4.3479099 -3.8820605 -0.46117225 0.97688335
3.6360447 -3.8720508 -0.42025691 0.97891253
3.5461035 -3.8726463 -0.41545352 0.97915107
3.4591894 -3.8743651 -0.4109416 0.97937512
3.3740916 -3.8760154 -0.40658653 0.97959143
3.2907128 -3.877578 -0.40238121 0.9798004
3.2119238 -3.8825781 -0.3986792 0.97998428
3.1628516 -3.922627 -0.39867774 0.9799844
3.1133204 -3.9620507 -0.39867631 0.9799844
3.0632617 -4.0008397 -0.39867485 0.97998452
2.9617381 -4.0765138 -0.39867187 0.9799847
2.9102733 -4.1133986 -0.39867038 0.97998476
2.8583398 -4.1496286 -0.39866886 0.97998482
