# .PCD v0.7 - Point Cloud Data file format
VERSION 0.7
FIELDS x y z intensity
SIZE 4 4 4 4
TYPE F F F F
COUNT 1 1 1 1
WIDTH 1081
HEIGHT 1
VIEWPOINT 0 0 0 1 0 0 0
POINTS 1081
DATA ascii
-1.6089159 11.56496 -0.50169724 0.9543274
-1.4634374 11.584208 -0.50169492 0.95432764
-1.3177441 11.601621 -0.50169259 0.95432788
-1.1718554 11.617216 -0.50169021 0.95432806
-0.815 9.2409372 -0.39859721 0.96353984
-0.69879884 9.2504292 -0.39859533 0.9635399
-0.46609375 9.2647657 -0.39858332 0.96354109
-0.34963867 9.2697754 -0.3985765 0.96354151
-0.233125 9.2732515 -0.39856967 0.96354222
-9.7656248e-06 9.2758493 -0.39855608 0.96354353
0.11654297 9.2749414 -0.39854929 0.96354419
0.34958982 9.2687893 -0.39853576 0.96354532
0.46603516 9.2634954 -0.39852896 0.96354598
0.5823828 9.2567673 -0.39852226 0.96354651
0.69864255 9.2485542 -0.39851573 0.96354717
1.0466796 9.2152147 -0.39849654 0.96354884
1.1623828 9.201211 -0.39849025 0.96354932
1.2778808 9.1857224 -0.39848396 0.96354991
1.3931934 9.1687794 -0.3984777 0.96355057
1.5082617 9.1504393 -0.39847144 0.96355098
2.0797069 9.036972 -0.39844096 0.96355379
2.3060546 8.9815626 -0.39842907 0.96355498
2.642832 8.8878613 -0.39841154 0.96355659
2.9756835 8.7812014 -0.39837608 0.96355957
3.0857811 8.7430763 -0.39837435 0.96355975
3.1953807 8.7035351 -0.39837265 0.96356004
3.3044727 8.6626854 -0.39837092 0.9635601
3.8418748 8.4380369 -0.39836898 0.96356034
4.0526657 8.3387403 -0.39836434 0.9635607
4.1570897 8.2871094 -0.39836228 0.96356094
4.3640332 8.1799994 -0.39836088 0.963561
4.9678221 7.8280172 -0.39836094 0.96356106
5.1629882 7.7007713 -0.39836273 0.96356076
5.2593651 7.6352634 -0.39836374 0.96356082
5.3548923 7.5686131 -0.39836502 0.9635607
5.4496188 7.5007615 -0.39836636 0.96356046
5.5434666 7.4317183 -0.39836773 0.96356034
5.6364059 7.3614745 -0.39836922 0.96356034
5.7284861 7.2901168 -0.39837074 0.96356016
5.8196969 7.2175779 -0.39837232 0.96355999
6.1750879 6.9161911 -0.39837933 0.96355933
6.3469825 6.7588573 -0.3983832 0.96355909
6.4314647 6.6786327 -0.39838523 0.96355879
6.5973434 6.5149708 -0.39838949 0.96355838
6.7590623 6.3471875 -0.39839405 0.96355802
6.9164844 6.1753907 -0.39839879 0.96355766
7.0695896 5.9997067 -0.39840385 0.96355718
7.1444821 5.9104295 -0.39840651 0.96355695
7.2182422 5.8202343 -0.39840919 0.96355665
7.3623242 5.6370606 -0.39841476 0.96355623
1.2622949 0.89310545 -0.066440009 0.99382824
1.2627246 0.80135739 -0.064259797 0.99403018
1.2913867 0.70996094 -0.063319437 0.9941172
1.3719531 0.70994139 -0.066374473 0.99383438
1.460791 0.70995116 -0.069785692 0.99351841
1.5087206 0.70993161 -0.071643673 0.99334645
1.6692871 0.70995116 -0.077942006 0.99276364
1.7293066 0.70993161 -0.080321498 0.99254358
1.7931151 0.70994139 -0.082864456 0.99230844
2.0189159 0.71254879 -0.091990888 0.99146485
11.145 3.4670019 -0.5015021 0.95434475
11.228516 3.1858203 -0.50150108 0.95434511
11.305029 2.9026368 -0.50150013 0.95434511
11.340586 2.7603514 -0.50149971 0.95434517
11.374394 2.6176171 -0.5014993 0.95434511
11.436572 2.3309569 -0.50149864 0.95434517
11.491513 2.0428123 -0.50149804 0.95434523
11.539208 1.7533984 -0.50149763 0.95434529
11.560331 1.6082324 -0.50149745 0.95434529
11.579638 1.4628417 -0.50149727 0.95434529
11.612744 1.1713867 -0.50149709 0.95434523
11.638525 0.87916988 -0.50149697 0.95434523
11.656914 0.58642578 -0.50149697 0.95434535
11.667969 0.29331055 -0.50149709 0.95434535
11.670752 0.14665039 -0.50149721 0.95434529
11.648662 -0.73288083 -0.50149852 0.95434517
11.638545 -0.87919921 -0.50149882 0.95434511
11.612763 -1.1714063 -0.50149953 0.95434517
11.597168 -1.3172363 -0.50149995 0.95434505
11.56039 -1.6082715 -0.5015009 0.95434505
11.539346 -1.753418 -0.50150132 0.95434475
11.516386 -1.8982812 -0.50150186 0.95434481
11.49164 -2.0428417 -0.50150239 0.95434475
11.465049 -2.1870897 -0.50150299 0.95434481
11.406504 -2.4745312 -0.50150424 0.95434463
11.340742 -2.7604101 -0.50150561 0.95434457
11.305176 -2.9026952 -0.50150633 0.95434451
11.228701 -3.185869 -0.50150788 0.95434433
11.187832 -3.3267479 -0.50150865 0.95434415
2.0186036 -0.65589845 -0.09119793 0.99153823
1.9337499 -0.70995116 -0.088510051 0.99178648
1.6692871 -0.70996094 -0.077941626 0.99276364
1.612705 -0.70996094 -0.075710714 0.99297005
1.5087109 -0.70996094 -0.071643367 0.99334645
1.4607714 -0.70996094 -0.069785386 0.99351847
1.3719629 -0.70995116 -0.066374399 0.99383432
1.3307129 -0.70995116 -0.064805716 0.99397963
1.2913867 -0.70996094 -0.063319318 0.9941172
1.2631347 -0.71522456 -0.062369116 0.99420524
1.2630175 -0.73628902 -0.062816463 0.99416387
1.2627343 -0.80136716 -0.064259797 0.99403012
1.2626269 -0.82374996 -0.064776421 0.99398232
1.2621875 -0.917041 -0.067035332 0.9937731
1.2620703 -0.94139647 -0.067651674 0.993716
7.2921581 -5.7301364 -0.39848366 0.96355003
7.2195897 -5.8213282 -0.39848492 0.96354997
7.1458788 -5.9116111 -0.39848617 0.96354991
7.071084 -6.0009665 -0.39848748 0.96354967
6.9951367 -6.0893846 -0.39848876 0.96354949
6.680449 -6.4332418 -0.39849415 0.96354902
6.5991015 -6.5166988 -0.39849555 0.9635489
6.2634277 -6.840117 -0.39850128 0.96354842
6.1769919 -6.9183297 -0.39850274 0.96354824
3.3030467 -4.0964451 -0.22611012 0.97915208
3.2840135 -4.2891307 -0.23210691 0.97860438
5.4516501 -7.5035839 -0.39851493 0.96354705
5.2613964 -7.6382422 -0.39851815 0.96354693
5.3208103 -8.8693161 -0.44440678 0.95943588
4.6035838 -7.8970699 -0.3927604 0.96406412
5.0907907 -8.9906197 -0.44393206 0.95947832
4.6234179 -9.2166843 -0.4430508 0.95955724
4.5051074 -9.2696381 -0.44284278 0.95957607
4.3862791 -9.3213034 -0.44263965 0.95959395
4.2668943 -9.3715038 -0.4424414 0.95961159
4.0265527 -9.4676466 -0.44206449 0.95964557
3.9080956 -9.5194674 -0.44215435 0.95963734
3.6781933 -9.6423626 -0.44342768 0.9595235
3.5619824 -9.7020998 -0.44407901 0.95946509
2.6663475 -7.8683982 -0.35696918 0.96728486
3.2083495 -9.8743305 -0.44610631 0.95928389
3.0888574 -9.9293404 -0.44680655 0.9592216
2.6150682 -9.216855 -0.41165191 0.96236837
2.382627 -9.2797756 -0.41165569 0.96236795
2.26583 -9.3090038 -0.4116576 0.96236783
2.1487012 -9.3367968 -0.41165951 0.96236759
1.9133984 -9.3879395 -0.41166332 0.96236724
1.795293 -9.4112644 -0.41166523 0.96236718
1.6769042 -9.4331541 -0.41166714 0.96236688
1.4392871 -9.4723778 -0.41167098 0.96236664
1.3201855 -9.4897852 -0.41167289 0.96236634
1.2008203 -9.5056686 -0.4116748 0.96236622
1.0812988 -9.52001 -0.41167673 0.96236616
0.96157223 -9.5329247 -0.41167864 0.96236587
0.72171873 -9.5541649 -0.41168249 0.96236557
0.60161132 -9.5625343 -0.41168445 0.96236533
0.36112303 -9.5747023 -0.4116883 0.96236509
0.12038086 -9.5808392 -0.4116922 0.96236473
-0.12040039 -9.5809126 -0.41169602 0.96236444
-0.34430665 -9.1284618 -0.39249992 0.96408719
-0.4154785 -8.2584715 -0.35528991 0.96743584
-0.51950192 -8.2570848 -0.35548294 0.96741843
-0.62366211 -8.255703 -0.35573334 0.9673959
-0.40261719 -3.9913867 -0.17236766 0.9840669
-0.45234373 -3.9824414 -0.17221348 0.98408109
-0.5063867 -4.0084763 -0.17360099 0.98395389
-1.4656152 -8.2445211 -0.35979638 0.96702975
-2.0050292 -8.2373629 -0.36426756 0.96662682
-2.1146581 -8.2359076 -0.3653501 0.96652937
-2.3359277 -8.2329683 -0.36770865 0.966317
-2.5602245 -8.22999 -0.37033224 0.96608073
-2.6736231 -8.2284861 -0.37174761 0.96595335
-2.701992 -7.973525 -0.36173552 0.96685505
-2.802002 -7.9390135 -0.36173713 0.96685475
-2.9015625 -7.9031734 -0.36173865 0.96685475
-3.0006542 -7.8661423 -0.36174017 0.96685457
-3.1045411 -7.8412008 -0.36235854 0.96679884
-3.4475293 -7.831367 -0.36765072 0.96632212
-1.8771582 -3.9891698 -0.18943074 0.98250353
-1.9259765 -3.9628515 -0.18931623 0.98251408
-1.9955859 -3.9781737 -0.1912308 0.98233885
-4.4171777 -7.8009567 -0.38518661 0.96474445
-4.6746974 -7.792285 -0.39043739 0.96427256
-4.9393454 -7.7831249 -0.39607477 0.96376616
-5.0699024 -7.7712598 -0.39868334 0.96353209
-5.2636423 -7.6414742 -0.39868629 0.96353173
-5.7331638 -7.2959957 -0.39869347 0.9635312
-6.1800976 -6.9217577 -0.39870018 0.96353042
-6.2666016 -6.8435936 -0.39870146 0.96353024
-6.352119 -6.764287 -0.39870277 0.9635303
-6.4366307 -6.6839647 -0.39870402 0.96353018
-6.5201364 -6.6025782 -0.39870527 0.96353006
-6.6025977 -6.5201464 -0.3987065 0.96352994
-6.6840234 -6.4366598 -0.39870772 0.96352994
-1.0317383 -0.94476563 -0.060108222 0.99441469
-1.0318555 -0.92130858 -0.059436645 0.99447697
-1.0324903 -0.81131834 -0.056419637 0.99475646
-1.0326757 -0.77030271 -0.05535553 0.99485523
-1.058916 -0.70996094 -0.054777641 0.99490875
-1.1187011 -0.70996094 -0.056929395 0.99470931
-1.1504004 -0.70995116 -0.058084182 0.99460232
-1.2178515 -0.70995116 -0.060569763 0.99437201
-1.3307323 -0.70995116 -0.064805716 0.99397957
-1.4152734 -0.70995116 -0.068031885 0.99368078
-1.460791 -0.70995116 -0.069785692 0.99351841
-1.5592871 -0.70994139 -0.073615223 0.99316394
-1.6692969 -0.70995116 -0.077941775 0.99276364
-10.445889 -3.6867774 -0.4759638 0.95661861
-10.863233 -3.6812303 -0.49283245 0.95511609
-11.108603 -3.6094043 -0.50186521 0.95431238
-11.153086 -3.4695311 -0.5018658 0.95431238
-11.349004 -2.7624023 -0.50186819 0.95431209
-11.414834 -2.4763184 -0.5018689 0.95431209
-11.473456 -2.1886816 -0.50186956 0.95431209
-11.500039 -2.0443261 -0.5018698 0.95431215
-11.547792 -1.7546874 -0.50187027 0.95431215
-11.568974 -1.6094433 -0.50187045 0.95431197
-11.605762 -1.3181933 -0.50187069 0.95431197
-11.621406 -1.1722559 -0.50187081 0.95431197
-11.657333 -0.73341793 -0.50187093 0.95431197
-11.665606 -0.58686525 -0.50187093 0.95431209
-11.679443 -0.14676757 -0.50187063 0.95431203
-10.971328 -9.7656248e-06 -0.50185919 0.95701981
-10.967852 0.27571288 -0.50185883 0.95701987
-10.957421 0.55124021 -0.50185835 0.95701998
-10.915898 1.1011035 -0.50185716 0.95701993
-10.825175 1.7843261 -0.50185496 0.9570201
-10.691699 2.4605079 -0.5018521 0.9570204
-10.554511 2.99458 -0.50184929 0.95702064
-10.434111 3.390244 -0.50184697 0.95702076
-10.345566 3.651377 -0.5018453 0.957021
-1.7852148 0.68099606 -0.087401047 0.99237841
-1.7293066 0.70994139 -0.085510366 0.99254268
-1.6693066 0.70995116 -0.082977027 0.99276268
-1.5592773 0.70994139 -0.078371085 0.99316317
-1.5087304 0.70994139 -0.076272123 0.99334562
-1.3719629 0.70995116 -0.070662424 0.99383354
-1.3307421 0.70994139 -0.068992764 0.9939788
-1.2914063 0.70994139 -0.067410089 0.99411649
-1.253828 0.70994139 -0.065908737 0.99424714
-1.1834277 0.70994139 -0.06312675 0.99448931
-1.0321875 0.73027343 -0.057837676 0.99494988
-1.0320801 0.74985349 -0.058355331 0.99490482
-1.0319922 0.76975584 -0.058891561 0.99485809
-1.0317773 0.81074214 -0.060022961 0.9947595
-1.0315137 0.85333008 -0.06123741 0.99465382
-1.0311328 0.92062497 -0.06323044 0.99448025
-7.9968653 7.509541 -0.50180364 0.95702451
-7.8055954 7.7080855 -0.50180036 0.95702469
-6.992363 8.4523239 -0.50178659 0.95702595
-6.7777243 8.6252928 -0.50178295 0.95702624
-6.6687598 8.7097654 -0.50178117 0.95702636
-6.5587597 8.7928314 -0.50177932 0.9570266
-6.3356934 8.954834 -0.50177556 0.95702678
-6.2226562 9.0336819 -0.50177366 0.95702696
-6.108613 9.1111422 -0.50177175 0.95702714
-5.877666 9.2616987 -0.50176793 0.95702749
-5.7608008 9.3348045 -0.50176597 0.95702761
-5.1631737 9.6778803 -0.50175607 0.95702857
-4.9183202 9.8045311 -0.50175202 0.95702875
-4.670361 9.9249411 -0.50174791 0.9570291
-4.419414 10.039082 -0.50174379 0.95702952
-3.6505566 10.343213 -0.50173116 0.95703053
-2.9938476 10.551806 -0.50172043 0.95703137
-2.7276757 10.623603 -0.50171614 0.95703185
-2.5939746 10.656992 -0.50171399 0.95703197
-1.9196484 10.798623 -0.50170308 0.95703286
-1.783789 10.821845 -0.50170082 0.95703304
-0.65639645 8.6890717 -0.39859527 0.96570992
-0.54715818 8.6965818 -0.39859352 0.96571016
-0.32840818 8.7073727 -0.39858237 0.96571094
-0.21896484 8.7106543 -0.39857617 0.96571159
0.10946289 8.7123146 -0.39855757 0.96571314
0.32836914 8.7065525 -0.3985453 0.96571416
0.65625978 8.6875877 -0.39852706 0.96571571
0.76537108 8.6785545 -0.39852104 0.96571606
0.98317379 8.6562595 -0.39850909 0.96571732
1.0918652 8.643115 -0.39850315 0.96571773
1.5246484 8.5768261 -0.39847976 0.96571976
1.8467675 8.5128908 -0.39846259 0.96572125
2.0600488 8.4634466 -0.39844465 0.96572262
2.2719336 8.408515 -0.3984223 0.96572459
2.5870116 8.3162012 -0.39838853 0.96572745
2.7951367 8.2483883 -0.3983795 0.96572816
3.0015233 8.175478 -0.39837632 0.9657284
3.1039746 8.1370697 -0.39837527 0.96572864
3.4086621 8.0147848 -0.39839885 0.96572661
3.6089745 7.9265623 -0.39839721 0.96572673
3.7083006 7.8805175 -0.398395 0.96572697
3.9051366 7.7847848 -0.39839077 0.96572721
4.0026364 7.7350779 -0.39839 0.96572733
4.0994921 7.6841307 -0.39838931 0.96572751
4.1957226 7.6320214 -0.39838871 0.96572745
4.2913084 7.578691 -0.39838824 0.96572745
4.4803805 7.4684372 -0.39838752 0.96572757
4.7587008 7.2942672 -0.39838812 0.96572751
4.8500094 7.2339258 -0.39838889 0.96572739
4.940537 7.1724415 -0.39838982 0.96572727
5.1192284 7.0460348 -0.3983919 0.96572721
5.2947168 6.915205 -0.39839444 0.96572697
5.5516601 6.7108102 -0.39839888 0.96572655
5.6355662 6.6405368 -0.39840049 0.96572644
5.7186036 6.5692282 -0.39840221 0.96572626
5.9622169 6.3491306 -0.39840758 0.96572578
6.4237399 5.8821583 -0.39841995 0.96572471
6.4971871 5.8009958 -0.39842224 0.96572453
1.2612305 0.94076169 -0.071973078 0.99371946
1.2613477 0.91640621 -0.071317822 0.9937765
1.261709 0.84591794 -0.069484748 0.99393594
1.2620214 0.77883786 -0.067837104 0.99407941
1.2621191 0.75715816 -0.067325667 0.99412394
1.2623242 0.71476561 -0.066356428 0.99420822
1.2913867 0.70996094 -0.067410089 0.99411649
1.3307421 0.70993161 -0.068992421 0.9939788
1.460791 0.70995116 -0.074294053 0.99351764
1.5592675 0.70994139 -0.07837116 0.99316317
1.612705 0.70995116 -0.08060196 0.99296921
1.7931151 0.70994139 -0.088217847 0.99230748
1.8611327 0.70993161 -0.091116823 0.99205565
2.0210547 0.71329099 -0.098037869 0.99145484
2.0208983 0.68482423 -0.097605132 0.99149233
2.020752 0.65659177 -0.09719196 0.99152821
10.58418 2.8597949 -0.50151169 0.95704895
10.619267 2.7265723 -0.50151128 0.95704895
10.684365 2.4588377 -0.50151056 0.95704925
10.714443 2.3243749 -0.5015102 0.95704913
10.742793 2.1895506 -0.5015099 0.95704919
10.769463 2.0543847 -0.50150961 0.95704919
10.794424 1.9188769 -0.50150937 0.95704919
10.817685 1.7830957 -0.50150913 0.95704919
10.839229 1.6470214 -0.50150895 0.95704925
10.859072 1.5106835 -0.50150871 0.95704925
10.877207 1.3741015 -0.50150859 0.95704919
10.908281 1.1003222 -0.50150841 0.95704925
10.95583 0.41322264 -0.50150836 0.95704931
10.960156 0.27549803 -0.50150841 0.95704931
10.962792 0.1377539 -0.50150853 0.95704919
10.960196 -0.27552733 -0.50150907 0.95704919
10.955859 -0.41324219 -0.50150925 0.95704925
10.949804 -0.55086911 -0.50150949 0.95704919
10.893691 -1.237334 -0.5015111 0.95704889
10.877265 -1.3741308 -0.50151151 0.95704895
10.817763 -1.7831249 -0.50151289 0.95704889
10.794531 -1.918916 -0.50151342 0.95704877
10.769589 -2.054414 -0.50151396 0.95704865
10.74291 -2.18958 -0.50151455 0.95704871
10.684531 -2.4588671 -0.50151575 0.95704859
10.547548 -2.9926367 -0.50151849 0.95704836
10.469052 -3.2567577 -0.5015201 0.95704818
2.0208886 -0.68483394 -0.097605281 0.99149239
1.9337499 -0.70995116 -0.094228283 0.99178547
1.8611034 -0.70996094 -0.091116406 0.99205571
1.612705 -0.70996094 -0.080602072 0.99296921
1.5592871 -0.70995116 -0.078370973 0.99316311
1.4152637 -0.70994139 -0.07242687 0.99368006
1.3307323 -0.70995116 -0.068992577 0.9939788
1.2913867 -0.70996094 -0.067410044 0.99411649
1.2623047 -0.71478516 -0.066356465 0.99420822
1.2621288 -0.75717771 -0.067325704 0.99412388
1.2619238 -0.80084962 -0.06836693 0.99403322
1.261582 -0.86900389 -0.070074461 0.99388474
6.7816305 -5.4681835 -0.3984915 0.96571863
6.7123728 -5.5529785 -0.39849272 0.96571863
6.5707517 -5.7199411 -0.39849517 0.96571845
6.4983592 -5.8020802 -0.39849639 0.96571839
6.4249802 -5.8833008 -0.3984977 0.96571821
6.3505564 -5.9635935 -0.39849892 0.96571809
6.1213379 -6.1987791 -0.39850283 0.96571773
5.9636717 -6.3506737 -0.39850554 0.96571755
5.8834372 -6.4251461 -0.39850688 0.96571738
5.8022265 -6.4985938 -0.39850825 0.96571732
3.4882617 -4.1102829 -0.24659702 0.97864497
3.3995702 -4.1093845 -0.24396151 0.97887087
3.3016992 -4.0947948 -0.24061321 0.97915792
3.2622266 -4.1515427 -0.24151874 0.9790802
3.2825098 -4.2871385 -0.24698736 0.97861153
3.2624998 -4.3738084 -0.2495914 0.97838789
5.1208982 -7.0483103 -0.39851972 0.96571624
5.0319433 -7.1121092 -0.39852121 0.96571618
4.9421778 -7.1748242 -0.39852276 0.96571606
4.8516407 -7.2363768 -0.39852422 0.965716
4.7603517 -7.2968163 -0.39852577 0.96571577
4.2928615 -7.5814648 -0.39853355 0.96571517
4.1010251 -7.6870017 -0.39853671 0.96571493
4.0041113 -7.7379785 -0.39853832 0.96571475
3.8084276 -7.8362107 -0.39854157 0.96571445
3.7096777 -7.8834958 -0.39854315 0.96571428
4.0262599 -8.8430414 -0.44446373 0.96184057
3.9156346 -8.894824 -0.44456077 0.96183264
3.8085644 -8.9550829 -0.44513872 0.96178341
3.5919433 -9.0722113 -0.44633859 0.96168298
3.4824219 -9.129199 -0.44695076 0.96163118
3.3721287 -9.1850243 -0.44757271 0.96157873
3.2610643 -9.2397308 -0.44820929 0.96152544
2.6663475 -7.8683982 -0.38002959 0.96728092
2.6731348 -8.5930471 -0.4116503 0.96460694
2.564961 -8.6260157 -0.41165206 0.9646067
2.3473926 -8.6878223 -0.41165563 0.96460646
1.9079492 -8.7949562 -0.41166273 0.96460581
1.7972949 -8.8182716 -0.41166458 0.96460563
1.6863574 -8.8401899 -0.41166633 0.96460551
1.5751269 -8.8607225 -0.41166815 0.96460539
1.4636816 -8.879858 -0.41166994 0.96460521
1.3519628 -8.8976068 -0.41167176 0.96460503
1.2400683 -8.9139156 -0.41167358 0.96460491
1.1279687 -8.9288425 -0.41167536 0.96460474
1.0156738 -8.9423285 -0.41167721 0.96460468
0.9032324 -8.9544239 -0.411679 0.9646045
0.79064453 -8.9651222 -0.41168079 0.96460432
0.6779297 -8.9743948 -0.41168261 0.96460414
0.56512696 -8.9822264 -0.41168439 0.96460402
0.45219725 -8.9886522 -0.41168624 0.9646039
0.33920899 -8.9936962 -0.41168803 0.9646036
-9.7656248e-06 -9.000205 -0.41169348 0.96460319
-0.11311523 -8.999507 -0.41169527 0.96460313
-0.4154785 -8.2584715 -0.37824333 0.9674319
-0.49651366 -7.8916502 -0.36170021 0.96883392
-0.59565431 -7.8848243 -0.36170182 0.96883374
-0.35633788 -4.0404201 -0.1855381 0.98388982
-0.45234373 -3.9824414 -0.18333843 0.98407912
-1.0944629 -7.8669138 -0.3633205 0.96869648
-1.2960839 -7.8630371 -0.36453086 0.96859384
-1.7039648 -7.8545213 -0.36764416 0.96832985
-1.9107226 -7.8498535 -0.36955777 0.96816766
-2.014873 -7.8474216 -0.37060574 0.96807885
-2.1196778 -7.8449216 -0.37171593 0.96798474
-2.5454783 -7.8341794 -0.3767997 0.96755421
-2.6537988 -7.8313084 -0.37823614 0.96743256
-2.7629492 -7.8283496 -0.37973911 0.96730518
-3.0957811 -7.8190036 -0.38467535 0.96688724
-3.2086523 -7.8157029 -0.38646826 0.96673566
-1.8771582 -3.9891698 -0.20166832 0.98250139
-1.9259765 -3.9628515 -0.20154643 0.98251194
-1.9955859 -3.9781737 -0.20358475 0.98233664
-4.1023631 -7.6895213 -0.39866778 0.9657039
-4.2943649 -7.5840621 -0.39867076 0.96570355
-4.4836426 -7.4738083 -0.39867365 0.96570325
-4.6700683 -7.3588376 -0.39867651 0.96570301
-4.8535447 -7.2391796 -0.39867935 0.96570289
-4.94417 -7.1776562 -0.39868072 0.96570265
-5.0339551 -7.1149902 -0.39868209 0.96570259
-5.2112303 -6.9862986 -0.39868477 0.9657023
-5.3851852 -6.8531637 -0.39868739 0.96570212
-3.3724999 -3.9739063 -0.23841375 0.97934622
-3.4323046 -3.9428515 -0.23911987 0.97928566
-5.8862205 -6.4281735 -0.39869499 0.96570146
-6.0459275 -6.2782516 -0.39869735 0.96570128
-6.1243553 -6.2018065 -0.39869854 0.96570122
-6.2018161 -6.1243749 -0.39869967 0.96570116
-6.2783298 -6.0459666 -0.39870083 0.96570098
-1.031123 -0.92064452 -0.063230358 0.99448025
-1.0316309 -0.83182615 -0.060619239 0.99470764
-1.058916 -0.70996094 -0.058316384 0.99490809
-1.0882128 -0.70995116 -0.059435155 0.99481076
-1.1504004 -0.70995116 -0.061836623 0.99460167
-1.1834472 -0.70996094 -0.063126795 0.99448919
-1.2178515 -0.70995116 -0.064482726 0.99437129
-1.3307323 -0.70995116 -0.068992496 0.9939788
-1.5087206 -0.70995116 -0.076272048 0.99334562
-1.5592871 -0.70994139 -0.07837116 0.99316311
-1.6127343 -0.70995116 -0.080601916 0.9929691
-1.7852343 -0.68101561 -0.087400854 0.99237835
-10.516181 -3.1270213 -0.50185525 0.9570201
-10.554667 -2.9946289 -0.50185573 0.95701998
-10.626611 -2.728457 -0.50185657 0.95701993
-10.721885 -2.3259962 -0.5018577 0.95701998
-10.750263 -2.1910937 -0.501858 0.95701998
-10.801943 -1.9202343 -0.50185853 0.95701993
-10.825224 -1.7843359 -0.50185871 0.95701993
-10.90124 -1.2381933 -0.50185937 0.95701975
-10.915956 -1.1010938 -0.50185949 0.95701969
-10.928916 -0.96384764 -0.50185955 0.95701975
-10.949707 -0.68889648 -0.50185961 0.95701969
-10.34331 -1.953125e-05 -0.50184917 0.95942426
-10.335928 0.38984373 -0.50184864 0.95942438
-10.330215 0.51968747 -0.5018484 0.95942438
-10.313896 0.77913082 -0.50184786 0.95942438
-10.303262 0.90866208 -0.50184751 0.9594245
-10.183525 1.8102832 -0.50184464 0.95942479
-10.15997 1.938125 -0.50184417 0.95942473
-10.108067 2.1928124 -0.50184304 0.95942473
-10.079678 2.319658 -0.50184244 0.95942485
-10.049746 2.4461424 -0.50184184 0.95942479
-9.9850483 2.6979101 -0.50184053 0.95942503
-9.9503222 2.8231542 -0.50183988 0.95942515
-9.8762207 3.0723145 -0.50183839 0.95942521
-9.7533789 3.4423535 -0.50183606 0.95942533
-1.7861133 0.68131834 -0.092750773 0.99237365
-1.7293066 0.70994139 -0.090700567 0.99254173
-1.6692871 0.70995116 -0.088013723 0.99276185
-1.6127245 0.70995116 -0.085494384 0.99296826
-1.5592773 0.70994139 -0.083128162 0.99316227
-1.4152734 0.70995116 -0.076823235 0.99367917
-1.3719823 0.70994139 -0.074951746 0.99383271
-1.3307421 0.70994139 -0.073180467 0.99397802
-1.2914063 0.70994139 -0.071501806 0.99411571
-1.253828 0.70994139 -0.069909513 0.99424636
-1.2178515 0.70994139 -0.068396837 0.99437058
-1.1187304 0.70994139 -0.064286232 0.99470788
-1.058916 0.70993161 -0.061856076 0.9949075
-1.0315039 0.72979492 -0.061307371 0.99495256
-1.0312696 0.76924801 -0.062423781 0.99486095
-1.0311718 0.78950197 -0.063012235 0.99481261
-1.030918 0.83123046 -0.06425377 0.99471068
-1.030791 0.85273433 -0.064908519 0.99465686
-1.0306348 0.87466794 -0.065587081 0.99460125
-1.0303613 0.91995114 -0.067019194 0.99448365
-7.5391502 7.0797067 -0.50179678 0.95942855
-7.2668748 7.3587399 -0.50179213 0.95942897
-7.0796385 7.5390329 -0.50178897 0.95942903
-6.9843259 7.6273727 -0.50178736 0.95942914
-6.4914942 8.0507126 -0.50177902 0.95942992
-6.3897948 8.1316214 -0.50177735 0.95943004
-5.9730663 8.4422951 -0.50177032 0.95943058
-5.8664842 8.5166311 -0.50176853 0.95943081
-5.7589841 8.5896578 -0.50176674 0.95943093
-5.6505857 8.6613379 -0.50176495 0.95943099
-5.5412793 8.7316017 -0.50176311 0.95943123
-5.4311132 8.8005171 -0.50176126 0.95943129
-5.3200488 8.8680372 -0.50175947 0.95943153
-4.8677049 9.1240234 -0.5017519 0.95943201
-4.5202832 9.3008986 -0.50174618 0.95943248
-4.2851071 9.4114552 -0.5017423 0.9594329
-4.0472069 9.5161133 -0.50173843 0.95943314
-3.8067577 9.6147556 -0.50173444 0.95943338
-3.6856151 9.6617575 -0.50173247 0.95943367
-3.5638866 9.7072849 -0.5017305 0.95943379
-3.4416308 9.7512598 -0.50172848 0.95943397
-3.1954589 9.83459 -0.50172448 0.95943427
-3.0716307 9.8739452 -0.50172246 0.95943433
-2.5715821 10.015635 -0.50171429 0.95943505
-2.4455371 10.04709 -0.50171226 0.95943528
-2.0650878 10.132011 -0.50170606 0.95943576
-1.9376074 10.157148 -0.50170404 0.95943576
-1.8097754 10.180605 -0.50170195 0.95943618
-1.6817089 10.202519 -0.50169986 0.95943624
-1.5533692 10.222822 -0.50169778 0.95943636
-1.0377636 10.287764 -0.50168949 0.95943707
-0.78001952 8.8444824 -0.43079379 0.96506768
-0.64260739 8.5067186 -0.41391701 0.96641302
-0.51584959 8.1989155 -0.39859354 0.96763611
-0.30963868 8.2091799 -0.3985894 0.96763653
-0.20645507 8.2123432 -0.39858347 0.96763688
-0.10323242 8.2141695 -0.3985776 0.9676373
0.41271484 8.2038479 -0.39854866 0.96763963
0.51576173 8.1978903 -0.39854288 0.9676401
0.72160155 8.1821194 -0.39853153 0.96764094
0.92694336 8.1611519 -0.39852026 0.96764195
1.1317188 8.1350489 -0.39850909 0.96764284
1.4374316 8.086133 -0.39848366 0.96764475
1.6401074 8.0469923 -0.39846292 0.9676466
1.8417089 8.0028315 -0.39844206 0.96764821
2.1418653 7.9270992 -0.39841053 0.96765071
2.2412403 7.8993554 -0.39839995 0.96765155
2.3402734 7.8703709 -0.39838934 0.96765232
2.4389355 7.8402343 -0.39838564 0.9676528
2.6351855 7.7764258 -0.39838257 0.96765298
2.7326953 7.7426853 -0.39838108 0.96765298
2.829834 7.707871 -0.39838812 0.96765244
3.2137597 7.5565133 -0.39841765 0.96765006
3.4026659 7.4734278 -0.39842224 0.96764982
3.6818848 7.3397655 -0.3984161 0.96765023
3.8651562 7.2449217 -0.39841464 0.96765029
3.9558494 7.1957226 -0.39841405 0.96765053
4.1354489 7.0940332 -0.39841309 0.96765053
4.2242579 7.0414844 -0.39841273 0.96765065
4.3124218 6.9878612 -0.3984125 0.96765053
4.5727048 6.8203416 -0.39841262 0.96765065
4.8265719 6.6432128 -0.398415 0.96765035
4.9920311 6.5198631 -0.39841709 0.96765012
5.0735645 6.4566503 -0.39841828 0.96765
5.1543064 6.3923826 -0.39841956 0.96765
5.2342672 6.327158 -0.39842102 0.96764976
5.6961522 5.9150391 -0.39843097 0.96764898
5.9151173 5.6962109 -0.39843673 0.96764863
5.9862595 5.6214547 -0.39843878 0.96764845
6.0564551 5.5458298 -0.39844084 0.96764827
6.1939745 5.3919239 -0.39844519 0.96764797
6.3275681 5.2346387 -0.39844969 0.96764761
6.39292 5.1547556 -0.39845207 0.96764731
6.4572067 5.0740232 -0.39845452 0.96764725
1.2607324 0.86842769 -0.074278489 0.99388802
1.2612305 0.7783398 -0.07190834 0.99408233
1.2614257 0.73535156 -0.070844151 0.99416971
1.3719531 0.70994139 -0.074951515 0.99383283
1.4152539 0.70995116 -0.076823078 0.99367923
1.460791 0.70995116 -0.07880348 0.99351674
1.8611327 0.70993161 -0.096647449 0.99205458
1.9337401 0.70993161 -0.099947929 0.99178445
2.0232031 0.71405274 -0.10409915 0.99144465
9.8699903 3.0703614 -0.5015229 0.9594503
9.9440231 2.8213768 -0.501522 0.9594503
10.011747 2.5705762 -0.50152117 0.95945048
10.043281 2.4445703 -0.50152081 0.95945036
10.073213 2.3181932 -0.50152045 0.95945036
10.128242 2.0642869 -0.50151986 0.95945054
10.153388 1.9368554 -0.50151956 0.95945054
10.176924 1.809121 -0.50151932 0.95945054
10.198867 1.6811035 -0.50151914 0.95945048
10.21919 1.5528027 -0.50151891 0.95945048
10.237871 1.4242578 -0.50151879 0.95945054
10.30707 0.77860349 -0.50151837 0.95945066
10.316054 0.64902341 -0.50151837 0.9594506
10.329111 0.3895703 -0.50151843 0.9594506
10.333174 0.25975585 -0.50151849 0.95945066
10.335645 0.12988281 -0.50151861 0.95945054
10.335634 -0.12989257 -0.50151885 0.9594506
10.329121 -0.38958985 -0.5015192 0.95945054
10.296543 -0.90807617 -0.50152028 0.95945036
10.25501 -1.2955273 -0.50152141 0.95945036
10.23792 -1.4242871 -0.50152177 0.95945036
10.219218 -1.5528125 -0.50152224 0.95945036
10.198915 -1.6811132 -0.50152272 0.95945024
10.176992 -1.8091406 -0.5015232 0.95945024
10.153427 -1.9368848 -0.50152367 0.95945036
10.011885 -2.5706346 -0.50152665 0.95944989
9.9441309 -2.8214159 -0.50152797 0.95944989
9.9079199 -2.946162 -0.50152868 0.95944977
2.0228808 -0.65728515 -0.10319988 0.9915182
1.9337499 -0.70995116 -0.099947661 0.99178439
1.7293164 -0.70996094 -0.090700909 0.99254161
1.612705 -0.70996094 -0.085494041 0.99296832
1.5592871 -0.70995116 -0.083127975 0.99316221
1.5087109 -0.70996094 -0.080901638 0.99334478
1.4607714 -0.70996094 -0.07880348 0.9935168
1.3307323 -0.70995116 -0.073180199 0.99397802
1.2615331 -0.71433592 -0.07034 0.99421102
1.2613281 -0.75667965 -0.07136669 0.99412686
1.2612109 -0.77835935 -0.071908489 0.99408239
1.2611035 -0.80033201 -0.072469786 0.99403632
1.2609766 -0.82267576 -0.07305149 0.99398863
1.2608789 -0.84536129 -0.073654175 0.9939391
1.260752 -0.86843747 -0.074278563 0.9938879
1.2606152 -0.89191407 -0.074925423 0.99383485
6.5211229 -4.9930177 -0.39849517 0.96764392
6.4579196 -5.0745802 -0.39849627 0.96764374
6.2620797 -5.314404 -0.39849967 0.96764362
6.1948338 -5.392705 -0.39850083 0.96764344
5.987236 -5.6223927 -0.39850438 0.9676432
5.6972265 -5.9161911 -0.39850932 0.96764284
5.5468163 -6.057539 -0.39851189 0.96764261
5.4702635 -6.1267872 -0.39851317 0.96764249
3.4869237 -4.1087694 -0.26147005 0.97865009
3.3983006 -4.1078711 -0.25867155 0.97887594
3.3003514 -4.0931444 -0.25511324 0.97916353
3.2809668 -4.2851462 -0.26185706 0.97861862
3.2612987 -4.3722072 -0.26465222 0.9783929
4.8278809 -6.6450291 -0.39852402 0.96764165
4.6594138 -6.7643065 -0.39852682 0.96764141
4.4879785 -6.8793163 -0.39852965 0.96764117
4.047246 -7.1476855 -0.39853698 0.96764052
3.8663769 -7.2471776 -0.39853999 0.96764034
3.683037 -7.3420801 -0.398543 0.96764022
3.4974022 -7.4324021 -0.39854607 0.96763986
3.3095508 -7.5180078 -0.3985492 0.96763963
3.11958 -7.5988669 -0.39855233 0.96763939
2.4400487 -7.8437791 -0.39856341 0.96763837
2.3412988 -7.8738279 -0.39856505 0.96763837
2.2130761 -8.1906834 -0.41165724 0.96659327
2.1099803 -8.2178907 -0.41165891 0.96659309
1.9028125 -8.2683783 -0.41166231 0.96659285
1.6944433 -8.3136568 -0.41166565 0.96659255
1.589834 -8.3343258 -0.41166735 0.96659243
1.3799316 -8.3717337 -0.41167074 0.96659207
1.2746191 -8.3884373 -0.41167244 0.96659195
1.1691113 -8.4038134 -0.41167414 0.96659189
0.53274411 -8.4682274 -0.41168436 0.966591
0.42631835 -8.4743013 -0.41168609 0.96659082
0.10661133 -8.4844484 -0.41169119 0.96659046
-9.7656248e-06 -8.4851465 -0.41169292 0.96659034
-0.10664062 -8.4844971 -0.41169465 0.96659029
-0.21323241 -8.4825144 -0.41169631 0.96659017
-0.31983396 -8.4792233 -0.41169801 0.96658993
-0.4154785 -8.2584715 -0.40120262 0.96742773
-0.4942871 -7.8562694 -0.38193503 0.96896744
-0.59338868 -7.8547068 -0.3821907 0.96894693
-0.50640625 -4.0084763 -0.19603437 0.98394984
-1.0915332 -7.8459373 -0.38434586 0.96877462
-1.3937012 -7.8399215 -0.38635144 0.96861428
-1.4951659 -7.8377829 -0.38714111 0.9685511
-1.597041 -7.8355761 -0.38799259 0.96848303
-1.9055078 -7.8285446 -0.39092529 0.96824867
-2.1138964 -7.8235154 -0.39320379 0.96806657
-2.2189941 -7.820869 -0.3944405 0.96796775
-2.4312303 -7.815371 -0.39712116 0.96775365
-2.7345312 -7.7478318 -0.398646 0.96763182
-2.9283886 -7.6767282 -0.39864901 0.96763158
-3.0246387 -7.6393261 -0.39865056 0.96763152
-3.2156932 -7.5609961 -0.39865348 0.96763116
-1.8495409 -4.0621777 -0.21656127 0.98228413
-1.9956152 -3.9781835 -0.21594246 0.98233432
-3.8675878 -7.2494235 -0.39866358 0.96763045
-3.9584081 -7.2002926 -0.39866495 0.96763027
-4.0485644 -7.1499901 -0.39866638 0.96763027
-4.1381054 -7.0985837 -0.39866775 0.96763009
-4.2270117 -7.0460448 -0.39866912 0.96762997
-4.3152146 -6.992373 -0.39867046 0.96762997
-4.4027929 -6.9376464 -0.39867178 0.96762973
-4.6611719 -6.7668457 -0.39867577 0.96762943
-4.7458591 -6.7077637 -0.39867705 0.96762931
-4.8297653 -6.6475973 -0.3986783 0.96762931
-4.9129491 -6.5864062 -0.39867958 0.96762919
-4.9953222 -6.5241599 -0.39868084 0.96762913
-5.0769529 -6.460947 -0.39868206 0.96762884
-3.3494823 -4.0488377 -0.25495556 0.97917622
-3.4323046 -3.9428515 -0.25363585 0.97928298
-5.4727049 -6.1294627 -0.39868805 0.96762848
-5.6250486 -5.9900293 -0.39869034 0.9676283
-5.6998825 -5.9189062 -0.39869145 0.96762818
-5.773828 -5.8468261 -0.39869255 0.96762806
-5.8468456 -5.773828 -0.39869362 0.967628
-5.9189548 -5.6999121 -0.39869466 0.96762794
-5.9901562 -5.6250978 -0.39869574 0.96762776
-1.0303808 -0.91997069 -0.067019425 0.99448353
-1.0306641 -0.87467772 -0.065587118 0.99460113
-1.0307813 -0.8527441 -0.064908519 0.99465686
-1.0309277 -0.83125973 -0.064253733 0.99471056
-1.0310448 -0.81019527 -0.063621901 0.99476248
-1.0311524 -0.78951168 -0.063012235 0.99481261
-1.0316211 -0.71059567 -0.06077797 0.99499595
-1.058916 -0.70996094 -0.061856192 0.99490744
-1.0882128 -0.70995116 -0.063042872 0.9948101
-1.1187011 -0.70996094 -0.064286038 0.99470794
-1.1504004 -0.70995116 -0.065589979 0.99460095
-1.3307323 -0.70995116 -0.073180348 0.99397802
-1.3719727 -0.70995116 -0.074951395 0.99383271
-1.460791 -0.70995116 -0.078803405 0.99351674
-1.5592871 -0.70994139 -0.083128244 0.99316221
-1.6692969 -0.70995116 -0.088013873 0.99276179
-1.7293164 -0.70996094 -0.090700909 0.99254161
-9.7535248 -3.4424024 -0.50184339 0.95942473
-9.8763475 -3.0723631 -0.50184494 0.95942467
-9.950449 -2.8232031 -0.5018459 0.95942467
-9.9851561 -2.6979394 -0.50184631 0.95942461
-10.018281 -2.5722558 -0.50184667 0.95942456
-10.049824 -2.4461718 -0.50184709 0.9594245
-10.079785 -2.3196971 -0.50184739 0.95942444
-10.108173 -2.1928613 -0.50184768 0.95942432
-10.160088 -1.9381444 -0.50184828 0.95942432
-10.205576 -1.682207 -0.50184876 0.95942432
-10.225908 -1.5538183 -0.50184894 0.95942438
-10.291055 -1.0380664 -0.50184941 0.95942438
-10.313896 -0.7791211 -0.50184953 0.95942438
-10.330215 -0.51968747 -0.50184953 0.95942438
-10.342481 -0.12996094 -0.50184929 0.95942432
-9.7823238 0.12293945 -0.50184005 0.9615739
-9.7761421 0.36872068 -0.5018397 0.96157396
-9.770752 0.49154297 -0.50183946 0.9615739
-9.7637892 0.61428708 -0.50183922 0.9615739
-9.745244 0.85945308 -0.50183868 0.96157402
-9.7205658 1.104082 -0.50183803 0.96157402
-9.7059078 1.2261425 -0.50183767 0.96157408
-9.6897259 1.347998 -0.50183725 0.96157414
-9.6528025 1.5910937 -0.50183642 0.96157408
-9.560605 2.0740526 -0.50183445 0.96157432
-9.475625 2.4329102 -0.50183266 0.96157438
-9.4114943 2.6702635 -0.50183141 0.96157438
-9.3771677 2.7883105 -0.50183076 0.96157449
-9.3413668 2.9059374 -0.50183004 0.96157455
-9.3040819 3.0230858 -0.50182933 0.96157467
-9.2251167 3.2559178 -0.50182778 0.96157491
-1.7870409 0.70752931 -0.098591805 0.99233145
-1.6692871 0.70995116 -0.093051717 0.99276084
-1.5592773 0.70995116 -0.087886468 0.99316132
-1.4607812 0.70994139 -0.08331421 0.99351591
-1.3719823 0.70994139 -0.079242058 0.99383187
-1.2914063 0.70994139 -0.075594597 0.99411488
-1.253828 0.70994139 -0.073911056 0.99424559
-1.2178515 0.70994139 -0.072311856 0.9943698
-1.1834277 0.70994139 -0.070791624 0.99448782
-1.15042 0.70995116 -0.069344401 0.99460012
-1.1187304 0.70994139 -0.067965887 0.99470717
-1.058916 0.70993161 -0.065396883 0.99490678
-1.0309374 0.71011716 -0.064214401 0.99499863
-1.0308203 0.72931641 -0.064773217 0.99495518
-1.0306933 0.74883789 -0.065352134 0.9949103
-1.0305859 0.76871091 -0.065951921 0.99486369
-1.0303222 0.80960935 -0.067217141 0.99476546
-1.0301856 0.83065426 -0.067884065 0.99471366
-1.0300586 0.85212886 -0.068575323 0.9946599
-1.0299219 0.87404293 -0.069291458 0.99460429
-1.0297656 0.89640623 -0.070034027 0.99454665
-1.0294532 0.94266599 -0.071601905 0.99442488
-7.0461426 6.7853708 -0.50178921 0.96157777
-6.9602928 6.8733592 -0.50178778 0.96157789
-6.7853513 7.0460839 -0.5017848 0.96157801
-6.6962304 7.1307421 -0.50178331 0.96157825
-6.4226661 7.3780174 -0.5017786 0.96157849
-6.2351952 7.5370407 -0.50177544 0.96157873
-6.0437694 7.6912594 -0.50177228 0.96157908
-5.9466405 7.7665915 -0.50177062 0.96157914
-5.8485446 7.840693 -0.50176901 0.96157926
-5.7495313 7.9135447 -0.50176728 0.96157938
-5.6496191 7.9851365 -0.50176567 0.9615795
-5.5488086 8.0554781 -0.50176394 0.96157962
-5.1370115 8.3239651 -0.50175709 0.96158016
-4.9261618 8.4503708 -0.50175363 0.96158046
-4.7122068 8.571435 -0.50175005 0.96158075
-4.6041112 8.6299505 -0.50174826 0.96158081
-4.4952927 8.6870995 -0.50174642 0.96158093
-4.3857713 8.7428713 -0.50174463 0.96158105
-4.1646485 8.8502731 -0.50174099 0.96158129
-3.8280761 9.0008297 -0.50173545 0.96158177
-3.7146482 9.0482225 -0.5017336 0.96158183
-3.1391015 9.2634182 -0.50172418 0.9615826
-3.0224512 9.3021088 -0.50172228 0.96158266
-2.7877245 9.3750296 -0.50171846 0.96158302
-2.6696973 9.4092865 -0.50171655 0.9615832
-2.5512109 9.44207 -0.50171459 0.96158332
-2.4323535 9.47334 -0.50171262 0.96158344
-2.3131151 9.5031147 -0.50171071 0.96158361
-2.1935058 9.5314064 -0.50170881 0.96158373
-1.8326855 9.6071682 -0.5017029 0.96158427
-1.5906543 9.6501169 -0.50169903 0.96158457
-1.4692481 9.6693068 -0.501697 0.96158469
-1.3476465 9.6870117 -0.5016951 0.96158469
-0.98157227 9.7307806 -0.5016892 0.96158522
-0.6386621 8.4541111 -0.43490306 0.9666127
-0.395625 7.8635645 -0.40388504 0.96895659
-0.1952832 7.7678123 -0.39858887 0.96935737
-0.09765625 7.7695704 -0.39858451 0.96935767
0.097626954 7.7693553 -0.39857346 0.9693585
0.19524413 7.7674117 -0.39856794 0.96935892
0.29283202 7.7642479 -0.39856249 0.96935928
0.39038086 7.7598433 -0.3985571 0.96935976
0.48782226 7.754209 -0.39855167 0.96936017
0.87676758 7.7192383 -0.39851746 0.9693628
1.1669824 7.6801658 -0.39848861 0.96936494
1.2633789 7.6647263 -0.39847893 0.9693656
1.5512598 7.6110935 -0.39844957 0.96936786
1.6467187 7.5907907 -0.39843974 0.9693687
1.7419336 7.5693064 -0.39842987 0.96936941
1.9315332 7.5227928 -0.39840999 0.96937084
2.0258496 7.4977245 -0.39840004 0.96937162
2.1198535 7.4715133 -0.39839116 0.96937233
2.3069141 7.4158106 -0.39838821 0.96937257
2.676748 7.2908788 -0.39840651 0.96937114
2.7681835 7.2567773 -0.39841342 0.96937072
2.8592088 7.2215624 -0.39842039 0.96937013
2.9497752 7.185205 -0.3984274 0.96936953
3.1295214 7.1090426 -0.39844158 0.96936852
3.2186229 7.0691991 -0.3984445 0.96936834
3.3071775 7.0281544 -0.39844254 0.96936852
3.3952148 6.9860253 -0.39844063 0.96936864
3.4827342 6.9427733 -0.39843872 0.96936876
3.911787 6.7103319 -0.39843574 0.96936899
4.4861622 6.3407125 -0.39843526 0.96936905
4.5654979 6.2838769 -0.39843607 0.96936888
4.7991114 6.1073728 -0.39843884 0.96936876
4.9511132 5.9848633 -0.39844099 0.96936858
5.0259471 5.9222069 -0.39844233 0.96936846
5.0999899 5.8586035 -0.39844367 0.96936834
5.173203 5.7940621 -0.39844519 0.96936834
5.2456541 5.7286229 -0.3984468 0.9693681
5.3879881 5.5950489 -0.39845017 0.96936786
5.5951266 5.3880663 -0.39845556 0.96936744
5.6624217 5.3173633 -0.39845747 0.96936727
5.7287989 5.2458005 -0.39845946 0.96936721
5.7942872 5.1734276 -0.39846149 0.96936709
5.9852538 4.9514451 -0.39846787 0.96936661
6.0470409 4.8758593 -0.3984701 0.96936643
1.2596387 0.91517574 -0.079868846 0.99378324
1.2597754 0.89130855 -0.07916145 0.99383813
1.2600391 0.84480464 -0.077818871 0.99394232
1.2602735 0.79979491 -0.076568373 0.99403942
1.2604198 0.77783203 -0.075975873 0.99408531
1.2605078 0.75620115 -0.075403787 0.99412984
1.2606348 0.73487306 -0.074851915 0.99417263
1.2913867 0.70996094 -0.075594522 0.99411494
1.3719531 0.70994139 -0.079241827 0.99383193
1.4152539 0.70995116 -0.081220813 0.99367839
1.5087206 0.70993161 -0.085532457 0.99334383
1.5592675 0.70994139 -0.087886468 0.99316138
1.6692871 0.70995116 -0.093051568 0.99276084
1.7293066 0.70993161 -0.095892407 0.99254072
2.0241992 0.68593746 -0.10963505 0.99147624
2.024209 0.65770507 -0.10917881 0.99151152
9.3357906 2.9041991 -0.5015316 0.96159708
9.3715134 2.7866504 -0.50153118 0.9615972
9.4058104 2.6686718 -0.50153077 0.96159714
9.4386034 2.5502734 -0.50153035 0.96159714
9.4698725 2.4314454 -0.50152993 0.96159726
9.5800486 1.9525683 -0.50152874 0.96159738
9.6260834 1.7111914 -0.5015282 0.96159738
9.6837301 1.3471777 -0.50152773 0.96159744
9.699892 1.2253808 -0.50152761 0.96159744
9.7145309 1.1033984 -0.50152749 0.96159744
9.7276363 0.98123044 -0.50152737 0.96159738
9.7769918 -1.953125e-05 -0.50152767 0.96159744
9.7762203 -0.12286133 -0.50152779 0.96159744
9.7739162 -0.24571289 -0.50152797 0.96159738
9.7646389 -0.49125975 -0.50152838 0.96159744
9.7392187 -0.85893553 -0.50152916 0.96159732
9.7276754 -0.98125976 -0.50152951 0.96159726
9.7145605 -1.1034082 -0.50152981 0.96159732
9.6999702 -1.2253906 -0.50153017 0.96159714
9.6468945 -1.5901269 -0.50153142 0.96159714
9.6261721 -1.7112206 -0.5015319 0.96159708
9.6039162 -1.8320507 -0.50153238 0.96159703
9.5280857 -2.1927342 -0.50153393 0.96159685
9.4386816 -2.5503125 -0.50153577 0.96159679
9.4059076 -2.6687012 -0.50153643 0.96159673
9.3716402 -2.7866991 -0.50153708 0.96159667
9.335928 -2.904248 -0.5015378 0.96159649
2.024209 -0.71443355 -0.11011253 0.99143922
1.9337499 -0.70995116 -0.10566841 0.99178326
1.8611034 -0.70996094 -0.10217918 0.99205357
1.7931151 -0.70996094 -0.098927952 0.9923054
1.7293164 -0.70996094 -0.095892332 0.9925406
1.6692871 -0.70996094 -0.093051642 0.99276084
1.612705 -0.70996094 -0.090388142 0.99296731
1.4607714 -0.70996094 -0.083314128 0.99351591
1.3307323 -0.70995116 -0.077369042 0.99397719
1.2913867 -0.70996094 -0.075594328 0.99411494
1.260752 -0.71388668 -0.074319571 0.99421382
1.260625 -0.73488277 -0.07485199 0.99417263
1.2605176 -0.75620115 -0.075403787 0.99412978
1.2602929 -0.79981446 -0.076568335 0.99403936
1.2600391 -0.84480464 -0.077818908 0.99394232
1.2599121 -0.86787105 -0.078478277 0.99389112
1.2597656 -0.89131832 -0.079161264 0.99383813
1.2595019 -0.93948239 -0.080601916 0.99372631
6.1681347 -4.7227345 -0.3985005 0.96936411
6.0475683 -4.8762889 -0.39850262 0.96936381
5.9858103 -4.9519138 -0.39850369 0.96936381
5.8595114 -5.100781 -0.39850584 0.96936369
5.7295213 -5.2464647 -0.3985081 0.96936345
5.6631346 -5.3180761 -0.39850923 0.96936339
5.5958786 -5.3888278 -0.3985104 0.96936327
5.5277734 -5.4587302 -0.39851153 0.96936309
5.4587402 -5.5277734 -0.39851272 0.96936309
5.3888474 -5.5959473 -0.39851391 0.96936303
5.1741505 -5.7951365 -0.39851755 0.9693628
3.5619628 -4.0918064 -0.27828297 0.97850591
3.4856443 -4.1072459 -0.27633435 0.97865498
3.3970702 -4.1063867 -0.27337873 0.97888058
3.2601171 -4.370615 -0.27969861 0.97839773
4.5665431 -6.2853122 -0.39852777 0.96936202
4.245039 -6.5069237 -0.39853317 0.96936154
4.0801759 -6.6115723 -0.39853591 0.96936142
3.9968066 -6.6623535 -0.39853728 0.96936125
3.9127929 -6.7120895 -0.39853865 0.96936113
3.8281348 -6.7607517 -0.39854008 0.96936101
3.6570604 -6.8548632 -0.39854294 0.96936083
3.3961327 -6.9879003 -0.39854723 0.96936053
3.3080664 -7.0300584 -0.39854869 0.96936035
3.0408008 -7.1498141 -0.39855307 0.96936005
2.9507227 -7.18749 -0.39855456 0.96935993
2.8601854 -7.2240233 -0.39855605 0.96935982
2.7691698 -7.2594237 -0.39855754 0.96935976
2.6777637 -7.2936912 -0.39855903 0.96935952
2.4936426 -7.3587399 -0.39856204 0.96935928
2.4009764 -7.389492 -0.39856356 0.96935934
2.2145605 -7.4475875 -0.39856663 0.96935892
2.1208105 -7.474824 -0.39856815 0.96935892
1.8375878 -7.549531 -0.39857277 0.96935856
1.7425684 -7.5720701 -0.39857429 0.96935844
1.6472851 -7.5934081 -0.39857581 0.96935827
1.5517578 -7.6135254 -0.39857736 0.96935821
1.4559571 -7.6324511 -0.39857894 0.96935809
1.2637012 -7.6667089 -0.39858204 0.96935779
1.1672753 -7.6820016 -0.39858359 0.96935773
0.87690425 -7.7206249 -0.39858824 0.96935737
0.77983397 -7.7310739 -0.39858985 0.96935719
0.68260741 -7.740293 -0.39859137 0.96935713
0.58530271 -7.748291 -0.39859298 0.96935695
0.29286131 -7.7649412 -0.39859763 0.9693566
0.1952832 -7.7680173 -0.39859924 0.9693566
-0.39045897 -7.7608395 -0.3986086 0.96935588
-0.48793945 -7.7553611 -0.39861014 0.9693557
-0.45234373 -3.9824414 -0.20559843 0.98407489
-0.5063867 -4.0084763 -0.20725566 0.98394763
-1.0707715 -7.6967578 -0.39861938 0.96935499
-1.2638476 -7.6674705 -0.39862242 0.96935475
-1.3601074 -7.6509957 -0.39862394 0.96935475
-1.6475488 -7.5943847 -0.39862844 0.96935433
-1.7428417 -7.5731344 -0.39862999 0.96935415
-1.8378808 -7.5506539 -0.39863148 0.96935409
-1.9326172 -7.5269918 -0.39863294 0.96935397
-2.3083887 -7.4205174 -0.39863884 0.96935344
-2.4014745 -7.3909278 -0.39864028 0.96935344
-2.769834 -7.2610154 -0.39864603 0.96935308
-2.8608692 -7.2257028 -0.39864749 0.96935278
-3.1312108 -7.1128025 -0.39865166 0.96935254
-1.8771582 -3.9891698 -0.22615351 0.98249674
-1.9259765 -3.9628515 -0.2260174 0.98250729
-1.9955957 -3.9781835 -0.22830258 0.98233193
-3.5717089 -6.9022655 -0.39865848 0.96935207
-3.6581542 -6.8568749 -0.39865983 0.96935195
-3.7440429 -6.8103709 -0.39866114 0.96935189
-3.8293457 -6.7628121 -0.39866245 0.96935177
-3.9140527 -6.7141895 -0.39866373 0.96935159
-4.0815721 -6.61375 -0.39866632 0.96935141
-4.1643553 -6.5619626 -0.3986676 0.96935135
-4.4888673 -6.3445115 -0.39867255 0.96935093
-4.5682325 -6.2876267 -0.39867377 0.96935087
-4.6468844 -6.2297559 -0.39867496 0.96935081
-3.3494823 -4.0488377 -0.26954883 0.97917342
-3.4323046 -3.9428515 -0.26814732 0.97928017
-5.1763282 -5.7975488 -0.39868292 0.96935016
-5.2487988 -5.73207 -0.39868402 0.96934998
-5.4611325 -5.5301852 -0.39868721 0.96934992
-1.0297656 -0.89641601 -0.070033953 0.99454665
-1.0299219 -0.8740527 -0.069291532 0.99460423
-1.0300488 -0.85214841 -0.068575323 0.9946599
-1.0302148 -0.83067381 -0.067884177 0.99471349
-1.0303124 -0.80961913 -0.067217104 0.99476546
-1.0307031 -0.74884766 -0.065352209 0.99491024
-1.03083 -0.72931641 -0.064773254 0.99495518
-1.0309374 -0.71012694 -0.064214401 0.99499857
-1.058916 -0.70996094 -0.065396763 0.99490672
-1.1504004 -0.70995116 -0.069344401 0.99460018
-1.1834472 -0.70996094 -0.070791356 0.9944877
-1.2538086 -0.70996094 -0.073910788 0.99424559
-1.2913965 -0.70996094 -0.075594366 0.99411488
-1.3307323 -0.70995116 -0.077369116 0.99397719
-1.4152734 -0.70995116 -0.081220664 0.99367827
-1.460791 -0.70995116 -0.083314516 0.99351585
-1.5592871 -0.70994139 -0.087886162 0.99316126
-1.7870214 -0.70753902 -0.098591842 0.99233145
-1.7868652 -0.65601563 -0.097642861 0.99240506
-9.2654781 -3.1397948 -0.50183529 0.96157426
-9.3042288 -3.0231249 -0.50183576 0.96157414
-9.3415041 -2.9059765 -0.50183624 0.96157402
-9.3772755 -2.7883692 -0.50183672 0.96157408
-9.4115725 -2.6703222 -0.50183713 0.96157402
-9.4757318 -2.4329686 -0.50183785 0.96157396
-9.5055561 -2.3137012 -0.50183821 0.96157396
-9.5606833 -2.0740819 -0.50183886 0.96157402
-9.5860348 -1.9537988 -0.5018391 0.96157384
-9.6098146 -1.8331738 -0.5018394 0.9615739
-9.67208 -1.4696875 -0.50184 0.9615739
-9.6897945 -1.3480176 -0.50184017 0.96157384
-9.7059956 -1.2261523 -0.50184029 0.96157378
-9.7206249 -1.1040918 -0.50184041 0.96157378
-9.7553415 -0.73693359 -0.50184053 0.96157378
-9.7638178 -0.61429685 -0.50184053 0.96157384
-9.7800388 -0.24585937 -0.50184041 0.96157378
-9.2803612 -9.7656248e-06 -0.50183213 0.96350688
-9.2796383 0.11661132 -0.50183201 0.96350682
-9.2737789 0.34976563 -0.50183171 0.96350682
-9.2686224 0.46628904 -0.50183147 0.96350694
-9.2540035 0.69905269 -0.501831 0.96350682
-9.2334862 0.93138671 -0.50183046 0.96350694
-9.2071486 1.1631347 -0.50182974 0.963507
-9.1918068 1.2787402 -0.50182939 0.963507
-9.1749802 1.3941308 -0.50182897 0.96350712
-9.1370411 1.6242676 -0.50182813 0.96350712
-9.1159182 1.7389355 -0.50182766 0.96350712
-9.0693064 1.9674706 -0.5018267 0.96350724
-9.0438375 2.0812891 -0.50182617 0.96350735
-8.9886913 2.3078907 -0.50182503 0.96350729
-8.7511034 3.0886035 -0.50182039 0.96350765
-1.7879003 0.70788085 -0.10398174 0.99232662
-1.6693066 0.70995116 -0.098091088 0.9927597
-1.6127245 0.70995116 -0.095283426 0.99296623
-1.5592773 0.70995116 -0.092646293 0.99316031
-1.5087304 0.70994139 -0.090164639 0.99334282
-1.4152734 0.70995116 -0.08561939 0.99367738
-1.3307421 0.70994139 -0.081559293 0.99397629
-1.2914063 0.70994139 -0.079688601 0.99411404
-1.0882226 0.70995116 -0.070261002 0.99480861
-1.0306835 0.70994139 -0.067675628 0.99499911
-1.0300097 0.74833983 -0.068844944 0.99491292
-1.0297461 0.78842771 -0.070130616 0.99481821
-1.0296289 0.80905271 -0.070808217 0.9947682
-1.0294726 0.83007812 -0.071510315 0.99471653
-1.0293262 0.85153317 -0.072237894 0.99466288
-1.0291699 0.87341797 -0.072992057 0.99460739
-1.0286914 0.94194335 -0.075423852 0.99442822
-6.520195 6.6026173 -0.50178105 0.96351051
-6.3521485 6.7643456 -0.50177819 0.96351081
-6.1801367 6.9217868 -0.50177521 0.96351099
-6.0926561 6.9988866 -0.50177377 0.96351105
-5.6410837 7.3675194 -0.50176615 0.96351165
-5.4541016 7.5069237 -0.50176305 0.96351182
-5.3593359 7.5748434 -0.50176144 0.96351194
-5.263711 7.6415625 -0.50175989 0.96351206
-5.0699706 7.7713571 -0.50175661 0.96351236
-4.9719138 7.8344626 -0.501755 0.96351236
-4.8730664 7.8962793 -0.50175333 0.96351248
-4.7734375 7.9568648 -0.50175166 0.9635126
-4.5719433 8.0742579 -0.50174832 0.96351284
-4.0558591 8.3452539 -0.5017398 0.96351349
-3.8448339 8.4444923 -0.50173634 0.96351367
-3.6313574 8.5383787 -0.50173283 0.96351403
-3.5237694 8.5832911 -0.50173104 0.96351421
-3.4156249 8.6268845 -0.50172925 0.96351421
-3.088037 8.7493744 -0.50172389 0.96351469
-2.7560351 8.8594627 -0.50171846 0.96351504
-2.5325294 8.925869 -0.50171483 0.96351522
-2.3073828 8.9866304 -0.50171119 0.96351552
