# .PCD v0.7 - Point Cloud Data file format
VERSION 0.7
FIELDS x y z intensity
SIZE 4 4 4 4
TYPE F F F F
COUNT 1 1 1 1
WIDTH 1084
HEIGHT 1
VIEWPOINT 0 0 0 1 0 0 0
POINTS 1084
DATA ascii
1.7293164 0.70995116 -0.14269455 0.9925288
1.861123 0.70995116 -0.15205005 0.99204093
2.0235741 0.71419919 -0.16380279 0.99142832
2.0235937 0.68572265 -0.16309352 0.99146527
2.0235839 0.65749997 -0.16241524 0.99150068
6.2706246 1.9506738 -0.50127804 0.97399944
6.3176169 1.7924609 -0.50127506 0.97399968
6.3606248 1.6331347 -0.50127232 0.9739998
6.3996191 1.4727539 -0.50126988 0.97399998
6.4345994 1.3114746 -0.50126773 0.97399998
6.4505563 1.2304981 -0.50126672 0.9740001
6.479404 1.0680078 -0.50126499 0.97400022
6.5041699 0.90483397 -0.5012635 0.97400033
6.5150485 0.82304686 -0.50126284 0.97400022
6.5336227 0.65905273 -0.50126177 0.97400045
6.5481443 0.49464843 -0.501261 0.97400033
6.5538182 0.41232422 -0.5012607 0.97400045
6.558486 0.32994139 -0.50126046 0.97400045
6.562119 0.24749999 -0.50126034 0.97400039
6.5647168 0.16501953 -0.50126022 0.97400039
6.5662498 -0.082529292 -0.5012604 0.97400045
6.5647264 -0.16502929 -0.50126058 0.97400033
6.562109 -0.24750976 -0.50126082 0.97400045
6.558496 -0.32993165 -0.50126117 0.97400039
6.5481348 -0.4946582 -0.50126207 0.97400039
6.5414453 -0.57691407 -0.50126261 0.97400022
6.5336618 -0.65907228 -0.5012632 0.97400028
6.5248828 -0.74111325 -0.50126386 0.97400022
6.5150681 -0.82303709 -0.50126457 0.97400016
6.4794431 -1.0680176 -0.50126725 0.97400004
6.434629 -1.3114843 -0.50127053 0.97399986
6.4176559 -1.392246 -0.50127178 0.9739998
6.3806639 -1.5530957 -0.50127441 0.97399974
6.317656 -1.7925 -0.50127888 0.97399944
2.0235741 -0.65749997 -0.16241524 0.99150074
2.0235741 -0.71418941 -0.16380318 0.99142838
1.9337401 -0.70996094 -0.15724158 0.99177027
1.6127148 -0.70995116 -0.13450339 0.99295616
1.5592773 -0.70996094 -0.13078041 0.99315041
1.3719629 -0.70995116 -0.11791706 0.9938221
1.2535058 -0.73072267 -0.11075436 0.99419624
1.2533398 -0.75189453 -0.11156601 0.99415386
1.2531738 -0.77338868 -0.11240745 0.99410987
1.2530078 -0.79517579 -0.11327949 0.99406433
1.2526367 -0.83983397 -0.11511837 0.99396825
1.2522362 -0.88598633 -0.11709221 0.99386513
1.252041 -0.90965819 -0.11813236 0.99381077
5.0875196 -3.8953123 -0.4891029 0.97462291
4.9551563 -3.8937011 -0.48104399 0.97503579
4.5827341 -3.889199 -0.4588055 0.97617602
4.466074 -3.8877831 -0.4519816 0.9765262
4.3528223 -3.8863964 -0.44542667 0.97686261
4.1354198 -3.8834276 -0.43303326 0.97749907
4.0311232 -3.8819628 -0.42718703 0.97779948
3.9295995 -3.8805273 -0.42156279 0.97808856
3.6472461 -3.8839355 -0.40669882 0.97885287
3.4759276 -3.8930762 -0.39838204 0.97928089
3.4267774 -3.9364941 -0.39838538 0.97928059
3.3770506 -3.9792774 -0.39838874 0.97928047
3.1494043 -4.1133008 -0.39544418 0.97943205
2.9608593 -4.298408 -0.39841706 0.97927904
2.851953 -4.3715525 -0.39842442 0.97927862
2.7968261 -4.4070897 -0.39842814 0.97927839
2.6287987 -4.5095019 -0.39843956 0.97927785
2.5719726 -4.5422263 -0.39844337 0.97927755
2.4570508 -4.6055174 -0.39845118 0.97927719
2.2817872 -4.6949706 -0.39846301 0.97927666
2.2226269 -4.72333 -0.398467 0.97927642
2.1631153 -4.7509274 -0.39847106 0.97927624
2.1032617 -4.7777829 -0.39847511 0.97927606
2.043076 -4.8038769 -0.39847913 0.97927588
1.982578 -4.8292284 -0.39848328 0.97927558
1.8606542 -4.8776169 -0.3984915 0.97927517
1.4880371 -5.0042381 -0.3985166 0.97927392
1.4250586 -5.0225878 -0.39852089 0.97927368
1.2984082 -5.0569239 -0.39852944 0.97927326
1.170957 -5.0880566 -0.39853802 0.97927284
1.106914 -5.1024508 -0.39854231 0.97927254
1.0427246 -5.1159959 -0.39854664 0.97927237
0.97836912 -5.1287599 -0.39855093 0.97927213
0.9138574 -5.1407032 -0.39855528 0.97927189
0.7843945 -5.162158 -0.39856401 0.97927147
0.71948242 -5.1716504 -0.39856836 0.97927129
0.65443361 -5.1803417 -0.39857277 0.97927105
0.39333007 -5.2069235 -0.3985903 0.9792701
0.26236328 -5.2152734 -0.39859909 0.97926962
0.13124999 -5.2203321 -0.39860794 0.97926921
-0.065595701 -5.2217383 -0.39862114 0.97926855
-0.32792968 -5.2120996 -0.39863873 0.97926754
-0.39337888 -5.2076073 -0.39864311 0.97926742
-0.45879883 -5.2023044 -0.39864749 0.97926718
-0.45850584 -4.0367188 -0.31011459 0.98383415
-0.60942382 -4.0107713 -0.30966762 0.98385727
-0.91412109 -5.1422849 -0.39867797 0.97926557
-1.1073242 -5.1043458 -0.39869091 0.97926491
-1.2352734 -5.0750098 -0.39869943 0.9792645
-1.425703 -5.0250096 -0.39871219 0.97926384
-1.48875 -5.0067477 -0.39871642 0.97926366
-1.5515722 -4.9877048 -0.39872062 0.97926337
-1.6141504 -4.9678712 -0.39872476 0.97926313
-1.6764648 -4.9472361 -0.39872894 0.97926295
-1.7385254 -4.9258204 -0.39873305 0.97926277
-1.8617871 -4.8806834 -0.3987413 0.97926235
-1.9229883 -4.8569431 -0.39874539 0.97926217
-1.9839061 -4.8324509 -0.39874947 0.97926193
-2.1646972 -4.7544041 -0.39876151 0.97926122
-1.9555762 -4.0237794 -0.34149924 0.98221272
-1.9941601 -3.9753222 -0.33948669 0.98231661
-2.4590623 -4.6093163 -0.39878109 0.97926033
-2.5741699 -4.5461521 -0.39878875 0.97925991
-2.6311231 -4.5134764 -0.39879256 0.97925973
-2.6876464 -4.4800978 -0.39879629 0.97925955
-2.7437694 -4.4460058 -0.39880005 0.97925937
-2.7994432 -4.4112306 -0.39880374 0.97925913
-2.8546679 -4.375742 -0.39880741 0.97925901
-3.0710351 -4.2269335 -0.39882174 0.97925824
-3.1239452 -4.1880565 -0.39882529 0.979258
-3.2282519 -4.1083102 -0.3988322 0.97925764
-3.2796581 -4.0674415 -0.3988356 0.97925752
-3.3872557 -3.9913085 -0.3995932 0.97921848
-3.4307127 -3.9410448 -0.39884558 0.97925699
-3.5287304 -3.8536425 -0.39885208 0.97925663
-3.5769141 -3.8090234 -0.39885527 0.97925645
-3.7339256 -3.7811816 -0.40563944 0.97890747
-3.9171679 -3.7722266 -0.41511223 0.9784202
-1.0226269 -0.93641597 -0.10584263 0.99445295
-1.022871 -0.91327149 -0.10467071 0.99451417
-1.023086 -0.89061522 -0.10354015 0.9945733
-1.0233203 -0.86844724 -0.1024496 0.99463022
-1.0235254 -0.8467285 -0.10139728 0.99468523
-1.0241113 -0.78413087 -0.098455347 0.99483901
-1.0242871 -0.76404297 -0.097542077 0.99488682
-1.0244628 -0.74432617 -0.09666042 0.99493289
-1.1187109 -0.70995116 -0.10113738 0.99469882
-1.2178808 -0.70996094 -0.10760471 0.99436074
-1.2538086 -0.70996094 -0.10998424 0.99423647
-1.3307421 -0.70995116 -0.11513027 0.99396759
-1.4152637 -0.70995116 -0.12086174 0.99366832
-1.5087206 -0.70995116 -0.12727813 0.99333328
-1.5593066 -0.70996094 -0.13078076 0.99315035
-1.6693066 -0.70995116 -0.13846698 0.99274927
-1.7293066 -0.70995116 -0.14269443 0.99252886
-1.794873 -0.71064454 -0.14735474 0.99228573
-6.2030368 -2.1893065 -0.5021196 0.97395641
-6.2300682 -2.111201 -0.50212133 0.97395635
-6.2561426 -2.0327539 -0.502123 0.97395617
-6.3052635 -1.8748926 -0.5021261 0.97395617
-6.3504395 -1.7158691 -0.50212896 0.97395593
-6.3915915 -1.5557421 -0.50213158 0.97395581
-6.4106345 -1.4753027 -0.50213277 0.97395581
-6.503623 -0.98822266 -0.5021385 0.97395551
-6.5362887 -0.74241209 -0.5021404 0.97395533
-6.5450974 -0.66021484 -0.50214094 0.97395539
-6.5528708 -0.57791013 -0.50214136 0.97395539
-6.5596189 -0.49551758 -0.50214171 0.97395539
-6.5762792 -0.16533203 -0.50214249 0.97395521
-6.3458982 0.07974609 -0.50212675 0.97485656
-6.3418946 0.23917969 -0.50212634 0.97485656
-6.3283591 0.47803709 -0.50212514 0.97485662
-6.321826 0.55752927 -0.50212467 0.97485673
-6.3143454 0.63691407 -0.50212407 0.97485662
-6.2742968 0.95337886 -0.50212103 0.97485691
-6.2618456 1.0321387 -0.50212014 0.97485679
-6.2483397 1.1107616 -0.50211912 0.97485697
-6.2184472 1.2674121 -0.50211698 0.97485697
-6.1845899 1.4232714 -0.50211453 0.97485715
-6.1662011 1.5008692 -0.50211316 0.97485721
-6.1468554 1.5782324 -0.50211179 0.97485721
-6.105195 1.7322069 -0.50210887 0.97485745
-6.0355368 1.9610449 -0.50210392 0.97485763
-6.0103707 2.0367186 -0.50210214 0.97485781
-5.9842868 2.1120996 -0.50210035 0.97485787
-1.7955273 0.65919918 -0.15133213 0.99235463
-1.7956347 0.6849609 -0.15205505 0.99231827
-1.7957617 0.71097654 -0.15280998 0.99228024
-1.7293164 0.70993161 -0.14790447 0.99252725
-1.6692871 0.70994139 -0.14352298 0.99274784
-1.4607714 0.70995116 -0.12850402 0.99350429
-1.4152734 0.70995116 -0.12527473 0.99366689
-1.3307519 0.70994139 -0.11933426 0.99396628
-1.2537988 0.70995116 -0.11400024 0.99423528
-1.2178613 0.70995116 -0.11153378 0.99435961
-1.1834277 0.70996094 -0.1091888 0.99447787
-1.1187109 0.70994139 -0.10483059 0.99469769
-1.0882324 0.70994139 -0.10280315 0.99479997
-1.0306739 0.70995116 -0.099020153 0.99499083
-1.0239453 0.72445309 -0.099241257 0.99497974
-1.0237695 0.74379879 -0.10012245 0.99493527
-1.0236132 0.76351559 -0.101035 0.99488914
-1.0234082 0.78356445 -0.10198028 0.99484152
-1.0225977 0.86782223 -0.10611461 0.9946329
-4.6252341 4.343369 -0.50200677 0.97486246
-4.5702634 4.401113 -0.50200301 0.97486264
-4.5145507 4.4581738 -0.5019992 0.97486281
-4.4010158 4.5701365 -0.50199145 0.97486323
-4.2255368 4.732656 -0.50197953 0.97486383
-4.1657028 4.7853317 -0.50197542 0.97486407
-4.1052246 4.8372655 -0.5019713 0.97486418
-4.0440626 4.8884373 -0.50196713 0.97486442
-3.7932031 5.0852833 -0.50195014 0.97486526
-3.7289941 5.1324997 -0.50194573 0.97486544
-3.6641502 5.1789255 -0.50194138 0.97486567
-3.4662597 5.3131738 -0.50192791 0.97486645
-3.3316112 5.3985157 -0.50191879 0.97486681
-3.056035 5.5588865 -0.50190014 0.9748677
-2.9858789 5.5967965 -0.50189537 0.974868
-2.915293 5.6338181 -0.5018906 0.97486824
-2.7727344 5.705205 -0.501881 0.97486871
-2.70083 5.7395215 -0.50187612 0.97486895
-2.6284766 5.7729588 -0.50187123 0.97486913
-2.3349903 5.8975096 -0.50185138 0.97487015
-2.0356348 6.0071287 -0.50183117 0.97487116
-1.9599804 6.0321774 -0.50182611 0.9748714
-1.8077246 6.0794044 -0.5018158 0.97487193
-1.7311621 6.1015625 -0.50181061 0.97487223
-1.6543554 6.1227832 -0.50180548 0.97487241
-1.4999316 6.1622849 -0.50179505 0.97487301
-1.4223535 6.1805859 -0.50178987 0.97487324
-1.3445703 6.1979003 -0.50178462 0.97487348
-1.0314257 6.2573729 -0.50176352 0.9748745
-0.95269531 6.2697754 -0.50175822 0.97487479
-0.71569335 6.3010349 -0.5017423 0.97487551
-0.63644528 6.309453 -0.501737 0.97487587
-0.55710936 6.3168945 -0.50173163 0.97487605
-0.47768554 6.3233299 -0.50172627 0.97487634
-0.39818358 6.3287597 -0.50172096 0.97487664
-0.15935546 6.3390622 -0.50170493 0.97487742
0 6.3409371 -0.5016942 0.97487795
0.079677731 6.3403711 -0.5016889 0.97487819
0.2389746 6.3362207 -0.50167817 0.97487879
0.47543943 6.2934861 -0.49935994 0.97499341
0.6847949 6.028955 -0.48007646 0.97594726
0.81567383 5.8631248 -0.46835703 0.97652751
0.88009763 5.7920017 -0.46352321 0.97676694
1.0793457 5.658154 -0.45574477 0.97715235
1.1443067 5.6144629 -0.45334905 0.97727108
1.2086133 5.5712399 -0.45105061 0.97738504
1.3355664 5.4869823 -0.44680494 0.97759545
1.3983008 5.4459863 -0.44486326 0.97769177
1.460498 5.4053221 -0.44300559 0.97778386
1.5221777 5.3649607 -0.44122976 0.97787189
1.7043555 5.2454786 -0.43637851 0.97811246
1.7642089 5.2061229 -0.43491638 0.97818506
1.8826953 5.1281052 -0.43221536 0.97831905
1.9414941 5.0895996 -0.43099165 0.97837973
1.9999707 5.0513086 -0.4298445 0.97843665
2.3447754 4.8245897 -0.42441523 0.97870612
2.4656153 4.7647848 -0.42447269 0.97870326
2.5304785 4.7431345 -0.42534241 0.97866005
2.5955858 4.7213378 -0.42627978 0.97861356
2.72666 4.6773534 -0.42836142 0.97851026
2.8590233 4.6327538 -0.43072277 0.97839308
2.9257421 4.6102147 -0.43201193 0.97832912
2.9928417 4.5875001 -0.43337286 0.97826159
3.0603516 4.56459 -0.43480921 0.97819036
3.1283007 4.5414939 -0.43632025 0.97811544
3.1967089 4.5182033 -0.43790716 0.9780367
3.2655957 4.4947071 -0.43957254 0.97795415
3.3350194 4.4709959 -0.44131672 0.97786754
3.4049511 4.4470506 -0.4431414 0.97777706
3.4754686 4.4228611 -0.4450489 0.97768253
3.6186035 4.3741307 -0.44915694 0.97747886
3.6919239 4.3502731 -0.45143583 0.97736591
3.7660058 4.3261814 -0.45380989 0.97724819
3.8408787 4.3018165 -0.45628133 0.9771257
4.092617 4.2498827 -0.46681517 0.97660393
4.1856055 4.2385254 -0.47130674 0.97638142
4.4757614 4.2030272 -0.48578566 0.97566479
4.5765624 4.1907029 -0.49096939 0.97540826
4.6795115 4.1780958 -0.49634475 0.97514254
4.882617 4.039238 -0.501369 0.97489399
4.9329591 3.9775488 -0.50136566 0.97489411
5.0312891 3.8522656 -0.50135922 0.97489446
1.250957 0.93311518 -0.12347881 0.99375749
1.2516114 0.8621484 -0.12024719 0.99392033
1.2520117 0.81679684 -0.11827484 0.99401969
1.2521973 0.79466796 -0.11733982 0.99406683
1.2523632 0.77287108 -0.11643718 0.99411243
1.2527149 0.73026365 -0.1147258 0.99419868
1.3719727 0.70993161 -0.12222271 0.99382079
1.4152539 0.70994139 -0.12527469 0.99366701
1.460791 0.70994139 -0.12850407 0.99350423
1.5087206 0.70995116 -0.13192534 0.99333185
1.5592871 0.70994139 -0.13555598 0.99314898
1.6127148 0.70994139 -0.13941494 0.99295467
1.861123 0.70995116 -0.15760173 0.9920392
2.0235059 0.68569332 -0.16904217 0.99146384
6.0498829 1.8820117 -0.50129294 0.9748978
6.0730567 1.8058398 -0.50129151 0.9748978
6.1164842 1.6526366 -0.50128871 0.97489798
6.1560545 1.4984082 -0.50128621 0.97489804
6.174365 1.420918 -0.50128508 0.97489822
6.1917286 1.3432128 -0.501284 0.97489822
6.2379394 1.1088965 -0.50128114 0.97489828
6.2513571 1.0304102 -0.50128037 0.9748984
6.2637987 0.95177734 -0.50127959 0.97489846
6.2857227 0.79407227 -0.50127828 0.97489852
6.2952051 0.7150293 -0.50127774 0.97489846
6.323164 0.39780274 -0.5012762 0.97489858
6.335156 0.079599604 -0.50127572 0.97489858
6.3351464 -0.079628907 -0.5012759 0.97489864
6.3311524 -0.23879883 -0.50127637 0.97489858
6.323154 -0.39782226 -0.50127703 0.97489858
6.3176856 -0.47724608 -0.50127751 0.97489846
6.2952247 -0.7150293 -0.50127923 0.9748984
6.2638183 -0.95178711 -0.50128162 0.97489834
6.2379684 -1.108916 -0.50128353 0.97489816
6.223525 -1.187207 -0.50128454 0.97489822
6.1917577 -1.3432324 -0.50128686 0.9748981
6.1744432 -1.4209374 -0.50128812 0.97489786
6.136797 -1.5756738 -0.5012908 0.9748978
6.0731149 -1.8058593 -0.50129533 0.97489756
2.0234962 -0.65749019 -0.16833949 0.99149919
1.9337401 -0.70996094 -0.16298309 0.99176854
1.7931249 -0.70995116 -0.15258655 0.99229151
1.7293066 -0.70995116 -0.1479045 0.99252725
1.6692773 -0.70995116 -0.14352261 0.99274784
1.5592773 -0.70996094 -0.13555573 0.99314898
1.5087304 -0.70996094 -0.13192527 0.99333179
1.3719629 -0.70995116 -0.1222224 0.99382079
1.3307519 -0.70995116 -0.11933399 0.99396628
1.2913769 -0.70995116 -0.11659675 0.99410439
1.2527149 -0.73026365 -0.1147258 0.99419868
1.252539 -0.75142574 -0.11556606 0.9941563
1.252373 -0.77288085 -0.11643711 0.99411237
1.2518164 -0.83929688 -0.11924362 0.99397087
1.2511914 -0.90904295 -0.12236355 0.99381363
5.0313573 -3.8523533 -0.50136739 0.97489405
4.9551563 -3.8937011 -0.49860832 0.97503048
4.8270602 -3.8921483 -0.49060217 0.97542644
4.7029881 -3.8906543 -0.48292422 0.97580636
4.466074 -3.8877831 -0.46848395 0.97652119
4.3528223 -3.8863964 -0.46169084 0.97685772
4.0311427 -3.881953 -0.44278443 0.97779471
3.8307128 -3.8791308 -0.43134353 0.9783622
3.7342675 -3.8777831 -0.42593986 0.97863036
3.6402245 -3.8764648 -0.42073667 0.97888863
3.549746 -3.8765819 -0.41587505 0.97912997
3.4627342 -3.8783007 -0.41136035 0.97935426
3.1606934 -3.9199121 -0.3984032 0.97999805
3.0612402 -3.9981639 -0.39840996 0.97999769
3.0107911 -4.0363574 -0.39841339 0.97999752
2.9645312 -4.0803318 -0.39904463 0.9799661
2.8566113 -4.1470604 -0.39842388 0.97999698
2.804287 -4.1826854 -0.39842743 0.9799968
2.6983593 -4.251904 -0.39843458 0.97999638
2.5362303 -4.3507032 -0.39844558 0.97999591
2.4813867 -4.3822656 -0.39844927 0.97999573
2.3705175 -4.4433203 -0.39845678 0.97999537
2.3145118 -4.4728026 -0.3984606 0.97999519
2.2014356 -4.5296583 -0.39846823 0.97999471
2.0869532 -4.5836229 -0.39847597 0.97999442
2.0292187 -4.6095409 -0.39847991 0.97999418
1.9711425 -4.634707 -0.39848381 0.97999406
1.9127538 -4.6591601 -0.39848772 0.97999382
1.8540722 -4.6828904 -0.39849171 0.97999358
1.7951074 -4.7058592 -0.3984957 0.9799934
1.7358496 -4.7280955 -0.3984997 0.97999322
1.6763085 -4.7495899 -0.39850372 0.97999299
1.6165332 -4.7703123 -0.39850774 0.97999281
1.435625 -4.8280077 -0.39851996 0.97999215
1.3138672 -4.8626466 -0.39852816 0.97999185
1.252666 -4.8788376 -0.3985323 0.97999156
1.129707 -4.9088573 -0.39854056 0.9799912
0.7567578 -4.9803224 -0.39856568 0.97999001
0.63139647 -4.9978905 -0.39857408 0.97998947
0.50560546 -5.0122852 -0.39858258 0.97998905
0.44255859 -5.0183105 -0.39858681 0.97998881
0.25313476 -5.0315623 -0.39859954 0.97998828
9.7656248e-06 -5.0381446 -0.39861652 0.97998738
-0.25312498 -5.031992 -0.39863348 0.97998661
-0.3163574 -5.0284762 -0.39863777 0.97998631
-0.44264647 -5.019043 -0.39864624 0.97998589
-0.60941404 -4.0107813 -0.32097426 0.98385382
-0.88189453 -4.9610934 -0.39867559 0.97998458
-1.0063379 -4.9374804 -0.39868397 0.9799841
-1.1301172 -4.9107323 -0.39869225 0.97998369
-1.1917578 -4.8962011 -0.39869636 0.97998345
-1.2532032 -4.8808885 -0.39870048 0.97998321
-1.3144531 -4.8647947 -0.39870456 0.97998309
-1.3754785 -4.847949 -0.39870864 0.97998285
-1.4363085 -4.8303418 -0.39871269 0.97998261
-1.5572559 -4.7928028 -0.39872077 0.97998232
-1.7961718 -4.7086911 -0.39873672 0.97998154
-1.8552148 -4.6858006 -0.39874065 0.9799813
-1.9139941 -4.662168 -0.39874458 0.97998106
-2.1459081 -4.5602927 -0.39876002 0.97998029
-1.9555858 -4.0237889 -0.35396841 0.98220891
-2.0504687 -3.9625292 -0.35300031 0.98225707
-2.3724022 -4.4468946 -0.3987751 0.97997952
-2.4281249 -4.416748 -0.39877883 0.9799794
-2.6470799 -4.2893457 -0.39879337 0.97997856
-2.7007616 -4.2557616 -0.39879695 0.97997856
-2.7540722 -4.2215333 -0.39880049 0.97997832
-2.8069239 -4.1866307 -0.39880401 0.97997814
-2.8593457 -4.1510448 -0.39880747 0.97997797
-3.013828 -4.0404391 -0.39881775 0.97997749
-3.0644042 -4.0023046 -0.39882106 0.97997719
-3.1640723 -3.9240918 -0.39882767 0.97997689
-3.2131445 -3.8840528 -0.39883095 0.97997677
-3.2617285 -3.8433886 -0.39883414 0.97997665
-3.38291 -3.7889061 -0.40187895 0.97982538
-3.5504589 -3.7808592 -0.41036075 0.97940391
-3.7257812 -3.7729101 -0.41952938 0.97894853
-3.8191698 -3.7714844 -0.42467573 0.97869313
-3.9149022 -3.7700489 -0.43001899 0.97842795
-4.0130763 -3.7685351 -0.43556884 0.97815275
-1.0218848 -0.93574214 -0.10962669 0.99445575
-1.0221289 -0.91259766 -0.10841361 0.99451697
-1.0225683 -0.86783201 -0.10611473 0.99463296
-1.0227929 -0.84614253 -0.10502529 0.99468786
-1.0231934 -0.80403316 -0.10295948 0.9947921
-1.058916 -0.70995116 -0.10086796 0.9948976
-1.0882422 -0.70995116 -0.10280289 0.99479991
-1.1187109 -0.70995116 -0.10483055 0.99469769
-1.1504004 -0.70995116 -0.10695671 0.99459046
-1.1834277 -0.70995116 -0.10918853 0.99447787
-1.2178808 -0.70996094 -0.11153378 0.99435949
-1.3307421 -0.70995116 -0.11933406 0.99396628
-1.3719531 -0.70994139 -0.12222251 0.99382085
-1.460791 -0.70995116 -0.12850372 0.99350417
-1.5087206 -0.70995116 -0.1319252 0.99333185
-1.612705 -0.70995116 -0.13941455 0.99295467
-1.6693066 -0.70995116 -0.14352253 0.99274772
-1.7293066 -0.70995116 -0.14790455 0.99252725
-1.7957519 -0.71099609 -0.15280971 0.9922803
-6.0104489 -2.0367773 -0.50210649 0.97485745
-6.0355663 -1.9610742 -0.5021081 0.97485745
-6.0829782 -1.808789 -0.50211114 0.97485733
-6.126543 -1.6553711 -0.50211388 0.97485721
-6.1468844 -1.5782617 -0.50211519 0.97485709
-6.1662402 -1.5008984 -0.50211638 0.97485703
-6.2020507 -1.3454688 -0.50211865 0.97485691
-6.2184863 -1.2674316 -0.50211966 0.97485679
-6.2339158 -1.1891797 -0.50212061 0.97485685
-6.2483788 -1.1107616 -0.50212151 0.97485679
-6.3143649 -0.63692379 -0.50212544 0.97485656
-6.3283787 -0.47805664 -0.50212616 0.9748565
-6.3383884 -0.31886718 -0.50212669 0.97485656
-6.3418846 -0.23919921 -0.50212681 0.97485662
-6.3459177 -0.07974609 -0.50212693 0.9748565
-6.1301951 -9.7656248e-06 -0.50211239 0.97569728
-6.1297069 0.07702148 -0.50211227 0.97569728
-6.1282616 0.15404296 -0.50211209 0.97569728
-6.1180563 0.3849121 -0.50211114 0.97569746
-6.0909762 0.69181639 -0.50210899 0.97569752
-6.0817966 0.76830077 -0.50210828 0.97569752
-6.0605564 0.92089844 -0.50210673 0.97569758
-6.0354686 1.0729004 -0.50210488 0.9756977
-6.0215039 1.1486523 -0.50210387 0.97569776
-6.0066013 1.2242285 -0.50210279 0.9756977
-5.9906931 1.2996191 -0.5021016 0.97569788
-5.9738865 1.3747852 -0.50210041 0.97569793
-5.9561229 1.449746 -0.50209916 0.97569799
-5.9177928 1.598955 -0.50209641 0.97569805
-5.8971972 1.6731836 -0.50209492 0.97569817
-5.8756833 1.7471484 -0.50209343 0.97569829
-5.8298926 1.8942578 -0.50209022 0.97569835
-5.7804198 2.0401366 -0.50208676 0.97569853
-1.7965039 0.68529296 -0.15749076 0.99231285
-1.7293164 0.70993161 -0.15311664 0.99252558
-1.6127245 0.70995116 -0.14432804 0.99295306
-1.5592871 0.70994139 -0.14033337 0.99314743
-1.5087304 0.70993161 -0.13657475 0.99333036
-1.4607714 0.70995116 -0.13303275 0.9935028
-1.4152734 0.70995116 -0.12968978 0.99366552
-1.2537988 0.70995116 -0.11801803 0.99423397
-1.0882324 0.70994139 -0.10642605 0.99479884
-1.0589062 0.70995116 -0.10442287 0.99489647
-1.0230957 0.74330074 -0.10358097 0.99493748
-1.0228906 0.76299804 -0.10452469 0.99489152
-1.0226953 0.78304684 -0.1055019 0.9948439
-1.0220898 0.84552735 -0.10865001 0.99469042
-1.0218652 0.86719728 -0.10977611 0.99463552
-1.0216309 0.88932616 -0.11094306 0.99457866
-1.0211328 0.93502927 -0.1134066 0.99445862
-4.4676952 4.1954198 -0.50199634 0.97570288
-4.4145799 4.2512107 -0.5019927 0.975703
-4.2511034 4.4144821 -0.50198156 0.9757036
-4.1952634 4.4675193 -0.50197774 0.97570378
-4.1387792 4.519834 -0.50197393 0.97570395
-4.0238185 4.6223435 -0.50196606 0.97570437
-3.9653709 4.6725097 -0.50196213 0.97570455
-3.7254784 4.8656931 -0.50194585 0.97570533
-3.6640332 4.9120798 -0.50194162 0.97570544
-3.6019726 4.9576855 -0.50193745 0.97570574
-3.4762011 5.0465527 -0.50192887 0.9757061
-3.2834375 5.1738477 -0.50191581 0.97570676
-3.2181151 5.2146778 -0.5019114 0.97570693
-3.152334 5.2546387 -0.50190693 0.97570711
-3.0860057 5.2937889 -0.50190246 0.97570741
-3.0192187 5.3321095 -0.50189793 0.97570759
-2.9519434 5.3695703 -0.5018934 0.97570783
-2.8160253 5.4419627 -0.50188416 0.97570825
-2.7474022 5.4768653 -0.50187951 0.97570848
-2.6783299 5.5109081 -0.50187486 0.97570872
-2.4686522 5.6077929 -0.50186068 0.97570932
-2.397959 5.6383004 -0.50185591 0.97570962
-2.3269043 5.6679492 -0.50185108 0.9757098
-2.183701 5.7245212 -0.50184143 0.97571027
-2.1115625 5.7514548 -0.50183654 0.97571051
-1.9663378 5.802578 -0.50182676 0.97571099
-1.8198632 5.8500586 -0.50181687 0.97571141
-1.7461914 5.8723927 -0.50181192 0.9757117
-1.6722363 5.8938279 -0.50180691 0.97571188
-1.5980176 5.9143066 -0.50180191 0.97571218
-1.5235547 5.933867 -0.5017969 0.97571242
-1.3739355 5.9701562 -0.50178683 0.9757129
-1.2234472 6.002656 -0.5017767 0.97571343
-1.0721778 6.0313964 -0.5017665 0.97571391
-0.9962793 6.0443358 -0.50176138 0.97571415
-0.92025387 6.0563278 -0.50175625 0.97571433
-0.84409177 6.0673141 -0.50175118 0.97571468
-0.7677539 6.0774121 -0.501746 0.9757148
-0.61478513 6.0946579 -0.50173575 0.97571534
-0.38462889 6.1133299 -0.50172025 0.97571599
-0.30776367 6.1175876 -0.50171512 0.97571635
-0.23085937 6.1209083 -0.50170994 0.97571659
-0.15392578 6.123291 -0.50170475 0.97571677
0.076972656 6.1245408 -0.50168931 0.97571754
0.23085937 6.1205273 -0.50167894 0.97571808
0.30773437 6.1170993 -0.50167382 0.97571826
0.3845703 6.1126852 -0.50166863 0.9757185
0.46135741 6.1072946 -0.50166351 0.9757188
0.6146875 6.0936522 -0.50165325 0.97571927
0.68472654 6.0285449 -0.49696228 0.97594357
0.81556636 5.8625293 -0.48481464 0.97652471
0.88003904 5.7916403 -0.47982833 0.97676325
1.0136328 5.7020116 -0.47436368 0.97702485
1.0792871 5.6578708 -0.47178343 0.97714841
1.2085644 5.5709958 -0.46692434 0.97738105
1.2722168 5.528203 -0.46464199 0.97749043
1.3352832 5.4858203 -0.46245316 0.97759521
1.4596581 5.4022069 -0.45835295 0.97779161
1.5819238 5.3200097 -0.45460868 0.97797102
1.7022948 5.2390819 -0.45120746 0.97813404
1.8209863 5.1594629 -0.44815242 0.97828048
1.8799804 5.1206541 -0.44679609 0.97834539
1.9968847 5.0435548 -0.44431037 0.97846466
2.1699121 4.9291501 -0.44112846 0.97861725
2.2841406 4.8539939 -0.43940058 0.97869998
2.3408887 4.8165622 -0.43864173 0.97873646
2.4614551 4.7567577 -0.438692 0.97873408
2.6564648 4.6914353 -0.44159427 0.9785949
2.7220213 4.669404 -0.44270355 0.97854167
2.8541503 4.6248436 -0.44514045 0.97842479
2.9207127 4.6023045 -0.44646987 0.97836113
3.0554199 4.5572362 -0.44940588 0.97822034
3.1238184 4.5349708 -0.45104769 0.97814173
3.4028027 4.4442091 -0.45846653 0.97778618
3.4740233 4.4210448 -0.46054381 0.9776867
3.6185155 4.374033 -0.46497458 0.97747439
3.7659178 4.3260646 -0.46979186 0.97724372
3.9164746 4.27707 -0.47501227 0.9769938
4.0013475 4.2609959 -0.4787738 0.97681373
4.0925975 4.2498536 -0.4832617 0.97659892
4.1855664 4.2384763 -0.4879114 0.97637647
4.2803321 4.2268944 -0.49272993 0.97614598
4.3770409 4.2150583 -0.49772447 0.97590715
4.5661621 4.0769043 -0.50139016 0.97573191
1.2503515 0.90842772 -0.12659076 0.99381644
1.2509863 0.83873045 -0.12336501 0.99397355
1.2512012 0.81625974 -0.12236355 0.99402225
1.2513866 0.79414064 -0.12139686 0.9940694
1.2517577 0.75093746 -0.11956302 0.99415869
1.2519238 0.72980469 -0.11869419 0.994201
1.2538086 0.70994139 -0.11801788 0.99423397
1.4152539 0.70994139 -0.12968968 0.99366558
1.460791 0.70994139 -0.13303265 0.99350274
1.5087206 0.70995116 -0.1365747 0.99333036
1.6692969 0.70995116 -0.14858124 0.99274617
1.7293164 0.70995116 -0.15311737 0.99252552
1.7931347 0.70994139 -0.15796486 0.99228978
1.9337305 0.70994139 -0.16872722 0.99176675
2.0234277 0.68567383 -0.17499347 0.99146223
5.8441014 1.8179883 -0.50130683 0.97573584
5.8664646 1.7444043 -0.5013054 0.97573596
5.9084277 1.5964258 -0.50130272 0.97573602
5.94665 1.4474316 -0.50130033 0.97573614
5.981123 1.297539 -0.50129819 0.97573626
5.996953 1.2222656 -0.50129724 0.97573626
6.0118165 1.1468164 -0.50129628 0.97573632
6.0387301 0.99537104 -0.50129467 0.97573638
6.0507421 0.91940427 -0.50129396 0.97573644
6.0719137 0.76706052 -0.50129265 0.97573656
6.0810742 0.69069332 -0.50129217 0.97573656
6.0964842 0.53764647 -0.50129128 0.97573662
6.1027637 0.46100584 -0.50129092 0.97573662
6.1080761 0.38428709 -0.50129068 0.97573662
6.1201563 -9.7656248e-06 -0.50129026 0.97573662
6.119668 -0.076904297 -0.50129032 0.97573662
6.1182032 -0.15379882 -0.50129056 0.97573668
6.1158104 -0.23068359 -0.50129074 0.97573656
6.1124315 -0.30750975 -0.5012911 0.97573656
6.1080761 -0.38429686 -0.50129145 0.97573662
6.0965233 -0.53766602 -0.50129241 0.9757365
6.0810838 -0.69071287 -0.5012936 0.9757365
6.0507617 -0.91942382 -0.50129586 0.97573638
6.0387206 -0.99539059 -0.50129676 0.97573638
6.0257711 -1.0711914 -0.50129771 0.97573626
5.9643846 -1.3726171 -0.50130212 0.97573608
5.9084568 -1.5964453 -0.50130612 0.9757359
5.887949 -1.6705761 -0.50130761 0.97573578
5.8665037 -1.7444335 -0.5013091 0.97573578
5.8441601 -1.8180175 -0.50131071 0.9757356
2.0234375 -0.6574707 -0.17426594 0.99149758
2.0234375 -0.6857031 -0.17499371 0.99146217
2.0234179 -0.71416992 -0.17575511 0.99142522
1.9337401 -0.70996094 -0.16872688 0.99176669
1.8611034 -0.70996094 -0.16315529 0.99203748
1.7931249 -0.70995116 -0.15796436 0.99228984
1.6692773 -0.70995116 -0.14858066 0.99274623
1.6127148 -0.70995116 -0.14432777 0.99295306
1.5087304 -0.70996094 -0.13657433 0.9933303
1.4152637 -0.70994139 -0.12968922 0.99366558
1.2913769 -0.70995116 -0.12070564 0.99410307
1.2519238 -0.72981441 -0.11869422 0.994201
1.2513866 -0.79416013 -0.12139675 0.99406934
1.250127 -0.9325 -0.12774399 0.99376023
4.813086 -3.7820897 -0.50138199 0.97573221
4.466074 -3.8877831 -0.48499379 0.97651601
4.2426267 -3.8849218 -0.47118556 0.97717696
4.0311232 -3.8819628 -0.45838928 0.97778982
3.9295995 -3.8805273 -0.45235366 0.97807902
3.8307128 -3.8791308 -0.44654453 0.97835743
3.7342675 -3.8777831 -0.44095111 0.97862566
3.6402245 -3.8764648 -0.43556446 0.97888398
3.5484569 -3.8751659 -0.43037435 0.97913289
3.4588182 -3.8738964 -0.42537352 0.97937292
3.3712108 -3.8726659 -0.420553 0.9796043
3.2866697 -3.8727832 -0.41604632 0.97982061
2.969785 -3.8787205 -0.40012816 0.98058516
2.9083495 -3.8990135 -0.39842013 0.98066723
2.8591602 -3.9352734 -0.39842346 0.98066705
2.8095117 -3.9709277 -0.3984268 0.98066688
2.7594042 -4.0059571 -0.39843026 0.98066676
2.5547266 -4.1396875 -0.39844412 0.98066604
2.5025291 -4.171504 -0.39844763 0.98066586
2.4499316 -4.2026563 -0.39845124 0.98066574
2.3969433 -4.2331543 -0.39845482 0.98066556
2.2898633 -4.292129 -0.39846206 0.98066515
2.2357616 -4.3205957 -0.39846572 0.98066503
2.1265235 -4.3755078 -0.39847308 0.98066461
1.9601562 -4.4526758 -0.39848435 0.98066407
1.8476757 -4.5006151 -0.39849192 0.98066372
1.7909863 -4.5235252 -0.39849579 0.98066354
1.6767676 -4.5671873 -0.39850348 0.98066318
1.5034765 -4.6272655 -0.39851516 0.9806627
1.4452441 -4.6458397 -0.39851913 0.98066247
1.3867675 -4.663672 -0.39852306 0.98066229
1.3280761 -4.6807909 -0.39852703 0.98066205
1.0316015 -4.7551661 -0.39854696 0.98066115
0.91177732 -4.7796969 -0.39855507 0.98066074
0.79138672 -4.8012009 -0.39856315 0.98066032
0.73101562 -4.8108006 -0.39856723 0.9806602
0.061162107 -4.8662009 -0.39861223 0.98065799
-0.12229492 -4.8651953 -0.39862454 0.9806574
-0.18341796 -4.8633299 -0.39862865 0.98065716
-0.30558592 -4.8572655 -0.39863685 0.98065686
-0.36661133 -4.8531055 -0.39864093 0.98065662
-0.42756835 -4.8481641 -0.39864501 0.98065639
-0.48844725 -4.8424606 -0.3986491 0.98065621
-0.45850584 -4.0367188 -0.33276549 0.98382711
-0.55402344 -3.9824121 -0.32933444 0.98399258
-0.60945308 -4.0107813 -0.33228683 0.98385018
-0.79157227 -4.8024802 -0.39866939 0.98065525
-0.97207028 -4.7693748 -0.39868149 0.98065466
-1.0916601 -4.7435446 -0.39868948 0.98065424
-1.2105078 -4.7146873 -0.39869744 0.98065394
-1.2696874 -4.6991696 -0.3987014 0.98065364
-1.3286328 -4.6828709 -0.39870527 0.98065358
-1.3873925 -4.6658592 -0.39870924 0.98065335
-1.504248 -4.6296091 -0.39871705 0.98065299
-1.5623144 -4.6103806 -0.39872092 0.98065281
-1.620127 -4.5904298 -0.39872476 0.98065263
-1.677705 -4.5697556 -0.39872864 0.98065245
-1.7920703 -4.5262499 -0.39873627 0.98065197
-1.9614356 -4.455615 -0.39874756 0.9806515
-2.0172949 -4.4306445 -0.39875126 0.98065132
-1.9555762 -4.0237794 -0.36644244 0.98220503
-2.0504687 -3.9625292 -0.36544344 0.98225313
-2.291621 -4.2954392 -0.39876953 0.98065042
-2.3454199 -4.2663379 -0.3987731 0.98065031
-2.4519629 -4.2061133 -0.3987802 0.98064995
-2.5046484 -4.1750193 -0.39878371 0.98064971
-2.5569336 -4.1432519 -0.39878717 0.98064959
-2.711328 -4.0440331 -0.39879745 0.98064911
-2.7619727 -4.009697 -0.39880079 0.98064888
-2.8618944 -3.9390819 -0.39880744 0.98064864
-2.9111912 -3.902832 -0.39881068 0.98064846
-2.9600389 -3.8659766 -0.39881393 0.98064828
-3.0084178 -3.8285155 -0.39881712 0.9806481
-3.0603125 -3.7954297 -0.39934662 0.98062277
-3.1368749 -3.7918358 -0.40308434 0.98044312
-3.2148633 -3.7881346 -0.40695384 0.98025721
-3.2942967 -3.7843261 -0.41095901 0.98006487
-3.3753123 -3.7804003 -0.4151068 0.97986573
-3.4585059 -3.7769334 -0.41946644 0.97965646
-3.5455272 -3.775625 -0.4242346 0.97942764
-3.8191698 -3.7714844 -0.43964303 0.97868842
-1.0211328 -0.93503904 -0.11340652 0.99445862
-1.0213672 -0.91194332 -0.11215237 0.99451977
-1.0216309 -0.88934571 -0.11094292 0.9945786
-1.0218555 -0.86721677 -0.10977607 0.99463552
-1.0220605 -0.84553707 -0.10865013 0.99469048
-1.0229003 -0.76299804 -0.10452458 0.99489152
-1.0306641 -0.70995116 -0.10250968 0.99498975
-1.058916 -0.70995116 -0.10442287 0.99489647
-1.0882422 -0.70995116 -0.10642593 0.99479878
-1.1187109 -0.70995116 -0.10852455 0.9946965
-1.1834277 -0.70995116 -0.11303657 0.99447662
-1.2914063 -0.70996094 -0.12070602 0.99410295
-1.3307421 -0.70995116 -0.12353954 0.99396497
-1.460791 -0.70995116 -0.13303253 0.99350274
-1.5087206 -0.70995116 -0.1365747 0.99333036
-1.5593066 -0.70996094 -0.14033313 0.99314731
-1.612705 -0.70995116 -0.14432804 0.99295312
-1.6693066 -0.70995116 -0.14858089 0.99274611
-1.7293066 -0.70995116 -0.15311711 0.99252558
-1.7966211 -0.71134764 -0.15827282 0.99227482
-1.7964941 -0.68530273 -0.15749031 0.99231285
-1.7963867 -0.65951169 -0.15674114 0.99234927
-5.780488 -2.0401659 -0.50209111 0.97569823
-5.853291 -1.8208593 -0.50209576 0.97569817
-5.8972654 -1.6732031 -0.5020985 0.97569793
-5.9374704 -1.5244921 -0.50210106 0.97569782
-5.956162 -1.4497558 -0.50210226 0.97569782
-5.9739356 -1.3748046 -0.50210339 0.9756977
-5.9907422 -1.2996386 -0.5021044 0.9756977
-6.0066113 -1.2242481 -0.50210541 0.97569764
-6.0215526 -1.1486816 -0.50210631 0.97569752
-6.0485058 -0.99699217 -0.50210798 0.97569758
-6.0605664 -0.92090815 -0.50210869 0.97569752
-6.0716796 -0.84467769 -0.50210935 0.97569746
-6.0910153 -0.69183594 -0.50211048 0.97569734
-6.1064744 -0.53853512 -0.50211138 0.97569734
-6.1180859 -0.38493162 -0.50211197 0.97569734
-6.1282325 -0.15405273 -0.50211239 0.9756974
-6.1297169 -0.077031247 -0.50211239 0.97569728
-5.9281149 -9.7656248e-06 -0.50209886 0.97648358
-5.9276562 0.074482419 -0.50209874 0.97648352
-5.92624 0.14898437 -0.5020985 0.97648358
-5.9238963 0.22343749 -0.50209832 0.97648358
-5.9206247 0.29785156 -0.50209802 0.97648358
-5.9164157 0.37221679 -0.50209767 0.97648358
-5.9051757 0.52079099 -0.50209671 0.97648364
-5.8981738 0.59496093 -0.50209618 0.97648358
-5.8902149 0.66901368 -0.50209558 0.9764837
-5.8813086 0.74298829 -0.50209486 0.97648382
-5.8607907 0.89053708 -0.50209332 0.97648376
-5.8365526 1.0375488 -0.50209153 0.97648382
-5.793242 1.2567773 -0.50208843 0.976484
-5.7227244 1.5462598 -0.50208336 0.97648424
-5.7028317 1.6180371 -0.50208199 0.9764843
-1.7975194 0.71166992 -0.16374363 0.99226928
-1.6692871 0.70995116 -0.15364131 0.99274451
-1.6127245 0.70995116 -0.14924365 0.99295139
-1.4607714 0.70995116 -0.13756347 0.99350131
-1.4152734 0.70995116 -0.13410659 0.99366403
-1.3307421 0.70996094 -0.12774719 0.99396354
-1.2913867 0.70994139 -0.12481704 0.9941017
-1.2537988 0.70995116 -0.12203719 0.99423265
-1.1834277 0.70996094 -0.11688656 0.99447536
-1.1504102 0.70994139 -0.11449749 0.99458802
-1.1187109 0.70994139 -0.11222133 0.99469531
-1.0882324 0.70994139 -0.11005054 0.99479765
-1.0589062 0.70995116 -0.10797931 0.99489528
-1.0306739 0.70994139 -0.10600105 0.99498856
-1.0225879 0.7234863 -0.10609615 0.99498409
-1.0223925 0.74281245 -0.10703697 0.99493974
-1.0222168 0.76248044 -0.10801128 0.99489373
-1.0220214 0.78250974 -0.10902061 0.99484617
-1.0213574 0.8449316 -0.11227135 0.99469298
-1.0211133 0.86658204 -0.11343391 0.9946382
-1.0208985 0.88868165 -0.11463901 0.99458128
-1.0203809 0.93433589 -0.11718273 0.99446148
-4.3204298 4.057168 -0.50198662 0.97648877
-4.2690821 4.1111131 -0.50198311 0.97648895
-4.1643944 4.217031 -0.50197595 0.97648919
-4.0570312 4.3202829 -0.50196862 0.9764896
-4.0023828 4.3708887 -0.50196493 0.97648978
-3.8912206 4.4700389 -0.50195736 0.97649008
-3.834707 4.5185447 -0.50195348 0.97649026
-3.7198827 4.6134081 -0.50194573 0.97649068
-3.6027343 4.7053614 -0.50193775 0.97649097
-3.5432811 4.7502341 -0.50193369 0.97649115
-3.1752636 5.0033789 -0.50190872 0.97649229
-3.0484569 5.0814939 -0.50190014 0.97649276
-2.9843457 5.1193748 -0.50189584 0.97649288
-2.7891991 5.228076 -0.50188255 0.97649354
-2.723242 5.2626562 -0.50187814 0.97649378
-2.6568847 5.2964258 -0.50187367 0.97649395
-2.5900977 5.3293357 -0.50186914 0.97649419
-2.5228808 5.3614259 -0.50186455 0.97649437
-2.4552929 5.3926659 -0.50186002 0.97649455
-2.3189745 5.4525485 -0.50185078 0.97649503
-2.2502246 5.4812012 -0.50184613 0.97649527
-2.1811719 5.5089941 -0.50184149 0.9764955
-1.9015527 5.6114159 -0.50182259 0.97649634
-1.8308789 5.6348243 -0.50181782 0.97649652
-1.759912 5.6573243 -0.50181305 0.97649676
-1.6886523 5.6789355 -0.50180823 0.97649699
-1.6171484 5.6996579 -0.5018034 0.97649723
-1.1831542 5.8049412 -0.50177419 0.97649854
-1.0368652 5.8327146 -0.50176436 0.97649908
-0.96348631 5.8452439 -0.50175941 0.9764992
-0.74247068 5.8772264 -0.50174451 0.97649992
-0.59454101 5.8939061 -0.50173461 0.97650039
-0.44623047 5.9068747 -0.5017246 0.97650087
-0.37195313 5.911953 -0.50171965 0.97650111
-0.29762694 5.9160938 -0.50171465 0.97650135
-0.22327147 5.9193258 -0.50170964 0.97650152
-0.14885741 5.9215817 -0.50170463 0.97650182
-0.074443355 5.9229493 -0.50169969 0.976502
0.14886719 5.9213672 -0.50168467 0.97650266
0.22323242 5.9189548 -0.50167966 0.97650295
0.44615233 5.9061618 -0.5016647 0.97650367
0.59443361 5.8929782 -0.5016548 0.97650409
0.81549805 5.8619432 -0.5012747 0.97652167
1.0792578 5.6575975 -0.48782772 0.9771443
1.1442089 5.6139355 -0.48526531 0.97726303
1.2085156 5.5707421 -0.48280388 0.97737688
1.2721875 5.5279493 -0.48044372 0.97748625
1.702207 5.2388573 -0.46655372 0.97812998
1.7617383 5.1988282 -0.46492484 0.9782055
1.8208593 5.1590819 -0.46338007 0.97827715
1.937959 5.0803223 -0.46053731 0.97840899
1.995996 5.0412989 -0.45923677 0.97846931
2.0537305 5.00249 -0.45801628 0.97852588
2.1682813 4.9254489 -0.4558087 0.97862828
2.2818162 4.8490915 -0.45390686 0.97871643
2.3382421 4.8111329 -0.45306945 0.97875535
2.3944824 4.7733107 -0.4523057 0.97879076
2.4585936 4.7512207 -0.45310447 0.97875375
2.523535 4.7301168 -0.45407897 0.97870845
2.7201464 4.6661525 -0.45746395 0.97855151
2.8529687 4.6229491 -0.46011373 0.9784286
2.9874315 4.5792089 -0.46308863 0.97829068
3.1237304 4.534873 -0.46639797 0.9781372
3.1926367 4.5124512 -0.46818221 0.97805452
3.2620995 4.4898729 -0.47005448 0.97796768
3.3320994 4.4670801 -0.47201595 0.97787678
3.4026854 4.4441113 -0.47407031 0.97778165
3.54583 4.3975487 -0.47845903 0.97757822
3.6917479 4.3500681 -0.48323831 0.97735679
4.0013185 4.2609472 -0.49507362 0.97680867
4.0925488 4.2498045 -0.49971527 0.97659385
4.1597362 4.2123532 -0.50141728 0.97651505
4.2123241 4.1597166 -0.50141382 0.97651517
4.2642283 4.1064157 -0.50141042 0.97651541
4.3660254 3.9979002 -0.50140375 0.97651571
4.4650583 3.8868749 -0.50139713 0.97651601
4.5135155 3.8304393 -0.50139397 0.97651613
4.5612597 3.7733984 -0.50139081 0.97651631
4.6082911 3.7157617 -0.50138772 0.97651643
4.6545801 3.6575291 -0.50138468 0.9765166
1.2493359 0.93189448 -0.13201171 0.99376279
1.2499609 0.86100584 -0.12855457 0.99392557
1.2501855 0.83818358 -0.12748317 0.993976
1.2505761 0.79364258 -0.12545043 0.99407184
1.2507812 0.77188474 -0.12448665 0.9941172
1.2538086 0.70994139 -0.12203728 0.99423265
1.2914063 0.70995116 -0.12481712 0.99410158
1.4152539 0.70994139 -0.13410664 0.99366415
1.460791 0.70994139 -0.13756351 0.99350125
1.5087206 0.70995116 -0.14122628 0.99332881
1.5592871 0.70994139 -0.14511287 0.99314588
1.7293164 0.70995116 -0.15833214 0.99252379
1.9337305 0.70994139 -0.17447391 0.99176484
2.0233593 0.7141211 -0.18173438 0.99142355
5.6517673 1.758164 -0.50131983 0.97651958
5.7139649 1.5438769 -0.50131589 0.97651982
5.750947 1.3997949 -0.50131357 0.97651988
5.7842674 1.2548339 -0.50131142 0.97652
5.7995896 1.1820409 -0.50131047 0.97652
5.8399801 0.96259761 -0.50130802 0.97652018
5.8516212 0.88915038 -0.50130731 0.97652012
5.8623242 0.81554687 -0.50130665 0.97652018
5.8720899 0.7418164 -0.50130612 0.97652024
5.8809667 0.66796875 -0.50130558 0.97652018
5.8888669 0.59400392 -0.5013051 0.9765203
5.8958592 0.51996094 -0.50130475 0.9765203
5.9112597 0.2973828 -0.50130391 0.97652036
5.9145312 0.2230664 -0.50130379 0.9765203
5.9182811 0.074355468 -0.50130367 0.9765203
5.9168649 -0.14873047 -0.50130403 0.97652036
5.9145508 -0.22307616 -0.50130427 0.97652024
5.9112692 -0.29739258 -0.50130457 0.9765203
5.8888669 -0.59402341 -0.50130641 0.97652024
5.8720994 -0.74182618 -0.50130767 0.97652018
5.8623242 -0.81555665 -0.50130838 0.97652012
5.8274803 -1.0359277 -0.501311 0.97651994
5.8140039 -1.109082 -0.50131196 0.97651988
5.7140136 -1.543916 -0.50131917 0.97651958
5.6941795 -1.6155859 -0.50132054 0.97651953
5.6734376 -1.6870117 -0.50132203 0.97651953
5.6518064 -1.7581934 -0.50132352 0.97651941
2.0233788 -0.65744138 -0.18019474 0.99149585
2.0233495 -0.71413082 -0.18173443 0.99142355
1.6127148 -0.70995116 -0.14924309 0.99295145
1.4607812 -0.70995116 -0.13756309 0.99350131
1.4152637 -0.70994139 -0.13410632 0.99366409
1.3719629 -0.70995116 -0.13083911 0.99381799
1.2511327 -0.72935545 -0.12265934 0.99420333
1.2507812 -0.77189451 -0.12448673 0.9941172
1.2501562 -0.83819336 -0.12748313 0.99397606
1.2493457 -0.93191403 -0.13201198 0.99376267
4.6546583 -3.6575975 -0.50139248 0.97651619
4.5135937 -3.8305175 -0.50140214 0.97651571
4.465117 -3.8869531 -0.50140542 0.97651559
4.3528223 -3.8863964 -0.49423966 0.97684729
4.2426267 -3.8849218 -0.48723325 0.97717178
3.92958 -3.8805273 -0.46775973 0.97807407
3.8306737 -3.8791308 -0.46175289 0.97835261
3.6402245 -3.8764648 -0.45039913 0.97887915
3.4588182 -3.8738964 -0.43986034 0.97936821
3.2855566 -3.8714647 -0.43007007 0.97982281
3.0401073 -3.8688574 -0.41674668 0.98044175
2.9633789 -3.8703125 -0.41286007 0.98062235
2.8879883 -3.8717089 -0.40910494 0.98079687
2.813916 -3.8730273 -0.40547553 0.98096561
2.741123 -3.8743064 -0.40197089 0.98112857
2.57041 -3.9399803 -0.39844283 0.98129261
2.5207129 -3.971992 -0.39844623 0.98129249
2.3737304 -4.0719333 -0.39920551 0.98125714
2.2144725 -4.1508203 -0.39846697 0.98129147
2.162168 -4.17834 -0.39847052 0.98129135
2.0565038 -4.2314453 -0.39847761 0.981291
1.8956054 -4.3060546 -0.39848852 0.98129052
1.6769238 -4.3960252 -0.3985033 0.9812898
1.3976367 -4.4928513 -0.39852214 0.98128897
1.3410938 -4.5101171 -0.39852595 0.98128873
1.2843359 -4.52667 -0.39852977 0.98128849
1.2273339 -4.5424705 -0.39853361 0.98128843
1.112832 -4.5719628 -0.39854133 0.98128808
0.93977535 -4.6108007 -0.39855301 0.98128748
0.82360351 -4.6330466 -0.39856082 0.98128718
0.64840817 -4.6609278 -0.39857259 0.98128664
0.53112304 -4.6758595 -0.39858046 0.98128623
0.29551756 -4.696826 -0.39859635 0.98128545
0.11827148 -4.7047753 -0.39860824 0.98128492
0.05915039 -4.7059178 -0.3986122 0.9812848
9.7656248e-06 -4.7063279 -0.39861616 0.98128462
-0.059130859 -4.7060056 -0.39862013 0.98128444
-0.11828125 -4.7049413 -0.39862409 0.98128426
-0.17737304 -4.7031446 -0.39862809 0.98128402
-0.2364746 -4.7005954 -0.39863205 0.98128378
-0.29550782 -4.6972752 -0.39863601 0.98128372
-0.35453123 -4.6932616 -0.39863998 0.98128343
-0.41347656 -4.6884665 -0.39864391 0.98128331
-0.47236326 -4.6829591 -0.39864784 0.98128307
-0.45848632 -4.0367088 -0.34409857 0.98382342
-0.50417966 -3.9909863 -0.34071553 0.98398125
-0.55402344 -3.9824121 -0.34054974 0.98398894
-0.60945308 -4.0107813 -0.34360352 0.98384649
-0.76551753 -4.6442676 -0.39866748 0.98128223
-0.88200194 -4.6236525 -0.39867526 0.98128188
-1.0556641 -4.587256 -0.39868689 0.98128134
-1.1706347 -4.5593848 -0.39869457 0.98128092
-1.284873 -4.5286131 -0.39870223 0.98128057
-1.3983105 -4.4949803 -0.39870977 0.98128021
-1.4546875 -4.4770899 -0.39871356 0.98128009
-1.5667676 -4.4392185 -0.39872104 0.98127967
-1.6224316 -4.419209 -0.39872473 0.98127955
-1.6778711 -4.3985157 -0.39872843 0.98127931
-1.7330176 -4.3771091 -0.39873213 0.98127925
-1.7879101 -4.3550391 -0.39873579 0.98127902
-1.8425195 -4.3322654 -0.39873943 0.98127884
-1.8968261 -4.3088083 -0.39874306 0.98127866
-1.9555762 -4.0237794 -0.37892288 0.98220092
-1.9941796 -3.9753222 -0.37669012 0.98230487
-2.2160938 -4.1538963 -0.39876428 0.98127776
-2.2681348 -4.1257715 -0.39876777 0.98127759
-2.3711524 -4.0675387 -0.39877462 0.98127723
-2.4221191 -4.0374513 -0.39877799 0.98127705
-2.4726562 -4.0067477 -0.39878136 0.98127687
-2.5228319 -3.9753711 -0.3987847 0.98127681
-2.5726073 -3.9433982 -0.39878803 0.98127663
-2.7675977 -3.8092773 -0.39880097 0.98127598
-2.8326855 -3.7976172 -0.40127373 0.981161
-2.905117 -3.7942381 -0.40474552 0.98099959
-3.1300488 -3.7835643 -0.4159044 0.98048085
-3.2085545 -3.7807128 -0.41998944 0.98029101
-3.2900684 -3.7794824 -0.42441213 0.98008561
-3.373369 -3.7782226 -0.42899722 0.97987264
-3.8191698 -3.7714844 -0.45461512 0.97868359
-3.9149022 -3.7700489 -0.46033627 0.97841829
-1.0208789 -0.88869137 -0.11463886 0.99458134
-1.0211231 -0.86660153 -0.1134338 0.99463809
-1.0213574 -0.8449316 -0.11227115 0.99469298
-1.021582 -0.82373047 -0.11114883 0.99474579
-1.022002 -0.78250974 -0.10902046 0.99484622
-1.0222168 -0.76248044 -0.10801116 0.99489373
-1.0225781 -0.72350585 -0.10609627 0.99498409
-1.058916 -0.70995116 -0.10797901 0.99489528
-1.0882422 -0.70995116 -0.11005051 0.99479759
-1.1187109 -0.70995116 -0.11222076 0.99469525
-1.1504004 -0.70995116 -0.11449715 0.99458802
-1.2178808 -0.70996094 -0.11939678 0.99435693
-1.2538086 -0.70996094 -0.12203693 0.99423259
-1.3307421 -0.70995116 -0.12774715 0.9939636
-1.3719531 -0.70994139 -0.13083923 0.99381804
-1.5087206 -0.70995116 -0.14122596 0.99332881
-1.5593066 -0.70996094 -0.14511257 0.99314576
-1.7293066 -0.70995116 -0.15833187 0.99252385
-1.7975194 -0.71168941 -0.16374329 0.99226922
-5.6142969 -1.9025292 -0.50207978 0.97648442
-5.6603808 -1.7608496 -0.50208277 0.97648424
-5.722754 -1.5462793 -0.50208664 0.97648412
-5.7598243 -1.4019824 -0.50208902 0.97648406
-5.7770214 -1.3295019 -0.5020901 0.97648388
-5.7932911 -1.2567968 -0.50209111 0.97648382
-5.8086329 -1.1839062 -0.50209206 0.97648382
-5.8230567 -1.1108007 -0.50209296 0.97648376
-5.8715429 -0.81683594 -0.50209588 0.97648364
-5.8813376 -0.74298829 -0.50209647 0.9764837
-5.8902345 -0.66903317 -0.50209701 0.97648358
-5.8981934 -0.5949707 -0.50209743 0.97648352
-5.9051852 -0.52078122 -0.50209785 0.97648358
-5.9112792 -0.4465625 -0.50209814 0.97648352
-5.9206347 -0.29786131 -0.50209862 0.97648352
-5.9239063 -0.22342773 -0.50209874 0.97648352
-5.7388768 -9.7656248e-06 -0.5020861 0.9772203
-5.7384276 0.072099611 -0.50208604 0.97722024
-5.7370605 0.14421874 -0.5020858 0.9772203
-5.7347946 0.21628906 -0.50208563 0.9772203
-5.7316012 0.2883496 -0.50208533 0.97722036
-5.722568 0.43229491 -0.50208455 0.9772203
-5.7098632 0.575957 -0.50208354 0.97722042
-5.702168 0.64765626 -0.50208294 0.97722048
-5.6935644 0.71925777 -0.50208229 0.97722054
-5.6736817 0.86210936 -0.50208086 0.97722054
-5.6623926 0.93333983 -0.50207996 0.97722059
-5.6371484 1.075332 -0.50207818 0.97722059
-5.6231542 1.146084 -0.5020771 0.97722071
-5.6083102 1.2166601 -0.50207609 0.97722071
-5.5584278 1.4271581 -0.50207245 0.97722089
-5.5400391 1.4968847 -0.5020712 0.97722095
-5.5207715 1.5663769 -0.50206983 0.97722107
-5.5006442 1.635625 -0.5020684 0.97722107
-5.4796481 1.7046191 -0.50206691 0.97722113
-5.4577732 1.7733301 -0.50206536 0.97722119
-5.435029 1.8417675 -0.50206375 0.97722131
-1.7982714 0.68596679 -0.16838475 0.9923017
-1.7293164 0.70993161 -0.16354908 0.99252206
-1.6692871 0.70994139 -0.1587038 0.99274284
-1.5087304 0.70993161 -0.14587978 0.9933272
-1.4607714 0.70995116 -0.14209655 0.99349976
-1.2913867 0.70994139 -0.12892997 0.99410027
-1.2537988 0.70995116 -0.12605858 0.99423128
-1.2178613 0.70995116 -0.12333126 0.99435568
-1.1834277 0.70996094 -0.1207381 0.99447405
-1.1504102 0.70994139 -0.1182703 0.99458671
-1.0306739 0.70995116 -0.10949394 0.99498737
-1.0215234 0.76196289 -0.11149475 0.99489599
-1.021084 0.8023535 -0.11361431 0.99479932
-1.0206152 0.84434569 -0.11588898 0.99469548
-1.0201563 0.88804686 -0.11833114 0.9945839
-1.0198926 0.91060543 -0.11961933 0.99452513
-1.0196191 0.93365234 -0.12095489 0.99446422
-4.1825485 3.9276757 -0.5019775 0.97722518
-4.1328321 3.9799023 -0.50197411 0.9772253
-3.8746386 4.2313867 -0.50195652 0.9772262
-3.8211424 4.2797165 -0.50195283 0.97722632
-3.7670312 4.327373 -0.50194919 0.97722644
-3.6570408 4.4206052 -0.50194168 0.97722679
-3.6011717 4.4661717 -0.50193787 0.97722697
-3.5447557 4.511035 -0.50193405 0.97722709
-3.4301953 4.5986328 -0.5019263 0.97722745
-3.3135059 4.683291 -0.50191838 0.97722787
-3.2543652 4.7245212 -0.50191438 0.97722805
-3.194746 4.7650099 -0.50191033 0.97722811
-3.0127733 4.8819041 -0.50189793 0.97722882
-2.7635937 5.0269532 -0.50188106 0.97722948
-2.6363573 5.0947266 -0.50187248 0.97722989
-2.5720994 5.1274023 -0.50186813 0.97723013
-2.442373 5.1903415 -0.50185937 0.97723049
-2.3111424 5.2499804 -0.50185049 0.97723091
-2.2449706 5.2785645 -0.50184602 0.97723109
-2.0443652 5.3592772 -0.50183243 0.97723168
-1.7724512 5.455029 -0.50181413 0.97723252
-1.7037597 5.4768162 -0.50180948 0.97723269
-1.6347656 5.4977441 -0.50180483 0.97723293
-1.4263574 5.5553026 -0.50179076 0.97723353
