# .PCD v0.7 - Point Cloud Data file format
VERSION 0.7
FIELDS x y z intensity
SIZE 4 4 4 4
TYPE F F F F
COUNT 1 1 1 1
WIDTH 1084
HEIGHT 1
VIEWPOINT 0 0 0 1 0 0 0
POINTS 1084
DATA ascii
-1.0269531 -0.87156248 -0.084068224 0.99461627
-1.0277538 -0.76662105 -0.080027543 0.99487448
-1.0279199 -0.74682617 -0.079301678 0.99492073
-1.0280468 -0.727373 -0.078601263 0.99496555
-1.1186913 -0.70996094 -0.082696185 0.99470395
-1.1503906 -0.70996094 -0.084373586 0.99459684
-1.1834277 -0.70996094 -0.086134069 0.99448431
-1.2537891 -0.70996094 -0.089929849 0.99424207
-1.2913965 -0.70996094 -0.091978453 0.99411118
-1.3307323 -0.70994139 -0.094137341 0.99397343
-1.3719921 -0.70994139 -0.096416011 0.99382794
-1.5087109 -0.70995116 -0.10407002 0.99333966
-1.6127148 -0.70994139 -0.10997814 0.9929629
-1.6692969 -0.70995116 -0.11321914 0.99275625
-1.7903028 -0.65728515 -0.11903324 0.99238569
-7.5494432 -2.6645117 -0.49967813 0.96842355
-7.5822067 -2.5693848 -0.4996697 0.96842408
-7.7535348 -1.9907812 -0.49962556 0.96842676
-7.7778125 -1.8931543 -0.49961928 0.96842724
-7.8009176 -1.7952539 -0.49961334 0.96842754
-7.8227539 -1.6970702 -0.49960768 0.96842796
-7.8434081 -1.598623 -0.49960235 0.96842819
-7.8978319 -1.3018163 -0.49958819 0.96842921
-7.9279294 -1.1029102 -0.49958032 0.96842968
-7.9411035 -1.0032032 -0.49957687 0.96842992
-7.9882321 -0.50257814 -0.49956435 0.96843064
-7.9938965 -0.4021582 -0.49956283 0.9684307
-7.9983301 -0.30167967 -0.49956161 0.9684307
-8.0014553 -0.2011328 -0.49956068 0.96843082
-7.6637888 -0 -0.49964625 0.96974683
-7.6487303 0.48120117 -0.49964958 0.96974659
-7.6420994 0.57729489 -0.49965113 0.96974653
-7.6342673 0.67328125 -0.49965304 0.96974641
-7.5909472 1.0560254 -0.49966362 0.96974581
-7.545918 1.341416 -0.49967474 0.96974516
-7.4692774 1.7189355 -0.49969381 0.96974403
-7.4471774 1.8126757 -0.49969935 0.96974367
-7.4239058 1.906123 -0.49970517 0.96974325
-7.3994727 1.9992968 -0.49971125 0.96974283
-7.3470507 2.1846678 -0.49972439 0.96974218
-7.2900782 2.3686719 -0.49973869 0.96974123
-7.2598047 2.4601269 -0.49974626 0.96974093
-7.2284374 2.5511913 -0.49975413 0.96974045
-1.7912011 0.65759766 -0.12439842 0.99238056
-1.7912793 0.68328124 -0.12499157 0.9923445
-1.7913672 0.70923829 -0.1256105 0.99230677
-1.7293066 0.70993161 -0.12187481 0.9925347
-1.6127148 0.70995116 -0.11487911 0.99296165
-1.5087206 0.70994139 -0.10870773 0.99333847
-1.4152637 0.70995116 -0.10322738 0.99367326
-1.3307421 0.70995116 -0.098332629 0.9939723
-1.1503906 0.70995116 -0.088133469 0.99459589
-1.1186913 0.70994139 -0.086381264 0.99470305
-1.0272266 0.74630857 -0.08278019 0.99492329
-1.0270507 0.76612306 -0.08353737 0.99487704
-1.0269042 0.78626949 -0.084321819 0.99482906
-1.0267383 0.8068164 -0.085134469 0.99477935
-1.0265918 0.8277539 -0.085976258 0.99472779
-1.0262305 0.87092769 -0.087752305 0.99461919
-1.0260254 0.89318359 -0.08868923 0.99456197
-1.0258594 0.91591793 -0.089660376 0.99450254
-5.5924902 5.2516794 -0.50016683 0.96971583
-5.3222656 5.5267968 -0.5002352 0.96971178
-5.2525973 5.5934277 -0.50025284 0.96971071
-5.1820898 5.6591992 -0.50027066 0.96970958
-5.1107421 5.724082 -0.50028872 0.9697085
-5.0385938 5.7880564 -0.50030702 0.96970743
-4.8919044 5.913281 -0.5003441 0.96970528
-4.8173923 5.9745407 -0.50036293 0.96970409
-4.7421188 6.0348144 -0.50038201 0.96970296
-4.511826 6.20999 -0.50044036 0.9696995
-4.2750878 6.3763962 -0.50050032 0.96969587
-4.1947656 6.4298825 -0.50052065 0.96969467
-3.9499414 6.5842185 -0.5005827 0.96969104
-3.7835643 6.681963 -0.50062484 0.96968848
-3.6994336 6.7292576 -0.50064617 0.96968728
-3.6147559 6.7755175 -0.50066763 0.96968591
-3.5294628 6.8206835 -0.50068921 0.96968472
-3.4436328 6.8648047 -0.50071102 0.96968335
-3.3572557 6.9078512 -0.5007329 0.96968198
-3.2703221 6.9498043 -0.50075495 0.96968067
-3.1828809 6.9906344 -0.50077713 0.96967942
-3.0064549 7.0690722 -0.50082183 0.96967667
-2.9175293 7.1065917 -0.50084442 0.96967542
-2.7382812 7.1783199 -0.50088984 0.96967268
-2.6479785 7.2124996 -0.50091279 0.96967131
-2.557246 7.2455173 -0.50093579 0.96967
-2.190371 7.36624 -0.50102884 0.96966439
-2.0047557 7.4196386 -0.50107598 0.96966165
-1.9114355 7.4446092 -0.50109959 0.96966022
-1.817832 7.4683981 -0.50112337 0.96965873
-1.7239355 7.4910059 -0.50114721 0.9696573
-1.5352832 7.5326757 -0.50119507 0.9696545
-1.4405762 7.5517282 -0.50121915 0.96965313
-1.2504687 7.5862985 -0.50126737 0.96965015
-1.1550878 7.6017675 -0.50129163 0.96964872
-1.0595214 7.6160641 -0.50131589 0.96964723
-0.95627928 7.5697265 -0.49743646 0.96987861
-0.61704099 6.9965429 -0.45791546 0.97223818
-0.5191797 6.8729 -0.44936034 0.97274971
-0.42490232 6.7537694 -0.44118801 0.97323865
-0.24644531 6.5344043 -0.42631766 0.97412884
-0.16175781 6.4347067 -0.41964847 0.97452837
0.077343747 6.1557713 -0.40136206 0.97562468
0.23033203 6.1067677 -0.39841789 0.97580129
0.46039063 6.0943847 -0.3984603 0.97579879
0.61344725 6.0814061 -0.39849383 0.97579676
0.68984371 6.0736032 -0.39851895 0.97579521
0.84238279 6.0551071 -0.39856923 0.97579223
0.99440426 6.0328026 -0.39861959 0.97578913
1.0702149 6.020195 -0.39864478 0.9757877
1.2212988 5.9921775 -0.3986952 0.9757846
1.2965918 5.9767184 -0.39872041 0.97578317
1.3716797 5.9603219 -0.39874566 0.97578168
1.6698437 5.8853707 -0.39884639 0.9757756
1.7437598 5.8642969 -0.39887154 0.97577405
1.8908203 5.8193555 -0.3989217 0.97577107
2.0367284 5.7707324 -0.39897174 0.97576803
2.4663768 5.6025977 -0.39909133 0.97576082
2.6066113 5.5393457 -0.39912772 0.97575873
2.6761425 5.5064063 -0.39914587 0.9757576
2.8139257 5.4378905 -0.39918193 0.97575551
3.0173047 5.328701 -0.39923549 0.97575217
3.1505468 5.2516699 -0.3992708 0.97575003
3.2818065 5.1712694 -0.39930579 0.975748
3.4110155 5.0876169 -0.39934042 0.97574592
3.5380957 5.0007129 -0.39937475 0.97574389
3.6629686 4.9106641 -0.39940977 0.97574174
3.7855272 4.8174806 -0.39944434 0.97573966
3.9057617 4.721211 -0.39947844 0.97573763
3.9649315 4.6719627 -0.3994953 0.97573662
4.0234766 4.621953 -0.39951208 0.97573572
4.0814061 4.5712204 -0.39952868 0.97573471
4.1953712 4.4675879 -0.39956155 0.97573262
4.3066406 4.361084 -0.39959267 0.97573078
4.3612499 4.3067675 -0.39960662 0.97573
4.6719627 4.1713476 -0.40833181 0.97520661
4.7855954 4.1658983 -0.41365397 0.97488755
4.9021678 4.1602635 -0.41917884 0.97455651
5.0218749 4.1544628 -0.42491674 0.97421265
5.1448827 4.1484275 -0.43087989 0.97385561
5.2713671 4.1421876 -0.4370788 0.97348452
5.4015036 4.1357322 -0.44352388 0.97309875
1.2552344 0.93628901 -0.10209388 0.99374253
1.2554004 0.91210938 -0.10116855 0.99379909
1.2556055 0.88834959 -0.10027508 0.99385357
1.2565234 0.75380856 -0.095530815 0.99414361
1.2566503 0.7325781 -0.094833829 0.99418622
1.2567968 0.71163082 -0.094161451 0.99422735
1.2913965 0.70994139 -0.096077003 0.99411017
1.3307421 0.70996094 -0.098332517 0.9939723
1.3719823 0.70994139 -0.10071255 0.99382687
1.5087206 0.70995116 -0.10870781 0.99333847
1.5592968 0.70994139 -0.11169972 0.99315578
1.7931249 0.70994139 -0.12573341 0.9922992
2.0238671 0.65757811 -0.13873763 0.99150616
7.4293261 2.1078906 -0.50347817 0.96951836
7.5037594 1.8264452 -0.50349736 0.96951729
7.5262303 1.732041 -0.5035032 0.96951687
7.5474901 1.637334 -0.50350869 0.96951652
7.5675292 1.5423731 -0.50351387 0.96951628
7.6040525 1.3517382 -0.50352341 0.96951568
7.649785 1.0642188 -0.50353527 0.96951491
7.6742086 0.8716504 -0.50354171 0.96951455
7.6845798 0.77514648 -0.50354445 0.96951443
7.6937594 0.67852539 -0.50354689 0.96951425
7.7017188 0.58178711 -0.50354904 0.96951413
7.708457 0.48496091 -0.50355083 0.96951401
7.7212987 0.19408202 -0.5035544 0.96951383
7.7231345 0.097050779 -0.503555 0.96951377
7.7139645 -0.38806641 -0.50355315 0.96951389
7.7084665 -0.48498046 -0.50355184 0.96951395
7.7017574 -0.5818066 -0.50355023 0.96951395
7.6846189 -0.77515626 -0.50354612 0.96951431
7.6626368 -0.96801758 -0.50354069 0.96951461
7.6357908 -1.1602637 -0.50353414 0.96951497
7.6205468 -1.2561328 -0.50353032 0.9695152
7.5864258 -1.4471972 -0.50352186 0.9695158
7.5475583 -1.6373534 -0.5035122 0.96951622
7.526279 -1.7320606 -0.5035069 0.96951663
7.4293847 -2.1079102 -0.5034827 0.96951813
7.4022264 -2.2010741 -0.5034759 0.96951848
2.0238574 -0.71431637 -0.13992347 0.9914338
1.9337597 -0.70996094 -0.13430053 0.99177665
1.8611132 -0.70996094 -0.12986568 0.99204713
1.7931347 -0.70996094 -0.12573379 0.99229914
1.7293164 -0.70995116 -0.1218753 0.99253464
1.6692871 -0.70995116 -0.11826442 0.992755
1.6127245 -0.70994139 -0.11487953 0.99296165
1.5087304 -0.70994139 -0.10870811 0.99333847
1.460791 -0.70995116 -0.10588893 0.99351066
1.4152832 -0.70995116 -0.10322788 0.99367321
1.3719727 -0.70995116 -0.100713 0.99382693
1.3307617 -0.70995116 -0.098332822 0.99397224
1.2913867 -0.70995116 -0.096077614 0.99411023
1.2565234 -0.75380856 -0.095530584 0.99414361
1.25625 -0.79722655 -0.097001456 0.99405366
1.256084 -0.81944335 -0.097776942 0.99400634
1.2559375 -0.84204102 -0.098580472 0.99395716
1.2555859 -0.88833982 -0.10027508 0.99385363
1.2552246 -0.93629879 -0.10209343 0.99374253
4.9697556 -3.9051952 -0.41207013 0.9749825
4.8463378 -3.9077148 -0.40587807 0.97535384
4.7265429 -3.9101171 -0.39992759 0.97571069
4.6742969 -3.9669042 -0.39969498 0.9757247
4.5210643 -4.139873 -0.39965621 0.97572684
4.4685154 -4.1962109 -0.39964294 0.97572774
4.3613768 -4.3068848 -0.39961585 0.97572929
4.3067479 -4.3612013 -0.399602 0.97573018
4.2514548 -4.414824 -0.39958802 0.97573102
4.195488 -4.4677343 -0.39957386 0.97573191
4.0815916 -4.5714355 -0.39954501 0.97573358
4.0236816 -4.6221776 -0.39953035 0.97573453
3.9651365 -4.6722264 -0.39951557 0.97573531
3.7858007 -4.8177829 -0.39947012 0.97573811
3.7248046 -4.8648047 -0.39945471 0.975739
2.6638963 -4.0832615 -0.31785372 0.98064679
2.6201465 -4.1286912 -0.3188014 0.98058969
2.6205664 -4.3682227 -0.33210674 0.97978783
3.0844629 -5.2911229 -0.39929253 0.97574878
3.0175879 -5.3292379 -0.39927554 0.97574979
2.9502733 -5.3664942 -0.39925849 0.97575086
2.8824706 -5.4029393 -0.39924133 0.97575182
2.4666405 -5.6032324 -0.39913589 0.97575814
2.3959472 -5.6335154 -0.39911795 0.97575927
2.3248436 -5.6629395 -0.39909992 0.97576028
2.2533984 -5.6914353 -0.3990818 0.97576141
1.8177929 -5.8433981 -0.39897132 0.97576803
1.7441113 -5.8654981 -0.39895263 0.97576916
1.5960253 -5.9069333 -0.39891505 0.97577137
1.2969824 -5.9785056 -0.39883915 0.97577596
1.1462207 -6.0086522 -0.39880088 0.97577822
0.61372072 -6.0840235 -0.3986657 0.97578645
0.46057615 -6.0969434 -0.3986268 0.97578871
0.3071875 -6.1060057 -0.39858785 0.97579104
0.15362304 -6.1112008 -0.39854884 0.97579336
0.076806642 -6.1123338 -0.39852935 0.97579461
-0.076806642 -6.1117382 -0.39849028 0.97579694
-0.23035155 -6.1072946 -0.3984513 0.9757992
-0.38373047 -6.0989842 -0.39841232 0.97580153
-0.53681642 -6.0868163 -0.3983734 0.97580385
-0.99348629 -6.0273142 -0.39825737 0.97581089
-1.1445508 -5.9998727 -0.39821896 0.97581315
-1.2948437 -5.9686422 -0.39818072 0.97581547
-0.98710936 -4.0553808 -0.27211341 0.98340857
-1.0262598 -3.9970019 -0.26904023 0.98359442
-1.1350878 -4.0006738 -0.27112058 0.98346853
-1.7402442 -5.8524899 -0.39806747 0.97582227
-1.8865918 -5.8063574 -0.39803022 0.97582453
-1.9593261 -5.7819433 -0.39801174 0.97582555
-2.1755273 -5.7031736 -0.39795673 0.97582901
-2.3179784 -5.6461816 -0.39792049 0.97583115
-2.3886425 -5.6163769 -0.39790249 0.9758321
-2.4589062 -5.5856638 -0.39788458 0.97583324
-2.5287988 -5.5540719 -0.39786682 0.97583431
-2.5982616 -5.5215917 -0.39784911 0.97583544
-2.8719139 -5.3831544 -0.39777946 0.9758395
-2.9391992 -5.3463864 -0.39776233 0.97584063
-2.4883301 -4.0320897 -0.30890289 0.98118663
-2.5851269 -3.9625683 -0.3084586 0.98121351
-3.396533 -5.0660353 -0.39764586 0.97584754
-3.4597654 -5.0227246 -0.39762977 0.97584867
-3.6461914 -4.8881836 -0.39758226 0.97585142
-3.7071972 -4.8417969 -0.39756671 0.97585231
-3.8273828 -4.746738 -0.39753607 0.97585422
-4.0031347 -4.5985937 -0.39749125 0.97585684
-4.0604587 -4.5477633 -0.39747664 0.97585773
-4.1171188 -4.4962206 -0.39746222 0.97585863
-4.1731739 -4.4439745 -0.39744791 0.9758594
-4.2285156 -4.3910251 -0.39743376 0.9758603
-3.9860742 -4.0364943 -0.36984947 0.97751671
-4.443203 -4.1724219 -0.39737904 0.97586358
-1.02583 -0.91594726 -0.089660525 0.99450254
-1.0262402 -0.87091798 -0.087752342 0.99461919
-1.0264159 -0.84913087 -0.086848333 0.99467444
-1.0267578 -0.80682617 -0.085134275 0.99477923
-1.0270605 -0.76613277 -0.083537407 0.99487698
-1.027207 -0.74632812 -0.082780108 0.99492329
-1.0273633 -0.7268945 -0.082049295 0.994968
-1.0306641 -0.70995116 -0.081593893 0.99499583
-1.1186913 -0.70996094 -0.086381875 0.99470299
-1.1503906 -0.70996094 -0.088133886 0.99459589
-1.2178613 -0.70995116 -0.091905251 0.99436522
-1.2537988 -0.70996094 -0.093937717 0.994241
-1.3307323 -0.70995116 -0.098332979 0.99397236
-1.5592968 -0.70995116 -0.11169986 0.99315572
-1.6127148 -0.70994139 -0.11487941 0.99296165
-1.6692969 -0.70995116 -0.11826492 0.992755
-1.7293164 -0.70995116 -0.12187546 0.99253464
-1.7913769 -0.70925778 -0.12561055 0.99230671
-1.7911816 -0.65761715 -0.12439838 0.99238062
-7.2285156 -2.5512402 -0.49975955 0.96974009
-7.259902 -2.4601855 -0.49975145 0.96974051
-7.2901168 -2.368711 -0.49974373 0.96974105
-7.3192086 -2.2768848 -0.49973619 0.9697414
-7.3995018 -1.9993163 -0.49971554 0.96974272
-7.4472461 -1.812705 -0.4997032 0.96974337
-7.4693551 -1.718955 -0.49969748 0.96974367
-7.4902539 -1.6249413 -0.49969205 0.96974415
-7.5285935 -1.4361621 -0.4996821 0.96974462
-7.5459762 -1.3414356 -0.4996776 0.96974492
-7.577168 -1.1513476 -0.49966949 0.96974546
-7.6421094 -0.57729489 -0.49965239 0.96974647
-7.65415 -0.3850781 -0.49964911 0.96974665
-7.6631932 -0.096298829 -0.49964651 0.96974683
-7.346035 0.27706054 -0.49972665 0.97095722
-7.3419824 0.36934569 -0.49972761 0.97095716
-7.3368063 0.46158203 -0.49972883 0.97095698
-7.3304296 0.55374998 -0.49973038 0.97095698
-7.3228903 0.64581054 -0.49973217 0.97095698
-7.3044434 0.82965821 -0.49973667 0.97095662
-7.2813768 1.0129395 -0.49974236 0.97095627
-7.2681251 1.1043946 -0.49974558 0.97095603
-7.2215037 1.3775781 -0.49975714 0.97095537
-7.1847167 1.5586523 -0.49976629 0.97095495
-7.1646385 1.6488086 -0.4997713 0.97095466
-7.1210938 1.8283983 -0.49978217 0.970954
-7.0474024 2.0955565 -0.49980059 0.97095287
-6.9926853 2.2720702 -0.49981433 0.97095215
-6.9335837 2.4471385 -0.49982914 0.97095138
-1.7920409 0.65791017 -0.12977058 0.99237561
-1.7922461 0.70958984 -0.13103569 0.99230158
-1.6693164 0.70993161 -0.12331188 0.99275362
-1.3719629 0.70994139 -0.10501125 0.99382579
-1.3307421 0.70995116 -0.10252949 0.99397123
-1.2913769 0.70995116 -0.10017773 0.99410915
-1.2178515 0.70994139 -0.095827594 0.99436426
-1.1834179 0.70995116 -0.093812786 0.9944824
-1.1503906 0.70995116 -0.091895215 0.99459487
-1.1186913 0.70994139 -0.090068243 0.99470204
-1.0882128 0.70993161 -0.088326186 0.99480432
-1.0589062 0.70994139 -0.08666382 0.99490178
-1.0306543 0.70993161 -0.085076027 0.994995
-1.0266796 0.72639644 -0.08549419 0.99497044
-1.0265235 0.74582028 -0.086255416 0.9949258
-1.0263867 0.76557618 -0.087043762 0.99487948
-1.0260448 0.80625975 -0.088706471 0.99478191
-1.025498 0.87030274 -0.091432452 0.99462205
-1.0253124 0.8925488 -0.092408061 0.99456477
-1.0250976 0.91527343 -0.093419224 0.99450547
-5.3641696 5.0372949 -0.50022507 0.97092873
-5.3006349 5.1044626 -0.50024116 0.97092777
-5.1710253 5.2364159 -0.50027394 0.97092581
-4.9704685 5.4281344 -0.50032467 0.97092301
-4.8328419 5.5517187 -0.50035948 0.97092098
-4.327539 5.9563379 -0.50048745 0.97091365
-4.25249 6.010488 -0.5005064 0.97091258
-3.8674803 6.2668653 -0.50060397 0.97090691
-3.6289647 6.4089451 -0.50066441 0.97090352
-3.548291 6.4543066 -0.50068486 0.97090232
-3.467041 6.4986715 -0.50070542 0.97090107
-3.3852441 6.5419822 -0.50072616 0.97089994
-3.2200487 6.6255565 -0.50076807 0.9708975
-3.1366601 6.6657615 -0.50078923 0.97089636
-3.0527928 6.7049313 -0.50081044 0.97089511
-2.7982812 6.816113 -0.500875 0.97089142
-2.7125194 6.8510351 -0.50089675 0.97089016
-2.3652833 6.9798923 -0.50098485 0.97088516
-2.189326 7.037744 -0.50102943 0.97088265
-2.1008203 7.0650291 -0.5010519 0.97088128
-1.9227831 7.1162305 -0.50109708 0.97087872
-1.6533984 7.184629 -0.50116545 0.97087479
-1.5630859 7.2051659 -0.5011884 0.97087348
-1.1992871 7.2759471 -0.50128073 0.97086817
-1.1078223 7.2907715 -0.50130391 0.97086686
-1.0161718 7.3044529 -0.50132722 0.97086555
-0.9243359 7.3170018 -0.50135052 0.97086418
-0.82446289 7.2586226 -0.49660239 0.97113615
-0.71870118 7.1250196 -0.48680523 0.97169745
-0.61703122 6.9965429 -0.47745982 0.97223318
-0.42492187 6.7537594 -0.46001741 0.97323382
-0.33398438 6.6388669 -0.45187068 0.9737016
-0.24621093 6.5279684 -0.44407603 0.97414929
-0.079472654 6.3239841 -0.42992854 0.97496247
0.22500975 5.965703 -0.40582809 0.97634929
0.29592773 5.8821583 -0.40036583 0.97666383
0.36801758 5.8495507 -0.39842954 0.97677535
0.44152343 5.8448243 -0.3984535 0.97677398
0.51496094 5.83916 -0.39847744 0.97677261
0.73482418 5.8166504 -0.39854965 0.97676843
1.0264062 5.7737889 -0.39864624 0.97676283
1.0989355 5.7607908 -0.39867041 0.97676146
1.1712989 5.7468653 -0.3986946 0.97676009
1.2434961 5.7320409 -0.39871877 0.97675872
1.4589257 5.6821485 -0.39879131 0.97675449
1.7430078 5.6030078 -0.39888778 0.97674894
1.9532909 5.5343456 -0.39895985 0.97674477
2.0228221 5.5096774 -0.39898375 0.97674346
2.1608496 5.4576659 -0.39902392 0.97674108
2.2974999 5.4021192 -0.39905909 0.97673905
2.3653221 5.3730564 -0.39907661 0.97673804
2.4998338 5.3123732 -0.3991116 0.97673607
2.5665038 5.2807908 -0.39912894 0.976735
2.6327636 5.2483301 -0.39914626 0.97673404
2.8290527 5.1460352 -0.39919785 0.97673112
2.8936424 5.1103125 -0.39921489 0.97673005
2.9577539 5.07375 -0.39923185 0.97672915
3.0214159 5.036406 -0.39924875 0.97672808
3.1472752 4.9592967 -0.39928231 0.97672623
3.2711718 4.8790426 -0.39931551 0.97672433
3.3323534 4.8377538 -0.39933199 0.97672337
3.3930371 4.7956834 -0.39934838 0.97672242
3.4531834 4.7528806 -0.39936465 0.97672141
3.5127831 4.7093067 -0.39938113 0.97672045
3.6302929 4.6199121 -0.39941427 0.97671866
3.7455468 4.5275974 -0.39944696 0.97671682
3.8668065 4.4419923 -0.40034246 0.97666514
3.9139941 4.3837109 -0.39949289 0.97671413
3.9689257 4.3343458 -0.3995069 0.97671324
4.5499511 4.1663184 -0.4193787 0.97556925
5.1313376 4.1375098 -0.44808745 0.9739188
5.2610741 4.1340919 -0.45484337 0.97353083
1.2543652 0.93566406 -0.10637894 0.99374563
1.2547559 0.8877539 -0.10448528 0.99385655
1.2549316 0.86442381 -0.10358742 0.99390918
1.2554394 0.79671872 -0.10107647 0.9940564
1.2558789 0.73210937 -0.098819003 0.99418879
1.2560253 0.71119142 -0.098118857 0.99422979
1.2913965 0.70994139 -0.10017795 0.99410909
1.3719823 0.70994139 -0.10501117 0.99382573
1.4152832 0.70995116 -0.10763367 0.99367201
1.4608008 0.70995116 -0.11040805 0.99350941
1.5087206 0.70995116 -0.11334762 0.99333727
1.5592968 0.70994139 -0.11646709 0.99315447
1.6127245 0.70995116 -0.11978252 0.99296033
1.7293066 0.70993161 -0.12707698 0.99253333
1.7931249 0.70993161 -0.13109992 0.99229783
1.8611327 0.70993161 -0.13540836 0.99204564
2.0237987 0.68580079 -0.14525814 0.9914695
2.0238085 0.65755856 -0.14465423 0.99150485
7.1241307 2.0212989 -0.50340074 0.97074676
7.172832 1.8416601 -0.50341332 0.9707461
7.1955075 1.751416 -0.50341916 0.97074568
7.2170215 1.6608593 -0.50342476 0.97074544
7.2373924 1.5700781 -0.50343001 0.97074515
7.2566209 1.4789941 -0.50343496 0.97074485
7.2746778 1.3877245 -0.50343966 0.97074467
7.2916112 1.2962011 -0.50344408 0.97074443
7.3354883 1.0204883 -0.50345552 0.9707436
7.3688378 0.74330074 -0.50346428 0.97074324
7.3852735 0.55789059 -0.50346863 0.97074288
7.3917184 0.46503904 -0.50347036 0.97074282
7.4011035 0.27913085 -0.50347298 0.9707427
7.4058008 0.093076169 -0.50347435 0.97074264
7.4058204 -0.093076169 -0.50347459 0.97074252
7.4040527 -0.1861328 -0.50347418 0.97074258
7.3970017 -0.3721289 -0.50347263 0.9707427
7.391748 -0.46506834 -0.50347137 0.9707427
7.385283 -0.55791014 -0.50346982 0.97074282
7.377666 -0.65065426 -0.50346798 0.97074294
7.3688669 -0.74332029 -0.50346589 0.97074312
7.3589258 -0.83584958 -0.50346345 0.97074318
7.3478222 -0.92825192 -0.50346071 0.97074324
7.3355174 -1.0205078 -0.50345773 0.97074348
7.3074317 -1.2045019 -0.50345075 0.97074395
7.2170606 -1.6608984 -0.50342828 0.97074527
7.1955857 -1.7514355 -0.50342292 0.97074538
7.1729002 -1.8416895 -0.50341725 0.9707458
7.1491113 -1.9316504 -0.50341129 0.97074616
7.1241698 -2.021328 -0.50340503 0.97074658
7.098115 -2.1106544 -0.50339854 0.97074693
2.0237889 -0.68580079 -0.14525829 0.99146956
2.0237792 -0.7142871 -0.14589065 0.99143255
1.8611132 -0.70996094 -0.13540836 0.9920457
1.7931347 -0.70996094 -0.13110024 0.99229771
1.7293164 -0.70996094 -0.12707679 0.99253327
1.5592871 -0.70996094 -0.11646744 0.99315447
1.5087304 -0.70994139 -0.11334785 0.99333721
1.460791 -0.70995116 -0.11040836 0.99350947
1.3719727 -0.70995116 -0.10501163 0.99382579
1.3307617 -0.70995116 -0.10252998 0.99397111
1.2558692 -0.73209959 -0.098819084 0.99418885
1.2557324 -0.75332028 -0.099544831 0.99414623
1.2554394 -0.79670894 -0.10107647 0.9940564
1.2550976 -0.84148437 -0.10272075 0.99396002
1.2549218 -0.86443359 -0.10358764 0.99390924
1.2545507 -0.91149414 -0.10541531 0.99380213
4.9635644 -3.9003124 -0.42912287 0.97500873
4.8352537 -3.8987596 -0.42223197 0.97540504
4.7137594 -3.8995605 -0.41587061 0.97577113
4.4850974 -3.9043553 -0.40422839 0.97644132
4.3851271 -3.9152734 -0.39962146 0.97670662
4.3354297 -3.9699316 -0.39960891 0.97670746
4.2340622 -4.077373 -0.39958328 0.97670877
4.0232911 -4.2843847 -0.39952993 0.97671193
3.9140918 -4.3838377 -0.39950228 0.97671348
3.8585644 -4.4325099 -0.39948821 0.97671431
3.8024218 -4.4804978 -0.39947402 0.97671515
3.6304686 -4.6201172 -0.39943048 0.97671759
3.5719824 -4.665195 -0.39941564 0.97671849
3.5129297 -4.7095408 -0.39940074 0.97671938
2.8995214 -4.0981836 -0.34126407 0.98007411
2.8246679 -4.1007228 -0.3384921 0.98023427
2.7485743 -4.0995603 -0.33551863 0.98040617
2.6361914 -4.2717185 -0.34122771 0.98007613
2.9579589 -5.0741305 -0.39926013 0.97672743
2.6329784 -5.2487497 -0.39917776 0.97673225
2.5000293 -5.3128223 -0.39914405 0.97673416
2.4329686 -5.3435936 -0.39912704 0.97673512
2.3655176 -5.3735056 -0.39910996 0.97673613
2.1610351 -5.4581442 -0.3990581 0.97673905
2.0230079 -5.5102344 -0.39902309 0.97674114
1.9535059 -5.5349803 -0.39900547 0.97674215
1.8837206 -5.5588574 -0.39898777 0.9767431
1.7432715 -5.6039257 -0.39895213 0.97674525
1.3158398 -5.7177634 -0.39884368 0.97675145
1.2438378 -5.7335935 -0.39882538 0.97675246
0.88117188 -5.7990332 -0.39873332 0.97675782
0.80819333 -5.8093848 -0.39871478 0.97675884
0.73508787 -5.8188086 -0.39869624 0.97675991
0.51517576 -5.8415623 -0.39864039 0.97676313
0.44171873 -5.8473043 -0.39862174 0.9767642
0.22099608 -5.8589649 -0.39856568 0.97676748
0.14734374 -5.8610058 -0.39854696 0.97676855
0.073691405 -5.8621287 -0.39852825 0.97676957
9.7656248e-06 -5.8623047 -0.39850956 0.9767707
-0.14731444 -5.8598924 -0.39847213 0.9767729
-0.51485348 -5.8377342 -0.39837876 0.97677821
-0.58812499 -5.8305273 -0.39836013 0.97677928
-0.66131836 -5.822402 -0.39834151 0.97678035
-0.73438478 -5.8133492 -0.39832294 0.97678149
-0.8073535 -5.8033981 -0.3983044 0.9767825
-0.88017577 -5.7925196 -0.3982859 0.97678363
-1.3136327 -5.7081933 -0.39817566 0.97678995
-1.0262598 -3.9970117 -0.28052315 0.98359138
-1.076084 -3.9826171 -0.28043881 0.98359621
-1.669082 -5.6131639 -0.39808527 0.9767952
-1.739414 -5.5914941 -0.39806738 0.97679621
-1.8094531 -5.5689549 -0.39804956 0.97679722
-1.8792089 -5.5455275 -0.39803183 0.97679824
-1.9486523 -5.5212207 -0.39801419 0.97679931
-2.0866113 -5.4700389 -0.39797908 0.97680122
-2.1550879 -5.4431348 -0.39796165 0.97680229
-2.223213 -5.4153905 -0.3979443 0.9768033
-2.2910058 -5.386797 -0.39792705 0.97680426
-2.3583984 -5.3573532 -0.39790991 0.97680527
-2.4254296 -5.3270602 -0.39789283 0.97680628
-2.49208 -5.2959375 -0.39787591 0.97680724
-2.5583105 -5.2639842 -0.39785904 0.97680819
-2.6241503 -5.2312012 -0.39784226 0.97680914
-2.6895702 -5.1975975 -0.39782557 0.9768101
-2.75458 -5.1631837 -0.39780906 0.97681099
-2.8191113 -5.1279197 -0.39779261 0.97681206
-2.8831933 -5.0918946 -0.39777628 0.97681296
-2.4883399 -4.0320802 -0.32208794 0.98118317
-2.5851367 -3.9625585 -0.32162181 0.98121005
-3.3184569 -4.8175778 -0.39766544 0.97681934
-3.378623 -4.7753124 -0.39765009 0.97682017
-3.4382031 -4.7323046 -0.39763492 0.97682112
-3.5557714 -4.6440525 -0.39760497 0.97682285
-3.6137207 -4.5988379 -0.39759016 0.97682369
-3.6710742 -4.5528903 -0.39757556 0.97682458
-3.7278709 -4.5062304 -0.3975611 0.97682536
-3.8396678 -4.41082 -0.39753261 0.97682697
-4.0027537 -4.2625098 -0.39749098 0.97682941
-3.986084 -4.0364943 -0.38563609 0.9775126
-1.0249121 -0.93849605 -0.094467469 0.99444395
-1.0253124 -0.89255857 -0.092408061 0.99456471
-1.025498 -0.87031245 -0.091432571 0.99462199
-1.0256933 -0.84852535 -0.090491332 0.99467719
-1.0258691 -0.82718748 -0.089583315 0.99473047
-1.0260156 -0.80625975 -0.088706508 0.99478203
-1.0262109 -0.78574216 -0.08786045 0.99483156
-1.0263672 -0.76560545 -0.087043643 0.99487948
-1.0266796 -0.72639644 -0.08549431 0.99497044
-1.0306445 -0.70995116 -0.085076332 0.994995
-1.0882226 -0.70995116 -0.088326566 0.9948042
-1.1834375 -0.70996094 -0.093813285 0.99448228
-1.2178711 -0.70995116 -0.095828131 0.99436414
-1.2537988 -0.70996094 -0.097947121 0.99423993
-1.415293 -0.70994139 -0.10763397 0.99367201
-1.4607812 -0.70994139 -0.11040828 0.99350953
-1.5087109 -0.70995116 -0.11334812 0.99333727
-1.5592968 -0.70996094 -0.11646748 0.99315447
-1.6127148 -0.70994139 -0.11978283 0.99296039
-1.6692969 -0.70996094 -0.12331261 0.99275362
-1.7293164 -0.70995116 -0.12707718 0.99253327
-1.7922559 -0.70960933 -0.1310358 0.99230152
-1.7920409 -0.65793943 -0.12977062 0.99237555
-6.933701 -2.4471874 -0.49983433 0.97095084
-6.9637499 -2.3598242 -0.49982661 0.9709515
-7.0206637 -2.1840038 -0.49981198 0.97095227
-7.0474606 -2.0955858 -0.49980506 0.97095263
-7.0731249 -2.0068262 -0.49979842 0.97095311
-7.0977049 -1.9177734 -0.4997921 0.9709534
-7.1434569 -1.7387598 -0.4997803 0.97095424
-7.2037106 -1.4682422 -0.49976471 0.97095501
-7.2215428 -1.3775879 -0.49976003 0.97095525
-7.2382126 -1.286709 -0.49975574 0.97095549
-7.3044629 -0.82964844 -0.49973843 0.9709565
-7.3229394 -0.64582032 -0.49973354 0.9709568
-7.3304586 -0.55375975 -0.49973151 0.97095686
-7.3419824 -0.36935547 -0.49972838 0.97095716
-7.3460741 -0.27707031 -0.49972728 0.97095704
-7.0630956 -9.7656248e-06 -0.49979883 0.97207433
-7.0580859 0.26620117 -0.49979982 0.97207427
-7.0492187 0.44348633 -0.4998019 0.97207409
-7.0358591 0.62049806 -0.49980509 0.97207403
-6.9959373 0.97324216 -0.49981487 0.9720735
-6.9832029 1.0610937 -0.49981803 0.97207326
-6.9693847 1.1487695 -0.49982142 0.97207302
-6.9544239 1.2362597 -0.49982512 0.9720729
-6.9212985 1.4106543 -0.49983338 0.97207236
-6.9030662 1.4975293 -0.49983791 0.97207218
-6.8837695 1.5841894 -0.4998427 0.97207195
-6.8634081 1.6705565 -0.49984777 0.97207159
-6.8419333 1.7566992 -0.49985316 0.97207135
-6.8193846 1.8425585 -0.4998588 0.97207105
-6.7957711 1.9281347 -0.49986473 0.97207075
-6.7711229 2.0134082 -0.4998709 0.97207028
-6.6906934 2.2672753 -0.49989104 0.9720692
-1.7928905 0.65823239 -0.13514988 0.99237055
-1.792998 0.68396485 -0.13579494 0.99233425
-1.7293066 0.70993161 -0.13228038 0.9925319
-1.6693164 0.70993161 -0.12836155 0.99275219
-1.6127148 0.70993161 -0.12468746 0.99295902
-1.5592773 0.70995116 -0.12123623 0.99315321
-1.4607714 0.70995116 -0.11492901 0.99350828
-1.2537891 0.70995116 -0.10195766 0.99423891
-1.2178515 0.70995116 -0.099751927 0.99436313
-1.1834179 0.70995116 -0.097654343 0.99448133
-1.0589062 0.70994139 -0.090212785 0.99490082
-1.0306543 0.70993161 -0.088559836 0.99499404
-1.0259863 0.72590816 -0.088936076 0.99497283
-1.0258398 0.74531251 -0.089727134 0.99492818
-1.025498 0.78518552 -0.091395758 0.99483418
-1.0247754 0.86967772 -0.095108867 0.99462479
-1.0245703 0.89189452 -0.096122779 0.99456769
-1.024375 0.91460937 -0.097173914 0.99450833
-1.0241406 0.93780273 -0.098263435 0.99444699
-5.1537204 4.8396678 -0.50027871 0.97204787
-5.0926366 4.9041796 -0.50029415 0.97204709
-5.0307713 4.9679589 -0.50030982 0.9720462
-4.7096872 5.2748923 -0.50039107 0.97204167
-4.6431932 5.333838 -0.50040787 0.97204071
-4.507988 5.4491992 -0.50044209 0.97203892
-4.3699021 5.561162 -0.50047708 0.97203702
-4.2998533 5.6158495 -0.50049484 0.97203594
-4.2290821 5.6696286 -0.50051278 0.97203499
-4.0855565 5.7745409 -0.50054908 0.97203302
-4.0128222 5.8256345 -0.5005675 0.97203201
-3.865459 5.9250684 -0.50060487 0.97202992
-3.7908494 5.9734082 -0.50062376 0.97202885
-3.7156248 6.0207911 -0.50064278 0.97202784
-3.6398046 6.067246 -0.50066203 0.97202682
-3.4864745 6.1572852 -0.50070089 0.97202462
-3.4089355 6.2008495 -0.5007205 0.97202355
-3.093574 6.3653026 -0.50080049 0.9720192
-3.0134766 6.403945 -0.50082076 0.972018
-2.9328809 6.4415622 -0.5008412 0.97201693
-2.8518164 6.4781833 -0.50086176 0.97201574
-2.5231347 6.6143847 -0.50094509 0.97201121
-2.4399219 6.6458592 -0.50096619 0.97201002
-2.356328 6.6762695 -0.50098741 0.97200882
-2.1879883 6.7339454 -0.50103009 0.9720065
-2.103291 6.7612009 -0.5010516 0.97200531
-1.9328808 6.8125095 -0.50109482 0.97200292
-1.7612207 6.8595214 -0.50113839 0.97200054
-1.2398535 6.9745407 -0.50127071 0.97199327
-1.1521581 6.9898729 -0.501293 0.97199208
-1.0642675 7.0041113 -0.5013153 0.97199082
-0.97620118 7.0172653 -0.50133765 0.97198957
-0.88799804 7.0292869 -0.50136006 0.97198832
-0.71114254 7.0500193 -0.50140494 0.97198582
-0.61702144 6.9965329 -0.49701029 0.97222793
-0.51918942 6.8728905 -0.48772475 0.97273964
-0.4249121 6.7537498 -0.47885501 0.97322875
-0.24620117 6.5279589 -0.46225974 0.9741444
-0.16140625 6.4207811 -0.45449194 0.97457337
0.07702148 6.1266208 -0.4335655 0.9757297
0.15179688 6.0387497 -0.42744896 0.97606796
0.29530272 5.8700485 -0.41590136 0.97670692
0.57176757 5.6684275 -0.40314567 0.97741324
0.77612305 5.5789161 -0.39857757 0.97766626
0.84622067 5.5690331 -0.398601 0.97766501
0.98601562 5.5466504 -0.39864731 0.97766244
1.2637793 5.491406 -0.39874053 0.9776572
1.4015039 5.4585352 -0.39878696 0.97765476
1.4700977 5.4408298 -0.39881015 0.97765332
1.5384375 5.422246 -0.3988333 0.97765207
1.6743945 5.3824706 -0.39887962 0.97764957
1.7420117 5.3613377 -0.39890274 0.9776482
1.8093554 5.3393359 -0.39892578 0.97764695
1.8763964 5.3164845 -0.39894882 0.9776457
1.9431835 5.2927833 -0.39897183 0.97764438
2.0096385 5.2682419 -0.39899477 0.97764319
2.207041 5.1894336 -0.39904624 0.97764033
2.4014063 5.1032128 -0.39909667 0.97763747
2.46541 5.0728416 -0.39911339 0.97763658
2.592334 5.009697 -0.39914656 0.97763479
2.7796581 4.9090333 -0.39919588 0.97763205
2.8412695 4.8739257 -0.39921221 0.97763103
2.9630957 4.8013673 -0.39924461 0.97762924
3.0830469 4.7257714 -0.39927664 0.97762752
3.2011034 4.6471677 -0.39930838 0.97762573
3.2593553 4.6067576 -0.39932415 0.97762489
3.3171289 4.5656247 -0.39933974 0.977624
3.3743553 4.5237498 -0.39935532 0.97762316
3.4402537 4.4931445 -0.40043902 0.97756314
3.4872265 4.4378419 -0.39938444 0.97762156
3.5428612 4.3938279 -0.3993986 0.97762072
3.5979004 4.3491111 -0.39941263 0.97762001
3.6523924 4.3037009 -0.39942652 0.97761929
3.7110839 4.2631054 -0.39995337 0.97759002
3.8808007 4.2380958 -0.40663195 0.97722006
4.0562305 4.2120895 -0.41378906 0.97682381
4.5387402 4.1560841 -0.43547857 0.97562397
4.6487107 4.1505761 -0.44098923 0.97531933
5.0028219 4.1386523 -0.45944509 0.97429979
5.1300097 4.136416 -0.46631518 0.97392052
5.2610741 4.1340919 -0.47346938 0.97352576
5.3962402 4.1316991 -0.48092395 0.97311467
1.2537206 0.9108789 -0.10965832 0.99380505
1.2542871 0.84094727 -0.10685691 0.99396276
1.2544628 0.81838864 -0.10598705 0.99401176
1.2547852 0.77435547 -0.10433723 0.99410474
1.2550976 0.73165035 -0.1028009 0.99419129
1.2552344 0.71076173 -0.10207298 0.9942323
1.3307421 0.70996094 -0.10672805 0.99397004
1.4608008 0.70994139 -0.11492924 0.99350822
1.5087206 0.70995116 -0.11798927 0.99333596
1.5592968 0.70994139 -0.12123646 0.99315315
1.7931249 0.70993161 -0.1364685 0.99229634
2.0237012 0.714248 -0.15185909 0.9914313
2.023711 0.65752929 -0.15057237 0.9915036
6.7917676 2.112793 -0.50331622 0.97188056
6.8178906 2.0273144 -0.50332296 0.97188014
6.9114552 1.6822656 -0.5033471 0.97187883
6.9701462 1.420625 -0.50336224 0.97187805
6.9875193 1.3329394 -0.50336677 0.97187775
7.0037594 1.245039 -0.503371 0.97187763
7.0189157 1.1569433 -0.50337493 0.97187734
7.032959 1.068662 -0.50337857 0.9718771
7.1139841 -0 -0.50340033 0.97187597
7.1089063 -0.26813477 -0.50339931 0.97187603
7.0998926 -0.44668946 -0.50339723 0.97187614
7.0937204 -0.5358789 -0.50339574 0.97187614
7.0863962 -0.62497067 -0.50339395 0.97187626
7.0683789 -0.80285156 -0.5033896 0.97187656
7.0577245 -0.89159179 -0.50338697 0.97187662
7.0329881 -1.0686718 -0.50338089 0.97187698
7.0037985 -1.2450585 -0.50337368 0.97187746
6.9701853 -1.4206543 -0.50336534 0.97187787
6.9114938 -1.6822948 -0.50335068 0.97187871
6.8897653 -1.7689941 -0.50334525 0.97187889
6.8668847 -1.8554101 -0.50333953 0.9718793
6.7918067 -2.1128223 -0.50332069 0.97188038
2.0237012 -0.71425778 -0.15185936 0.99143124
1.9337597 -0.70996094 -0.14576697 0.99177355
1.8611132 -0.70997071 -0.14095356 0.99204415
1.7931347 -0.70996094 -0.13646889 0.99229628
1.460791 -0.70995116 -0.11492962 0.99350822
1.3719727 -0.70995116 -0.10931171 0.9938246
1.3307617 -0.70995116 -0.10672843 0.99396998
1.2552344 -0.71074218 -0.10207298 0.9942323
1.2549316 -0.75285155 -0.10355541 0.99414879
1.2546191 -0.79621094 -0.10514747 0.99405909
1.2541211 -0.86385739 -0.10775795 0.99391198
1.253916 -0.88715816 -0.10869133 0.99385947
1.2537304 -0.91088867 -0.10965832 0.99380499
5.0961423 -3.9019334 -0.45417807 0.9745906
4.8352537 -3.8987596 -0.439522 0.97540039
4.7109666 -3.8972557 -0.43264362 0.97578067
4.364121 -3.8964746 -0.41399083 0.97681266
4.1540527 -3.9009178 -0.40323994 0.97740799
4.0670505 -3.9165623 -0.39954063 0.97761285
3.9671092 -4.0172653 -0.39951536 0.97761422
3.9161718 -4.0666599 -0.39950249 0.977615
3.7597656 -4.210947 -0.39946288 0.97761714
3.6524804 -4.3038282 -0.39943573 0.97761869
2.9633203 -4.0787306 -0.35675001 0.97998631
2.8989649 -4.0973926 -0.35517004 0.98007411
2.8236914 -4.0993261 -0.35223356 0.98023725
2.6618359 -4.0801563 -0.34473124 0.98065424
2.8413866 -4.8741503 -0.3992303 0.97763002
2.5924902 -5.0099607 -0.39916721 0.97763354
2.5292284 -5.0419431 -0.39915118 0.97763443
2.1416991 -5.2168651 -0.39905292 0.97763985
2.0759082 -5.243125 -0.39903626 0.97764087
2.0097852 -5.2685742 -0.39901945 0.97764176
1.7422167 -5.3619919 -0.39895159 0.97764552
1.3330468 -5.4765625 -0.39884776 0.9776513
1.264043 -5.4926462 -0.39883026 0.97765225
1.1255078 -5.5222068 -0.39879507 0.97765416
0.84648436 -5.5707712 -0.39872429 0.97765815
0.70614254 -5.5898142 -0.39868864 0.97766
0.63583004 -5.5979786 -0.39867079 0.97766107
0.56540036 -5.6052732 -0.39865291 0.97766203
0.35370117 -5.6218457 -0.39859912 0.97766501
0.2830078 -5.6255956 -0.39858118 0.97766602
0.21230468 -5.6284571 -0.39856324 0.97766697
1.953125e-05 -5.6316795 -0.39850929 0.97767001
-0.070771486 -5.6309762 -0.39849132 0.97767103
-0.14149414 -5.6294041 -0.39847335 0.97767198
-0.28291991 -5.6235447 -0.39843741 0.97767407
-0.35351562 -5.6192966 -0.3984195 0.97767502
-0.56498045 -5.6012402 -0.39836574 0.97767794
-0.98505855 -5.5412693 -0.39825895 0.9776839
-1.0545605 -5.5282226 -0.39824131 0.97768486
-1.076084 -3.9826171 -0.29192308 0.98359311
-1.6034961 -5.3925781 -0.39810169 0.9776926
-1.6710644 -5.3717771 -0.39808452 0.9776935
-1.8053515 -5.3276072 -0.39805037 0.97769552
-1.8720801 -5.304287 -0.39803335 0.97769642
-2.0046387 -5.2551169 -0.39799964 0.97769827
-2.0704296 -5.2293067 -0.39798293 0.9776991
-2.1358788 -5.2026563 -0.39796627 0.97770005
-2.2657616 -5.146904 -0.39793319 0.9777019
-2.5210643 -5.0257325 -0.39786822 0.9777056
-2.6463768 -4.9604001 -0.3978363 0.97770727
-2.4883204 -4.0320997 -0.33527735 0.98117959
-2.5851367 -3.9625585 -0.33478642 0.98120648
-3.1881738 -4.6284375 -0.39769831 0.97771496
-3.4162109 -4.4617481 -0.39764023 0.97771817
-3.5269921 -4.3741894 -0.39761201 0.97771972
-3.6355565 -4.2838573 -0.39758429 0.97772133
-3.6889648 -4.2377048 -0.39757067 0.97772205
-3.7940428 -4.1433887 -0.39754391 0.97772348
-3.845664 -4.0952439 -0.39753073 0.97772431
-3.8967187 -4.0464549 -0.39751768 0.97772497
-3.9968944 -3.9469922 -0.39749214 0.97772646
-4.0460739 -3.8963475 -0.39747962 0.97772706
-1.024121 -0.93779296 -0.098263659 0.99444711
-1.0245508 -0.89190429 -0.09612266 0.99456769
-1.0247754 -0.8696875 -0.095108718 0.99462479
-1.0249707 -0.84792966 -0.094130591 0.99467993
-1.0251465 -0.82661128 -0.093186297 0.99473315
-1.025332 -0.80571288 -0.092275158 0.99478453
-1.0256737 -0.76507813 -0.090546571 0.99488199
-1.0258398 -0.745332 -0.08972732 0.99492818
-1.0306445 -0.70995116 -0.088560291 0.99499404
-1.0589062 -0.70996094 -0.090213127 0.99490076
-1.0882226 -0.70995116 -0.091943659 0.99480325
-1.1187011 -0.70995116 -0.093757056 0.99470097
-1.1834375 -0.70996094 -0.09765476 0.99448127
-1.2178711 -0.70995116 -0.099752083 0.99436307
-1.2913965 -0.70995116 -0.10428039 0.99410796
-1.3307323 -0.70995116 -0.10672843 0.9939701
-1.3719921 -0.70994139 -0.1093116 0.99382454
-1.4607812 -0.70994139 -0.11492969 0.99350828
-1.5087109 -0.70995116 -0.11798954 0.99333602
-1.6127343 -0.70996094 -0.12468815 0.9929589
-1.6692969 -0.70996094 -0.12836212 0.99275225
-1.7293164 -0.70995116 -0.13228104 0.99253184
-1.7930175 -0.68399411 -0.13579501 0.99233413
-6.7186131 -2.1830175 -0.49988869 0.97206932
-6.7711425 -2.0134277 -0.49987516 0.97207016
-6.7958298 -1.9281542 -0.49986881 0.97207052
-6.8634372 -1.6705956 -0.49985138 0.97207147
-6.9212985 -1.4106933 -0.49983639 0.97207236
-6.9384665 -1.323584 -0.49983191 0.97207242
-6.9544625 -1.2362792 -0.49982774 0.97207278
-6.9694042 -1.148789 -0.49982387 0.97207296
-7.007617 -0.8852734 -0.49981391 0.97207344
-7.0275683 -0.70887691 -0.49980864 0.97207379
-7.043076 -0.53204101 -0.4998045 0.97207415
-7.0580955 -0.26621094 -0.49980041 0.97207421
-7.0608788 -0.17749999 -0.49979961 0.97207427
-6.7965918 -9.7656248e-06 -0.49986655 0.97310841
-6.7944236 0.17079102 -0.49986693 0.97310847
-6.7917576 0.25615233 -0.4998675 0.97310841
-6.7880173 0.34149414 -0.49986839 0.97310835
-6.7831931 0.42675781 -0.4998695 0.97310835
-6.7773242 0.51196289 -0.4998709 0.97310823
-6.762373 0.68211913 -0.49987453 0.97310799
-6.7319431 0.93653315 -0.49988195 0.9731077
-6.719697 1.0210449 -0.49988502 0.97310746
-6.6765623 1.273623 -0.49989569 0.97310698
-6.6240134 1.5243945 -0.49990878 0.97310621
-6.5620408 1.7730273 -0.49992424 0.97310543
-6.5155859 1.937412 -0.49993587 0.97310472
-6.4649801 2.1006055 -0.49994856 0.97310412
-6.4381638 2.1817091 -0.49995527 0.97310376
-6.4103417 2.2624609 -0.49996227 0.97310334
-1.7938769 0.68428707 -0.1412077 0.992329
-1.7293066 0.70993161 -0.13748607 0.99253041
-1.6693164 0.70993161 -0.13341334 0.99275076
-1.6127148 0.70993161 -0.12959446 0.99295765
-1.4607519 0.70995116 -0.11945209 0.99350709
-1.3307421 0.70995116 -0.11092854 0.99396884
-1.2913769 0.70995116 -0.10838405 0.99410683
-1.2178515 0.70995116 -0.10367741 0.994362
-1.1504004 0.70996094 -0.099422604 0.99459273
-1.0882226 0.70994139 -0.095561601 0.99480224
-1.058916 0.70995116 -0.093763046 0.99489975
-1.0306543 0.70993161 -0.092045173 0.99499303
-1.025166 0.74481446 -0.09319561 0.99493051
-1.025 0.76455075 -0.094046131 0.99488437
-1.0248047 0.78465819 -0.094927408 0.99483663
-1.0246191 0.80514646 -0.095840335 0.9947871
-1.024248 0.84732419 -0.097765885 0.99468261
-1.0240234 0.86907226 -0.098781317 0.99462759
-4.9590821 4.6568651 -0.50032842 0.97308391
-4.9003124 4.7189646 -0.50034326 0.97308314
-4.7804589 4.8409081 -0.50037354 0.97308159
-4.7194042 4.9007521 -0.50038904 0.97308069
-4.5317383 5.0756249 -0.50043648 0.97307825
-4.4677539 5.1323338 -0.5004527 0.97307742
-4.2715917 5.2976074 -0.50050235 0.97307467
-4.2047949 5.3510351 -0.50051922 0.9730739
-4.1373825 5.4036522 -0.50053632 0.97307289
-4.0005665 5.506289 -0.50057095 0.9730711
-3.9311912 5.5563278 -0.50058854 0.97307014
-3.8611913 5.6054783 -0.50060624 0.97306925
-3.7193651 5.7011523 -0.50064218 0.97306734
-3.3546777 5.924531 -0.50073463 0.9730624
-3.2800877 5.966455 -0.50075352 0.97306138
-3.2049608 6.007422 -0.50077254 0.97306043
-2.9766209 6.1246581 -0.50083047 0.97305733
-2.7439842 6.2332225 -0.50088942 0.97305423
-2.5866895 6.3007321 -0.5009293 0.97305202
-2.4277246 6.3642478 -0.50096959 0.97304994
-2.2672069 6.4237695 -0.5010103 0.97304779
-2.1863964 6.4520211 -0.50103086 0.97304666
-2.1052442 6.4792576 -0.50105143 0.97304553
-2.0237305 6.5054588 -0.50107211 0.97304451
-1.9419043 6.530654 -0.50109285 0.97304338
-1.6945899 6.600039 -0.50115561 0.97303998
-1.6116015 6.6210837 -0.50117666 0.97303891
-1.5283301 6.6410837 -0.50119781 0.97303784
-1.3610742 6.677949 -0.50124025 0.97303563
-1.2771192 6.6948142 -0.50126153 0.97303444
-1.1929492 6.7106247 -0.50128293 0.97303331
-1.1085644 6.7253809 -0.50130433 0.97303212
-1.0240039 6.7390428 -0.50132585 0.9730311
-0.9392578 6.7516699 -0.50134736 0.97302997
-0.8543945 6.7632422 -0.50136888 0.97302878
-0.59895504 6.7915235 -0.50143373 0.97302532
-0.42492187 6.7537403 -0.49769846 0.97322351
-0.33399412 6.6388574 -0.48888493 0.9736914
-0.24622069 6.5279393 -0.48045066 0.97413939
-0.079384767 6.3171387 -0.46464229 0.97497952
0 6.2168064 -0.45722774 0.97537392
0.076914057 6.1196289 -0.45011637 0.97575223
0.43416992 5.7474508 -0.42391068 0.97714758
0.57083005 5.6590624 -0.41831955 0.97744566
0.63785154 5.6156931 -0.41567191 0.97758675
0.70402342 5.5728025 -0.41311973 0.97772282
0.76941407 5.5305762 -0.41067496 0.97785324
1.0238281 5.3669825 -0.4018431 0.97832429
1.0857323 5.3270407 -0.39984176 0.97843105
1.1493554 5.2979879 -0.3987129 0.97849119
1.2158886 5.2834277 -0.39873588 0.97849
1.2822559 5.2680173 -0.3987588 0.97848886
1.3484472 5.2517872 -0.39878172 0.97848761
1.414414 5.2347364 -0.39880458 0.97848636
1.480166 5.2168455 -0.39882693 0.97848517
1.5456738 5.1981153 -0.39884916 0.97848403
1.6760058 5.1582227 -0.39889431 0.97848159
1.8053125 5.1150389 -0.39893866 0.97847927
1.9971386 5.0441699 -0.39900181 0.97847581
2.1234179 4.9927831 -0.39903438 0.97847414
2.2484276 4.938252 -0.39906678 0.97847235
2.4332323 4.8505955 -0.39911494 0.97846979
2.494082 4.8198242 -0.39913094 0.97846895
2.6827929 4.7379394 -0.40044424 0.97839886
2.7335351 4.6891503 -0.39919272 0.97846568
2.7923729 4.6545997 -0.39920768 0.97846484
2.9661326 4.5465426 -0.39925194 0.97846252
3.0796874 4.4708982 -0.39928085 0.97846091
3.1356933 4.4319921 -0.39929515 0.97846031
3.2475781 4.3537793 -0.39947599 0.97845054
3.315742 4.3305368 -0.40113559 0.97836202
3.3844726 4.3070602 -0.40286833 0.97826952
3.4593163 4.2902441 -0.40533 0.97813827
3.5394824 4.2784958 -0.40838945 0.97797501
3.6208496 4.2665133 -0.41155815 0.97780609
3.7034373 4.2543259 -0.41483855 0.97763121
3.7873828 4.2418942 -0.41823429 0.97745013
3.8726757 4.2292285 -0.42174971 0.97726268
3.9593847 4.2163086 -0.42538983 0.97706878
4.5288963 4.1470604 -0.45163611 0.97567141
4.7592478 4.1429687 -0.46407306 0.97500986
5.0028124 4.1386619 -0.47752577 0.97429472
5.1299901 4.136416 -0.48466676 0.97391546
5.2610645 4.1341014 -0.49210158 0.97352058
5.3962402 4.1316991 -0.49985 0.97310936
1.2528808 0.91026366 -0.1138972 0.99380797
1.253291 0.86328125 -0.11192451 0.99391478
1.253457 0.84037107 -0.11098927 0.99396557
1.2536426 0.81786132 -0.11008644 0.99401444
1.2537988 0.79569334 -0.10921501 0.99406177
1.2539648 0.77385741 -0.10837402 0.99410743
1.2541308 0.75236326 -0.10756221 0.99415141
1.2544628 0.71031249 -0.10602359 0.99423468
1.2913965 0.70994139 -0.10838413 0.99410683
1.4152832 0.70995116 -0.11645035 0.99366957
1.4608008 0.70994139 -0.11945248 0.99350691
1.612705 0.70993161 -0.12959446 0.99295765
1.6692969 0.70994139 -0.13341305 0.99275082
1.7293066 0.70993161 -0.13748622 0.99253041
1.7931249 0.70993161 -0.14183891 0.99229479
1.8611327 0.70993161 -0.14650013 0.99204254
1.9337305 0.70994139 -0.15150291 0.99177206
2.0236523 0.71421874 -0.15783 0.99142981
2.0236523 0.6857422 -0.1571462 0.99146682
6.5337696 2.0325294 -0.50325078 0.97292882
6.558867 1.9502832 -0.50325722 0.97292852
6.5829296 1.8677539 -0.50326341 0.97292817
6.6687303 1.5346972 -0.50328559 0.97292709
6.7053418 1.3666503 -0.50329506 0.9729265
6.7657418 1.0280468 -0.50331074 0.97292572
6.7895312 0.85772461 -0.503317 0.97292536
6.7998047 0.77233398 -0.50331968 0.97292525
6.8171191 0.60121095 -0.50332427 0.97292501
6.8350291 0.34385741 -0.5033291 0.97292465
6.8388085 0.25792968 -0.50333017 0.97292465
6.8415232 0.17196289 -0.50333089 0.97292459
6.843154 0.085986324 -0.50333142 0.97292459
6.8241796 -0.51550782 -0.50332725 0.97292483
6.8171582 -0.60123044 -0.50332558 0.97292489
6.8090429 -0.68684566 -0.50332355 0.97292495
6.7782226 -0.94295895 -0.50331604 0.97292536
6.7657809 -1.0280566 -0.503313 0.97292554
6.7522655 -1.1129882 -0.50330961 0.97292578
6.7220602 -1.2823144 -0.50330216 0.9729262
6.6876168 -1.4508203 -0.50329357 0.97292662
6.5829687 -1.8677832 -0.50326741 0.97292799
6.5589061 -1.9503223 -0.50326139 0.97292835
2.0236523 -0.65751952 -0.15649259 0.99150217
2.0236621 -0.68575191 -0.15714601 0.99146676
1.9337499 -0.70995116 -0.15150329 0.99177194
1.6127245 -0.70995116 -0.12959456 0.99295759
1.460791 -0.70995116 -0.11945248 0.99350691
1.4152832 -0.70995116 -0.11645076 0.99366957
1.3719921 -0.70994139 -0.11361378 0.99382329
1.2539843 -0.77385741 -0.10837406 0.99410731
1.2538086 -0.79569334 -0.10921501 0.99406177
1.2534667 -0.84038085 -0.1109893 0.99396551
1.2530859 -0.88656247 -0.11289375 0.99386233
5.0961423 -3.9019334 -0.47205162 0.97458559
4.9635644 -3.900332 -0.46427366 0.97499901
4.710947 -3.8972654 -0.44967055 0.97577596
4.5905371 -3.8957813 -0.44281062 0.97614098
4.3602147 -3.8929882 -0.42989844 0.97682858
4.0429392 -3.8933203 -0.41280067 0.97773975
3.9446874 -3.8954101 -0.40773454 0.97800988
3.8487499 -3.8974121 -0.40284967 0.97827047
3.7675195 -3.9123242 -0.39946455 0.97845113
3.7179687 -3.9592187 -0.399452 0.97845179
3.6170506 -4.0511522 -0.39942649 0.97845316
3.4614551 -4.1841798 -0.39938709 0.97845531
3.4084959 -4.2272263 -0.39937368 0.9784559
3.3549902 -4.2695603 -0.39936012 0.97845668
3.300957 -4.3112497 -0.39934647 0.97845739
3.2464256 -4.3522263 -0.39933264 0.97845811
2.9617381 -4.0764942 -0.37058818 0.9799931
2.8227539 -4.0979295 -0.36597151 0.98023993
2.7464354 -4.0963864 -0.36271849 0.98041362
2.6188769 -4.3654294 -0.37440649 0.97978914
2.6743751 -4.7230759 -0.39918771 0.97846586
2.614707 -4.7561231 -0.39917257 0.97846669
2.49417 -4.8199606 -0.39914203 0.97846836
2.3104687 -4.9099803 -0.39909545 0.9784708
2.2484863 -4.9384274 -0.39907974 0.97847164
2.1861718 -4.9660935 -0.39906394 0.97847247
2.1235156 -4.9929686 -0.39904806 0.97847337
1.997207 -5.0443454 -0.39901602 0.97847509
1.8054491 -5.1154199 -0.39896739 0.97847766
1.7409472 -5.1375098 -0.39895102 0.97847849
1.6111523 -5.1791892 -0.39891809 0.97848034
1.5458984 -5.1988282 -0.39890155 0.97848111
1.4803613 -5.217627 -0.39888492 0.97848201
1.4146191 -5.2355762 -0.39886823 0.97848302
1.2825097 -5.269033 -0.39883471 0.97848475
0.74697262 -5.3693261 -0.39869881 0.97849196
0.67941403 -5.378047 -0.39868164 0.97849292
0.27228516 -5.4125485 -0.39857826 0.9784984
0.2042578 -5.4153123 -0.39856097 0.97849929
0.13620117 -5.4171972 -0.39854369 0.97850031
-0.068076171 -5.4177637 -0.39849177 0.97850311
-0.13614258 -5.4162598 -0.39847448 0.978504
-0.20419921 -5.4138865 -0.39845717 0.9785049
-0.34014648 -5.4065723 -0.39842266 0.97850674
-0.40804687 -5.4016504 -0.3984054 0.97850764
-0.47585937 -5.3958497 -0.39838818 0.97850859
-0.54363281 -5.3892088 -0.39837095 0.97850955
-0.67879879 -5.3733888 -0.39833659 0.97851133
-0.88074219 -5.3432813 -0.3982853 0.97851413
-0.94778317 -5.3315821 -0.39826819 0.97851497
-1.0813769 -5.3056345 -0.39823425 0.97851676
-1.1479003 -5.2913961 -0.39821732 0.97851771
-1.0262598 -3.9970117 -0.30350256 0.983585
-1.076084 -3.9826171 -0.30341122 0.98358983
