# .PCD v0.7 - Point Cloud Data file format
VERSION 0.7
FIELDS x y z intensity
SIZE 4 4 4 4
TYPE F F F F
COUNT 1 1 1 1
WIDTH 1079
HEIGHT 1
VIEWPOINT 0 0 0 1 0 0 0
POINTS 1079
DATA ascii
-3.9420507 -8.6580563 -0.30318558 0.96264338
-4.0497165 -8.6061029 -0.30312511 0.96265078
-4.1567187 -8.5528517 -0.30306506 0.96265799
-2.0447557 -4.0761619 -0.14533474 0.98191518
-2.2061522 -4.012959 -0.14594482 0.98184001
-4.9318748 -8.2210207 -0.30553335 0.96235961
-5.0722656 -8.2191458 -0.3078081 0.96208477
-5.6562009 -8.2113819 -0.31777316 0.96088171
-5.8082323 -8.2093601 -0.32049385 0.96055347
-6.2808204 -8.2031202 -0.32926306 0.95949614
-6.4442186 -8.2009516 -0.33240184 0.95911825
-6.6107812 -8.1987257 -0.33565131 0.95872682
-6.7806931 -8.1964598 -0.33902243 0.95832121
-6.9540524 -8.1941547 -0.34251431 0.95790106
-3.6286426 -3.9627538 -0.17124161 0.97872615
-7.6856933 -8.1844387 -0.35781673 0.95606202
-7.9710741 -7.8715625 -0.35702848 0.95615679
-8.0963669 -7.7967477 -0.3582215 0.95601344
-8.2950287 -7.7895603 -0.36265245 0.95548171
-1.0347852 -0.94755858 -0.044716261 0.99440056
-1.035166 -0.85638672 -0.042816732 0.99463773
-1.0352637 -0.83477539 -0.042383268 0.99469185
-1.0353417 -0.81358397 -0.041964531 0.99474418
-1.0354199 -0.79281247 -0.041560784 0.99479461
-1.0354882 -0.77242184 -0.041171111 0.9948433
-1.0357031 -0.71344727 -0.040081441 0.9949795
-1.0589062 -0.70997071 -0.040630646 0.99491084
-1.1187109 -0.70997071 -0.042226754 0.9947114
-1.1834179 -0.70996094 -0.043982353 0.99449223
-1.2538183 -0.70996094 -0.045920294 0.99425018
-1.2913867 -0.70997071 -0.046966363 0.99411964
-1.3307323 -0.70997071 -0.048068922 0.99398202
-1.4152734 -0.70996094 -0.050461616 0.99368334
-1.4607812 -0.70996094 -0.051762428 0.99352109
-1.5087109 -0.70998043 -0.05314064 0.99334913
-1.6127245 -0.70998043 -0.056157339 0.99297285
-1.780957 -0.70515621 -0.061046522 0.99236351
-11.058633 -3.9030468 -0.37374526 0.95415169
-11.645566 -3.9463475 -0.39187399 0.95198196
-12.956016 -3.6759667 -0.429205 0.94752973
-13.574375 -3.6677442 -0.44812873 0.94528085
-14.993486 -3.6494725 -0.49179193 0.94011194
-15.076289 -3.4695604 -0.49303949 0.93996477
-15.117978 -3.2796679 -0.49301592 0.93996751
-15.157314 -3.0893066 -0.49299368 0.93997014
-15.194258 -2.8984668 -0.49297273 0.93997276
-15.261191 -2.515537 -0.49293479 0.93997699
-15.291044 -2.3234766 -0.4929179 0.93997908
-15.318515 -2.1310644 -0.49290225 0.93998104
-15.341963 -1.5475683 -0.49142823 0.94015491
-15.420283 -1.164873 -0.49284416 0.9399879
-15.433535 -0.97100586 -0.49283653 0.93998855
-15.444277 -0.77697265 -0.49283028 0.93998945
-15.452607 -0.58283204 -0.49282542 0.93999022
-15.458672 -0.38860351 -0.49282178 0.9399904
-14.245205 -0 -0.49350184 0.9445799
-14.244091 0.17900391 -0.49350229 0.94457984
-14.205361 1.0730957 -0.49352306 0.94457752
-14.190947 1.2515332 -0.49353096 0.9445768
-14.155585 1.6078222 -0.49355039 0.94457459
-14.058456 2.3172851 -0.49360412 0.94456875
-13.996767 2.6700194 -0.49363834 0.94456494
-13.962597 2.8457909 -0.49365729 0.94456309
-13.71247 3.8905761 -0.49379644 0.94454771
-13.663222 4.0627928 -0.49382389 0.94454485
-13.611934 4.2344337 -0.49385247 0.94454151
-13.558437 4.4053907 -0.49388227 0.94453841
-13.445117 4.7453318 -0.49394545 0.94453168
-1.7817285 0.65413082 -0.065754011 0.99243218
-1.7292968 0.70992184 -0.064761087 0.99254602
-1.5592773 0.70993161 -0.059354436 0.99316621
-1.5087011 0.70994139 -0.057764512 0.99334866
-1.1187011 0.70994139 -0.045900956 0.99471104
-1.0882128 0.70993161 -0.04501316 0.99481314
-1.058916 0.70993161 -0.044165991 0.99491042
-1.0350391 0.71292967 -0.043540306 0.99498236
-1.0346289 0.81297851 -0.045584906 0.9947474
-1.034336 0.87779295 -0.046997719 0.99458504
-1.0342284 0.90031248 -0.047503546 0.99452692
-1.034043 0.94683594 -0.048571739 0.99440414
-10.429111 9.7935743 -0.49563137 0.94434762
-10.306641 9.9252338 -0.49569988 0.94434011
-10.182549 10.055361 -0.49576935 0.94433254
-9.929472 10.311026 -0.49591097 0.94431704
-9.8005371 10.436514 -0.49598312 0.94430918
-9.6700678 10.56042 -0.49605617 0.94430107
-9.5379982 10.682656 -0.49613008 0.9442932
-9.2693653 10.922315 -0.49628046 0.94427663
-8.8552341 11.269189 -0.49651232 0.94425136
-8.2831831 11.707412 -0.49683264 0.94421643
-7.6895995 12.116875 -0.49716505 0.94418037
-7.5380368 12.214658 -0.49724996 0.94417095
-7.3852439 12.310527 -0.49733552 0.94416159
-7.2312012 12.404511 -0.49742183 0.94415224
-6.9195895 12.586689 -0.49759635 0.9441334
-6.7620702 12.674911 -0.49768457 0.94412374
-6.1211033 13.008037 -0.49804366 0.94408453
-5.6296091 13.236865 -0.49831903 0.94405431
-5.2971582 13.37914 -0.49850532 0.94403404
-4.9611621 13.513164 -0.49869356 0.94401342
-4.6217675 13.63876 -0.49888378 0.94399267
-4.2791896 13.75581 -0.49907577 0.94397205
-4.1068263 13.81124 -0.49917236 0.94396126
-3.7598827 13.915488 -0.49936679 0.9439401
-3.4103711 14.011074 -0.49956268 0.9439187
-2.5697362 11.166201 -0.39694729 0.95517588
-2.1930664 10.759951 -0.3804248 0.95700079
-2.048496 10.738584 -0.37872273 0.95718831
-1.8652442 11.316084 -0.39731687 0.95513493
-1.7232226 11.340703 -0.39739051 0.95512694
-1.5808789 11.363593 -0.39746428 0.95511872
-1.1520898 11.421494 -0.39768657 0.95509416
-1.0086523 11.437148 -0.39776093 0.95508617
-0.86503905 11.451113 -0.39783537 0.95507777
-0.4330664 11.482051 -0.39805937 0.95505303
-0.28877929 11.48874 -0.39813423 0.95504481
-0.14443359 11.493623 -0.39820907 0.95503652
0.14449218 11.497939 -0.39835891 0.95502001
0.28902343 11.497373 -0.39843386 0.95501179
0.4335449 11.495029 -0.39850882 0.95500338
1.0113379 11.467304 -0.39880848 0.95497042
1.1555566 11.455839 -0.39888331 0.95496219
1.299668 11.442529 -0.39895809 0.95495409
1.344707 9.665947 -0.33808625 0.96169341
3.3509374 8.1623049 -0.30567142 0.96530157
7.3792868 8.0587788 -0.37854487 0.95720857
7.5657129 8.0567188 -0.38288432 0.95672888
7.7564745 8.0545998 -0.38738421 0.95623147
7.9518161 8.0524416 -0.39205816 0.9557156
8.4797945 7.9630175 -0.40299103 0.95450902
8.5804787 7.8570309 -0.40305206 0.95450228
8.6797943 7.7497168 -0.40311232 0.95449585
8.777832 7.641191 -0.40317199 0.95448905
8.9696579 7.420332 -0.40328902 0.9544763
9.1559277 7.1946387 -0.40340316 0.95446354
1.2647754 0.91887695 -0.054159049 0.99376249
1.2648437 0.89489257 -0.053677365 0.99381787
1.2650487 0.84813476 -0.052763708 0.99392271
1.2654394 0.73767579 -0.050744247 0.99415463
1.3307323 0.70993161 -0.052251279 0.99398154
1.3719629 0.70993161 -0.05351593 0.99383634
1.612705 0.70992184 -0.061043587 0.99297237
1.7293164 0.70993161 -0.064761393 0.99254596
1.7931249 0.70993161 -0.066811524 0.99231088
2.0125196 0.71029294 -0.073935166 0.99149454
14.244208 3.6572654 -0.50947374 0.94283855
14.289765 3.4781737 -0.50949943 0.94283575
14.333047 3.298496 -0.50952393 0.94283301
14.374091 3.1182909 -0.50954711 0.9428302
14.412665 2.9375293 -0.50956893 0.94282818
14.449014 2.756289 -0.50958955 0.94282597
14.544209 2.2099805 -0.5096435 0.94281995
14.571299 2.0271094 -0.50965881 0.94281822
14.595976 1.8438867 -0.50967288 0.94281685
14.638417 1.4765723 -0.50969708 0.94281417
14.656103 1.2925292 -0.50970721 0.94281304
14.695048 0.73924804 -0.50972962 0.94281065
14.70333 0.55454099 -0.50973451 0.94281006
14.712725 0.1848828 -0.50974011 0.94280964
14.713935 -9.7656248e-06 -0.50974101 0.94280946
14.709238 -0.36976561 -0.50973874 0.9428097
14.695107 -0.73929685 -0.50973123 0.94281042
14.671514 -1.1083202 -0.50971836 0.94281179
14.656191 -1.2925683 -0.50971001 0.94281274
14.638525 -1.4766015 -0.50970024 0.94281375
14.618466 -1.6604004 -0.50968927 0.94281507
14.571386 -2.0271583 -0.50966322 0.94281787
14.544374 -2.2100294 -0.50964826 0.94281936
14.51498 -2.3925488 -0.50963199 0.94282115
14.449228 -2.7563379 -0.50959545 0.94282514
14.412831 -2.937578 -0.50957525 0.94282752
14.374238 -3.11833 -0.50955385 0.94282967
14.333252 -3.2985742 -0.50953102 0.94283223
14.290039 -3.4782715 -0.509507 0.94283468
14.146563 -4.0137596 -0.50942707 0.94284338
13.524619 -4.0216017 -0.48881334 0.94509166
12.901093 -4.0133204 -0.46806282 0.94735998
2.0124121 -0.68194336 -0.07361 0.99153167
2.0125291 -0.71029294 -0.073935166 0.99149448
1.8611327 -0.70997071 -0.069007754 0.99205911
1.7931445 -0.70997071 -0.066812322 0.99231076
1.7293359 -0.70997071 -0.064761616 0.99254584
1.6693164 -0.70996094 -0.062843166 0.99276584
1.5592968 -0.70996094 -0.059354741 0.99316609
1.4152637 -0.70997071 -0.054853171 0.9936828
1.3307519 -0.70997071 -0.052251969 0.99398136
1.2913965 -0.70996094 -0.051053505 0.99411911
1.2650293 -0.84816402 -0.052763443 0.99392271
9.2499609 -7.0823536 -0.40359473 0.95444256
9.1591206 -7.1971483 -0.40354392 0.95444798
9.0667572 -7.3107419 -0.40349227 0.95445383
8.9730072 -7.4231153 -0.40343979 0.95445967
8.8778906 -7.5343456 -0.40338656 0.95446527
8.5840425 -7.8603516 -0.40322214 0.95448369
7.9327049 -8.0330172 -0.39111426 0.95581979
7.733613 -8.0308104 -0.386244 0.95635778
7.3498435 -8.0265627 -0.37703517 0.95737582
4.8887987 -7.9218063 -0.3224923 0.96342766
6.2895703 -11.440663 -0.45228803 0.94908822
6.1400781 -11.509033 -0.45190275 0.9491303
5.9896874 -11.575053 -0.45150599 0.94917399
5.8384376 -11.638818 -0.45109534 0.94921905
1.8681641 -4.103086 -0.1561843 0.98211753
1.6883788 -4.112627 -0.1540159 0.98236388
1.6237988 -4.1012402 -0.15281209 0.98250037
1.592998 -4.3389649 -0.16012165 0.98167038
2.4569921 -7.898242 -0.28655523 0.96743584
2.0265331 -7.8928614 -0.2823061 0.96791106
1.8158106 -7.890234 -0.28048998 0.96811408
1.711416 -7.888916 -0.27965727 0.9682073
1.5044141 -7.8863378 -0.27813739 0.96837735
1.4016992 -7.8850584 -0.27744788 0.96845436
1.1977539 -7.8824997 -0.27621108 0.9685927
1.0964453 -7.8812499 -0.27566358 0.9686541
0.99461913 -7.8731933 -0.27492255 0.96873701
0.89585936 -11.858994 -0.41200501 0.95351541
0.7466113 -11.866904 -0.41192129 0.95352465
0.59732419 -11.87293 -0.41183761 0.95353389
0.44798827 -11.877065 -0.41175383 0.95354319
0.14929686 -11.87977 -0.41158637 0.95356148
9.7656248e-06 -11.878276 -0.41150269 0.95357078
-0.44740233 -11.862583 -0.41125175 0.9535985
-1.1901758 -11.79915 -0.41083515 0.95364428
-1.3380761 -11.780873 -0.41075221 0.95365345
-1.9267676 -11.68937 -0.41042197 0.95368975
-2.0730665 -11.661919 -0.41033992 0.95369875
-2.0618944 -10.808862 -0.3812075 0.95691425
-2.1835155 -8.5042286 -0.3041715 0.96546894
-2.2897851 -8.4744968 -0.3041119 0.96547538
-2.5877831 -8.3186817 -0.3018091 0.9657324
-2.8146288 -8.3059425 -0.30381739 0.96550834
-2.9182422 -8.2683296 -0.30375928 0.96551478
-3.0275195 -8.2463036 -0.30432516 0.96545184
-3.3834569 -8.2415771 -0.30863932 0.96497059
-3.5044336 -8.2399654 -0.31020537 0.96479619
-3.8750975 -8.2350388 -0.31529716 0.96422875
-2.0447462 -4.0761719 -0.15798305 0.98191351
-2.124795 -3.982744 -0.15638271 0.98209506
-2.2061327 -4.012949 -0.15864448 0.98183841
-4.6570897 -8.2246675 -0.32743606 0.96287733
-4.7935057 -8.2228565 -0.32973692 0.96262151
-5.0722947 -8.2191648 -0.33459532 0.96208125
-5.2148337 -8.2172699 -0.33715934 0.96179628
-5.3596091 -8.215332 -0.33981743 0.961501
-5.8082614 -8.2093849 -0.34838369 0.96054977
-5.9629588 -8.2073288 -0.35144877 0.96020973
-6.2807908 -8.2031002 -0.35791743 0.95949262
-6.4442086 -8.2009325 -0.36132643 0.95911461
-3.566787 -3.9948633 -0.18553005 0.97879344
-7.5003905 -7.7886133 -0.37459463 0.95764565
-7.6845798 -7.7817969 -0.37887987 0.95717156
-7.8730469 -7.7747359 -0.38332492 0.9566803
-1.0340234 -0.94687498 -0.048571587 0.99440408
-1.0341406 -0.92334956 -0.048027951 0.99446654
-1.034248 -0.90033203 -0.04750343 0.9945268
-1.0344336 -0.85578126 -0.046509895 0.99464101
-1.0345312 -0.83418941 -0.046039123 0.99469513
-1.0346289 -0.81300777 -0.04558479 0.99474734
-1.0347754 -0.77188474 -0.044723205 0.9948464
-1.0348926 -0.75189453 -0.044315033 0.99489319
-1.0350097 -0.71295899 -0.043540418 0.99498242
-1.1187109 -0.70996094 -0.045901146 0.99471098
-1.3307323 -0.70997071 -0.052252121 0.99398142
-1.4607812 -0.70996094 -0.056267202 0.9935205
-1.5592968 -0.70996094 -0.059354629 0.99316609
-1.6127245 -0.70998043 -0.061044499 0.99297225
-1.7818261 -0.70548826 -0.066391028 0.9923591
-10.681503 -3.7699316 -0.39241442 0.95567608
-11.37793 -3.6969237 -0.41445434 0.9532457
-12.387656 -3.6835155 -0.44772065 0.94958913
-13.574375 -3.6677442 -0.48712516 0.94527596
-13.804648 -3.5444336 -0.49375269 0.94455266
-13.847441 -3.370537 -0.49372852 0.94455516
-13.962783 -2.8458593 -0.49366325 0.94456232
-13.996904 -2.6700585 -0.49364394 0.9445644
-14.111601 -1.963164 -0.49357885 0.9445712
-14.134697 -1.7856348 -0.49356571 0.94457299
-14.155654 -1.607832 -0.49355379 0.94457436
-14.174453 -1.4297851 -0.49354309 0.94457543
-14.227509 -0.71576172 -0.49351257 0.94457877
-14.240771 -0.35798827 -0.4935047 0.94457966
-13.204697 -9.7656248e-06 -0.49408531 0.94851685
-13.200596 0.33183593 -0.49408728 0.94851655
-13.1883 0.66345704 -0.49409384 0.94851577
-13.179033 0.8291406 -0.49409884 0.94851536
-13.154355 1.1600878 -0.49411231 0.9485141
-13.121543 1.4903613 -0.4941304 0.9485122
-13.102012 1.6551563 -0.49414116 0.9485113
-13.080566 1.8197265 -0.49415302 0.94850981
-13.003789 2.3116405 -0.49419555 0.94850558
-12.97417 2.4749413 -0.49421194 0.94850385
-12.873115 2.9625292 -0.49426809 0.94849819
-12.515859 4.24125 -0.49446708 0.94847786
-1.7825879 0.65444332 -0.071053006 0.99242783
-1.6692773 0.70995116 -0.067874484 0.99276531
-1.5592773 0.70993161 -0.064107016 0.99316549
-1.4607714 0.70993161 -0.060771979 0.99351996
-1.4152539 0.70992184 -0.059244689 0.99368227
-1.2913965 0.70993161 -0.055140801 0.99411857
-1.1834277 0.70992184 -0.051637266 0.99449122
-1.1504004 0.70993161 -0.050581627 0.99460351
-1.1187011 0.70994139 -0.049576264 0.99471051
-1.0342382 0.73174804 -0.047405854 0.99494159
-1.0340918 0.77132809 -0.048271522 0.99484938
-1.0338867 0.81243163 -0.049200475 0.99475056
-1.0338184 0.83356446 -0.049690705 0.99469835
-1.0335938 0.87716794 -0.050724562 0.99458838
-1.0334766 0.8996582 -0.051270027 0.99453038
-9.4356346 9.3177834 -0.49618897 0.94830334
-9.3190041 9.4368353 -0.49625424 0.94829684
-9.081377 9.6706734 -0.49638724 0.94828314
-8.960351 9.7853518 -0.49645498 0.94827634
-8.8379097 9.8985443 -0.4965235 0.94826937
-8.7140236 10.010215 -0.49659285 0.94826239
-8.5887794 10.120371 -0.49666297 0.94825518
-8.3341112 10.335938 -0.49680555 0.94824088
-7.808867 10.748008 -0.49709964 0.94821101
-7.5386133 10.94417 -0.49725097 0.94819564
-7.2634568 11.133603 -0.49740508 0.94818002
-6.8419042 11.404863 -0.49764118 0.94815612
-6.6991696 11.491826 -0.49772114 0.94814777
-6.555254 11.576923 -0.49780172 0.94813985
-6.2643065 11.741865 -0.49796474 0.94812328
-6.1172752 11.821591 -0.49804708 0.94811499
-5.9692674 11.89956 -0.49812999 0.94810635
-5.6702247 12.049872 -0.49829754 0.94808936
-4.751328 12.455566 -0.49881241 0.94803733
-4.5952539 12.516523 -0.49889982 0.94802827
-4.2807617 12.632481 -0.49907607 0.9480105
-3.4822459 12.887871 -0.49952358 0.9479652
-2.1199219 10.401181 -0.39718607 0.95840025
-1.989414 10.428769 -0.39725372 0.95839334
-1.8584961 10.454736 -0.39732155 0.95838636
-1.7272949 10.479033 -0.39738956 0.95837945
-1.5957421 10.501738 -0.39745772 0.95837241
-1.4639062 10.522744 -0.39752609 0.9583655
-1.3317969 10.542149 -0.39759457 0.95835835
-0.5344336 10.623545 -0.39800787 0.95831603
-0.26740235 10.637304 -0.3981463 0.95830184
-0.1337207 10.641738 -0.39821562 0.95829451
0 10.644365 -0.39828497 0.95828766
0.13377929 10.645381 -0.39835432 0.95828056
0.40138671 10.642363 -0.39849311 0.95826632
0.66895509 10.632636 -0.3986319 0.95825201
0.80264646 10.625205 -0.39870119 0.95824504
1.0697656 10.605381 -0.3988398 0.95823079
1.336416 10.578828 -0.39897811 0.95821655
1.3447266 9.6659565 -0.36515719 0.96168965
2.5758202 16.951748 -0.64157057 0.93366897
5.1489744 8.1134472 -0.35955733 0.96226597
7.1164355 8.3855371 -0.41152123 0.95693129
7.0574703 8.1072168 -0.40218797 0.95788747
7.3613672 7.8390331 -0.40236986 0.9578687
7.4603415 7.7470212 -0.40242931 0.95786285
7.5581737 7.6537595 -0.4024882 0.95785695
7.654912 7.5593066 -0.40254647 0.95785075
7.7504296 7.4635839 -0.40260413 0.95784485
7.844697 7.3666406 -0.40266117 0.95783907
7.9377537 7.268496 -0.40271753 0.95783329
8.209424 6.9670215 -0.40288284 0.95781636
8.297451 6.8642282 -0.40293661 0.95781082
1.2640039 0.89429688 -0.057936553 0.99382132
1.2641015 0.87073243 -0.057434995 0.99387467
1.2643067 0.82479489 -0.056483686 0.99397576
1.2644922 0.78033203 -0.055597533 0.99406993
1.2645508 0.75860351 -0.055177726 0.9941147
1.2647167 0.71610349 -0.054381903 0.99419928
1.2914063 0.70992184 -0.055140838 0.99411851
1.3719629 0.70992184 -0.057801437 0.99383575
1.5592773 0.70992184 -0.06410671 0.99316555
1.612705 0.70992184 -0.065931812 0.99297172
1.7293066 0.70993161 -0.069946557 0.99254525
1.861123 0.70994139 -0.074532434 0.9920584
2.0146582 0.71104491 -0.079939686 0.99148464
2.0145018 0.68264645 -0.07958816 0.99152207
2.0143847 0.6544922 -0.079252169 0.99155772
13.172656 3.3821483 -0.50887311 0.94701749
13.254717 3.0503223 -0.50891948 0.94701272
13.292587 2.883662 -0.50894088 0.9470104
13.361856 2.5489061 -0.5089801 0.94700652
13.449756 2.0436816 -0.50902992 0.94700146
13.518203 1.5354102 -0.50906885 0.94699776
13.536757 1.365459 -0.5090794 0.94699651
13.589072 0.68361324 -0.5091095 0.94699341
13.606533 -9.7656248e-06 -0.50911999 0.9469924
13.605458 -0.17097656 -0.50911957 0.9469924
13.602187 -0.34194335 -0.50911796 0.94699258
13.596728 -0.51283205 -0.50911504 0.94699293
13.589072 -0.68365234 -0.50911093 0.94699341
13.579277 -0.85434568 -0.50910562 0.94699395
13.567305 -1.0248926 -0.50909913 0.94699454
13.553144 -1.1953027 -0.50909132 0.94699538
13.536816 -1.3654883 -0.50908238 0.94699627
13.518398 -1.5354589 -0.50907224 0.94699699
13.497665 -1.705166 -0.5090608 0.94699842
13.474854 -1.8746094 -0.50904816 0.94699961
13.393437 -2.3809276 -0.50900304 0.9470042
13.362001 -2.5489647 -0.50898564 0.94700599
13.328418 -2.7165527 -0.50896698 0.94700789
13.292714 -2.8837206 -0.50894713 0.94700992
13.172852 -3.3822167 -0.50888044 0.94701666
13.128701 -3.5473242 -0.50885582 0.94701904
12.901093 -4.0133104 -0.50554097 0.94735491
1.9337792 -0.70996094 -0.077078514 0.99178821
1.8611327 -0.70996094 -0.0745335 0.99205834
1.7931445 -0.70996094 -0.072161905 0.99230999
1.7293261 -0.70996094 -0.069947548 0.99254513
1.6693164 -0.70996094 -0.067875288 0.99276513
1.5087304 -0.70997071 -0.06239067 0.99334782
1.4608008 -0.70997071 -0.060772438 0.99351978
1.4152637 -0.70997071 -0.059245184 0.99368215
1.3719727 -0.70998043 -0.057801817 0.99383557
1.2913965 -0.70996094 -0.055141486 0.99411851
1.2646387 -0.73722655 -0.054772835 0.99415767
1.2645605 -0.75864255 -0.055177763 0.99411458
1.2644824 -0.78035152 -0.05559757 0.99406993
1.2642969 -0.82482421 -0.056483649 0.99397576
1.2640039 -0.8943066 -0.057936322 0.99382132
1.2638086 -0.94270504 -0.058994446 0.99370873
8.5559568 -6.5509863 -0.40320498 0.95778328
8.21206 -6.9692774 -0.4030126 0.95780307
8.0323439 -7.1716599 -0.40291202 0.95781332
7.9405565 -7.2711034 -0.40286067 0.95781863
7.847578 -7.3693748 -0.40280864 0.95782381
7.5612206 -7.6568651 -0.40264833 0.95784032
6.1830077 -10.306538 -0.44971609 0.95302963
6.0415821 -10.363823 -0.44886902 0.95311618
5.8998141 -10.419374 -0.44802788 0.95320183
5.4722266 -10.575083 -0.44553241 0.95345646
5.3320704 -10.629335 -0.44496071 0.95351481
5.1936035 -10.686337 -0.44458038 0.95355374
1.8130664 -4.1185641 -0.16837677 0.98214877
1.7513086 -4.1178417 -0.16743407 0.98224777
1.6878809 -4.1114259 -0.16629744 0.98236722
1.623203 -4.0997753 -0.16498815 0.98250484
1.5926172 -4.3379102 -0.17290507 0.981673
3.7934375 -11.194331 -0.44225767 0.95379019
3.5127537 -11.292046 -0.44249099 0.95376658
2.4941211 -11.496821 -0.44018662 0.95400161
2.345957 -11.51021 -0.43953717 0.95406806
2.1993554 -11.529321 -0.43917662 0.95410484
2.0589452 -11.582232 -0.4401722 0.95400327
1.7753026 -11.683481 -0.4421812 0.95379794
1.6320899 -11.731763 -0.44319957 0.95369428
1.3429492 -11.82351 -0.44524944 0.95348513
0.94493163 -9.3678074 -0.3522962 0.96301359
0.69120115 -10.986264 -0.41188928 0.95689392
0.27650389 -10.998305 -0.41165674 0.95691764
0.13824219 -10.998853 -0.41157925 0.95692557
9.7656248e-06 -10.997646 -0.41150177 0.9569335
-0.55212891 -10.975498 -0.41119209 0.95696521
-0.68988281 -10.965605 -0.41111481 0.9569732
-1.1020703 -10.925683 -0.41088364 0.9569968
-1.239043 -10.908936 -0.4108068 0.95700467
-1.3757617 -10.890459 -0.41073012 0.95701253
-1.5122168 -10.870297 -0.41065356 0.95702034
-1.6484179 -10.848437 -0.41057718 0.95702809
-1.7842675 -10.824843 -0.41050097 0.9570359
-1.9198047 -10.799561 -0.41042495 0.95704371
-2.0434375 -9.4194336 -0.36064878 0.96215367
-2.0358202 -8.8462934 -0.33965704 0.96431673
-2.9109764 -8.2478418 -0.32726982 0.96559542
-3.0275195 -8.2463083 -0.32869148 0.96544844
-3.1450779 -8.2447557 -0.33017921 0.96529478
-3.2636914 -8.2431736 -0.33173129 0.9651345
-3.5044336 -8.2399807 -0.3350426 0.96479273
-3.6266601 -8.2383595 -0.33680493 0.96461099
-3.7502148 -8.2367039 -0.33863682 0.96442193
-3.8751171 -8.2350531 -0.34054419 0.96422517
-4.0014453 -8.2333641 -0.34252685 0.96402067
-2.0738182 -4.0076756 -0.16884375 0.98209971
-2.124795 -3.982744 -0.16890539 0.98209327
-4.9318748 -8.2210255 -0.35871565 0.96235251
-5.4343162 -7.8893065 -0.35845104 0.96237981
-5.5408397 -7.8314257 -0.35895672 0.96232772
-5.8339939 -7.8212008 -0.36509481 0.96169603
-6.1373434 -7.8104196 -0.37167704 0.96101922
-6.4518943 -7.7990332 -0.37873122 0.96029407
-6.6136522 -7.7930565 -0.38244846 0.95991242
-3.5448437 -4.0721388 -0.20201303 0.97862107
-3.566787 -3.9948633 -0.20038646 0.9787913
-7.2148438 -7.6830368 -0.39436257 0.95868963
-7.4962597 -7.4026656 -0.39420447 0.95870596
-7.5877147 -7.3069334 -0.39415306 0.95871121
-1.0332617 -0.9461621 -0.052421987 0.99440771
-1.033496 -0.89968747 -0.051270101 0.9945302
-1.033584 -0.87718749 -0.050724447 0.99458838
-1.0336914 -0.85516602 -0.050198514 0.99464434
-1.033789 -0.83358395 -0.049690627 0.99469841
-1.0340918 -0.77135742 -0.048271485 0.99484932
-1.0341699 -0.75137693 -0.047830962 0.99489623
-1.0882519 -0.70997071 -0.04861778 0.99481243
-1.1504102 -0.70996094 -0.05058239 0.99460346
-1.2178808 -0.70996094 -0.052746926 0.99437308
-1.2538183 -0.70996094 -0.053913154 0.99424911
-1.4152734 -0.70997071 -0.059245262 0.99368215
-1.4607812 -0.70996094 -0.060772359 0.99351984
-1.5087109 -0.70998043 -0.062390439 0.99334788
-1.612705 -0.70997071 -0.065932505 0.9929716
-1.6692969 -0.70996094 -0.067875095 0.99276525
-1.7826562 -0.68000972 -0.071389847 0.99239194
-10.927187 -3.7029197 -0.43170348 0.95486772
-12.710488 -3.6063085 -0.49436629 0.94848835
-12.754199 -3.4461327 -0.49434164 0.94849074
-12.795888 -3.2854395 -0.49431807 0.94849312
-12.835606 -3.124248 -0.49429566 0.94849533
-12.942627 -2.6379199 -0.4942351 0.94850159
-12.974248 -2.4749901 -0.49421722 0.94850349
-13.003945 -2.3116698 -0.49420035 0.94850498
-13.080645 -1.819746 -0.49415684 0.94850951
-13.102197 -1.6551952 -0.49414459 0.94851059
-13.139052 -1.3253515 -0.49412352 0.94851291
-13.154424 -1.1601171 -0.49411476 0.94851387
-13.179072 -0.82916015 -0.4941006 0.94851518
-13.188272 -0.6634863 -0.49409527 0.94851583
-13.195537 -0.49768552 -0.49409103 0.94851595
-13.203671 -0.1659375 -0.49408606 0.94851679
-12.301875 0.30923828 -0.4945913 0.95193094
-12.29039 0.6183008 -0.49459738 0.95193028
-12.281757 0.77268553 -0.49460205 0.95192987
-12.271201 0.92697263 -0.49460784 0.95192939
-12.244385 1.2350879 -0.49462253 0.95192808
-12.189893 1.6958106 -0.4946526 0.95192516
-12.118261 2.1542187 -0.4946923 0.95192146
-12.061084 2.4582422 -0.49472401 0.95191842
-12.029677 2.6097069 -0.49474147 0.95191669
-11.996338 2.7607617 -0.49475998 0.95191514
-11.96121 2.9114063 -0.49477953 0.95191312
-11.92417 3.0615916 -0.49480015 0.95191121
-11.801924 3.509326 -0.49486822 0.95190477
-11.757461 3.6575487 -0.49489298 0.95190251
-11.663115 3.9522753 -0.49494559 0.95189738
-11.613213 4.0987597 -0.49497339 0.95189458
-1.7293066 0.70993161 -0.075133167 0.99254447
-1.6692773 0.70994139 -0.072907597 0.99276453
-1.6126952 0.70995116 -0.070820577 0.99297094
-1.5592871 0.70993161 -0.068860509 0.99316478
-1.4152539 0.70992184 -0.063637771 0.99368161
-1.3719531 0.70994139 -0.062087286 0.99383509
-1.2537988 0.70993161 -0.057910461 0.99424857
-1.2178417 0.70993161 -0.056657638 0.99437273
-1.1504004 0.70993161 -0.054332539 0.99460298
-1.0882128 0.70993161 -0.052222632 0.99481207
-1.058916 0.70993161 -0.051239431 0.99490941
-1.033457 0.7508496 -0.051343001 0.99489921
-1.0333691 0.77081054 -0.051815491 0.99485236
-1.0332812 0.79113281 -0.052304953 0.99480385
-1.0331836 0.81186521 -0.052812081 0.9947536
-1.0330957 0.83298826 -0.053337708 0.99470145
-1.0329688 0.85452145 -0.053882293 0.99464762
-1.0324903 0.94543946 -0.05626747 0.99441129
-9.0038671 8.4551849 -0.49643198 0.9517566
-8.8979588 8.5686712 -0.49649128 0.95175105
-8.7906837 8.6809082 -0.49655128 0.95174515
-8.681963 8.791748 -0.49661216 0.95173943
-8.347558 9.1161518 -0.49679932 0.95172173
-8.117939 9.325469 -0.49692786 0.95170951
-7.8831248 9.5290432 -0.49705932 0.95169705
-7.7638083 9.6286716 -0.4971261 0.95169061
-7.6432519 9.7267866 -0.4971936 0.95168418
-7.5214453 9.8233986 -0.49726179 0.9516778
-7.2742186 10.012119 -0.49740022 0.95166463
-7.148818 10.104131 -0.49747047 0.95165813
-7.0223241 10.194658 -0.49754131 0.95165122
-6.7658396 10.370878 -0.49768493 0.95163774
-6.6359763 10.456611 -0.49775767 0.95163077
-6.5050097 10.540723 -0.49783102 0.95162386
-6.3729882 10.623193 -0.49790496 0.95161688
-6.2399216 10.704062 -0.49797949 0.95160973
-6.1058397 10.783232 -0.49805459 0.9516027
-5.8346972 10.936582 -0.49820647 0.95158839
-5.6976657 11.010722 -0.49828327 0.95158118
-5.5597067 11.083183 -0.49836051 0.95157385
-4.9990134 11.355732 -0.49867466 0.95154381
-4.8566895 11.419473 -0.49875441 0.9515363
-4.5696483 11.541621 -0.49891526 0.9515211
-4.2795606 11.65664 -0.4990778 0.9515056
-4.1334276 11.711357 -0.49915969 0.95149803
-3.6909082 11.864756 -0.49940765 0.95147443
-3.3927147 11.957744 -0.49957475 0.95145863
-2.0951855 9.6579685 -0.39720166 0.96120995
-1.8524023 9.7106247 -0.39732715 0.96119803
-1.608291 9.7572365 -0.39745337 0.96118581
-1.3630371 9.7976656 -0.3975803 0.96117377
-1.24 9.8156443 -0.39764395 0.96116751
-0.99326169 9.8468456 -0.39777169 0.96115535
-0.74572265 9.8718548 -0.39789984 0.9611432
-0.49757811 9.8907127 -0.39802843 0.96113074
-0.24896483 9.9032421 -0.39815733 0.96111858
9.7656248e-06 9.9096193 -0.39828643 0.96110606
0.12456054 9.9104395 -0.39835104 0.96109992
0.49821287 9.9035053 -0.39854488 0.96108145
0.7471875 9.8910351 -0.39867404 0.96106917
0.99584961 9.8724022 -0.39880309 0.96105653
1.1199902 9.8606634 -0.39886752 0.96105051
2.460254 16.191074 -0.65822041 0.93654227
5.1489649 8.1134472 -0.38621828 0.96226203
5.8720899 8.0822268 -0.40152502 0.96079618
5.9741111 8.0090036 -0.40158534 0.96079034
6.0751758 7.9344821 -0.40164524 0.96078461
6.175293 7.8586817 -0.40170458 0.96077895
6.2744823 7.7815819 -0.40176353 0.96077341
6.5661621 7.5428414 -0.40193728 0.96075672
6.8486619 7.293066 -0.4021064 0.96074051
7.1215625 7.0326366 -0.40227059 0.96072483
7.2980175 6.8532615 -0.40237719 0.96071452
7.384531 6.7619238 -0.40242964 0.96070939
7.469873 6.6694336 -0.40248144 0.96070451
7.5540428 6.5758786 -0.4025327 0.96069968
7.6370602 6.4812498 -0.4025833 0.96069473
7.7994528 6.2888474 -0.4026826 0.96068519
7.8787594 6.1910644 -0.4027313 0.96068078
7.9568944 6.0922947 -0.40277937 0.96067613
1.2630469 0.91763669 -0.062748447 0.99376965
1.263164 0.89368165 -0.062190857 0.99382478
1.2632519 0.87015623 -0.061652832 0.99387807
1.2633886 0.84702146 -0.061133575 0.99392939
1.2634765 0.82425779 -0.060632475 0.99397904
1.2638476 0.73673826 -0.05879692 0.99416077
1.3307323 0.70993161 -0.060620114 0.99398029
1.3719629 0.70992184 -0.062087249 0.99383509
1.4152637 0.70994139 -0.063637733 0.99368155
1.4607812 0.70993161 -0.065278165 0.99351925
1.6692969 0.70993161 -0.072907716 0.99276447
1.7293066 0.70993161 -0.075133324 0.99254447
1.9337597 0.70993161 -0.08279293 0.99178743
2.0166504 0.68337888 -0.085579798 0.99151218
2.0165234 0.6551953 -0.085218161 0.99154788
12.289951 2.991416 -0.50837851 0.9506247
12.327089 2.8368652 -0.50839955 0.95062268
12.362275 2.6818457 -0.50841939 0.95062065
12.455878 2.2142284 -0.50847244 0.95061564
12.483056 2.0575976 -0.50848782 0.95061433
12.589121 1.2698632 -0.50854814 0.95060861
12.652939 0.1590039 -0.5085851 0.95060503
12.653975 -0 -0.50858587 0.95060492
12.652968 -0.15901367 -0.50858545 0.95060492
12.637753 -0.63580078 -0.50857741 0.95060581
12.617529 -0.95316404 -0.50856644 0.95060676
12.604394 -1.111621 -0.50855923 0.95060742
12.589218 -1.2698926 -0.50855088 0.95060819
12.572001 -1.427959 -0.50854141 0.95060921
12.483173 -2.0576367 -0.50849229 0.95061386
12.455967 -2.2142773 -0.50847715 0.95061529
12.327246 -2.8369238 -0.50840569 0.95062202
12.290146 -2.9914844 -0.50838506 0.95062393
12.12206 -3.6045408 -0.50829142 0.95063287
12.075195 -3.7564061 -0.50826532 0.95063531
2.0167773 -0.71181637 -0.085958444 0.99147481
1.9337792 -0.70996094 -0.082793996 0.99178731
1.8611327 -0.70996094 -0.080060154 0.9920575
1.7293261 -0.70996094 -0.075133935 0.99254435
1.5592968 -0.70997071 -0.068861082 0.99316466
1.5087304 -0.70997071 -0.067016833 0.99334711
1.3719921 -0.70997071 -0.06208786 0.99383485
1.3307519 -0.70997071 -0.060620651 0.99398011
1.2914159 -0.70996094 -0.059230268 0.9941178
1.2639453 -0.71568358 -0.058377761 0.9942022
1.2637597 -0.7581445 -0.059231453 0.99411768
1.2635742 -0.80189449 -0.060148619 0.9940269
1.2633593 -0.84705079 -0.061133232 0.99392945
1.2631543 -0.89371091 -0.062190857 0.99382478
1.2630469 -0.91767573 -0.062748142 0.99376959
7.8806443 -6.1925583 -0.40282592 0.96067154
7.6390328 -6.4829783 -0.40269077 0.96068466
7.5561328 -6.5777049 -0.40264437 0.96068901
7.4719825 -6.6713672 -0.40259728 0.96069354
7.3867188 -6.7639356 -0.40254954 0.96069801
7.2126269 -6.9457226 -0.40245214 0.96070749
7.1239352 -7.0349903 -0.40240249 0.96071202
7.0340915 -7.1230369 -0.40235221 0.9607169
6.8511033 -7.2957029 -0.40224978 0.96072674
6.663867 -7.4636035 -0.40214497 0.96073675
6.27707 -7.7848144 -0.4019284 0.96075743
6.1778708 -7.8619919 -0.40187284 0.96076286
6.1569629 -9.4375486 -0.45289394 0.95589256
6.0271482 -9.497221 -0.45209 0.95596933
4.8887892 -7.9217968 -0.37414169 0.96342027
5.7661524 -9.6116791 -0.45049477 0.95612115
5.503418 -9.7193308 -0.44891444 0.95627165
5.3714647 -9.7706738 -0.44813129 0.95634615
4.9735155 -9.9146137 -0.44581354 0.95656711
4.8402147 -9.9592476 -0.44505039 0.95663983
4.7066793 -10.002221 -0.44429195 0.95671201
1.5785742 -4.1382127 -0.17801279 0.98242569
1.592207 -4.3368649 -0.18568084 0.98167545
3.517246 -10.379263 -0.4404662 0.95707697
3.2519531 -10.45372 -0.44001475 0.95711976
2.7187109 -10.588657 -0.43938386 0.95718008
2.4524512 -10.656651 -0.43950805 0.95716822
2.3176172 -10.683208 -0.43936899 0.95718157
1.9214159 -10.808622 -0.44123191 0.95700395
1.7892382 -10.854887 -0.44216859 0.95691472
1.6562304 -10.899771 -0.44310966 0.95682466
0.9005664 -10.211377 -0.4120059 0.95979345
0.77205074 -10.220098 -0.41193381 0.95980036
0.643457 -10.227207 -0.41186172 0.95980722
0.38611329 -10.236547 -0.41171741 0.95982111
0.12869141 -10.239448 -0.41157305 0.95983481
-0.25720704 -10.231635 -0.41135666 0.9598555
-0.38566405 -10.225801 -0.41128463 0.95986241
-0.51406246 -10.218374 -0.41121259 0.95986921
-0.64230466 -10.209282 -0.41114071 0.95987624
-0.89833981 -10.186392 -0.41099706 0.95988983
-1.0260937 -10.172485 -0.41092545 0.95989686
-1.1536425 -10.15705 -0.41085392 0.9599036
-1.4080273 -10.121294 -0.4107112 0.95991737
-1.5348437 -10.101079 -0.41064006 0.9599241
-1.7875879 -10.055825 -0.41049829 0.95993769
-2.0390429 -10.004331 -0.41035724 0.95995104
-2.0434375 -9.4195356 -0.38739353 0.96214926
-2.0358398 -8.8463182 -0.36484328 0.96431285
-2.0290527 -8.3361425 -0.34482655 0.96623731
-2.2309766 -8.2568798 -0.34375998 0.96634001
-2.4543262 -8.2539301 -0.34609595 0.96611518
-2.7954783 -8.2493992 -0.35007811 0.96573204
-3.3834667 -8.2415867 -0.35807231 0.96496344
-3.5044432 -8.239975 -0.35988691 0.96478897
-3.6266699 -8.2383547 -0.36177874 0.9646073
-4.0014648 -8.2333641 -0.36792502 0.96401685
-4.4411521 -7.8433394 -0.36226633 0.96456045
-4.9664063 -7.8257909 -0.37252432 0.96357536
-5.2404881 -7.8163085 -0.37822363 0.96302843
-5.5230565 -7.8062887 -0.38433677 0.9624424
-5.8149414 -7.7956834 -0.3908866 0.96181458
-6.0722852 -7.7276073 -0.39500332 0.96142036
-6.3566599 -7.4902244 -0.39484358 0.96143562
-3.5448437 -4.0721483 -0.21699254 0.9786188
-3.566787 -3.9948437 -0.2152459 0.97878915
-3.6286621 -3.9627635 -0.2159531 0.97871977
-6.7214746 -7.1576462 -0.39463866 0.96145535
-6.8974805 -6.9847164 -0.39453977 0.96146488
-6.9838672 -6.8966894 -0.39449123 0.96146935
-1.0328614 -0.87656248 -0.054446716 0.99459159
-1.0329492 -0.85457027 -0.053882405 0.99464756
-1.0330664 -0.83299804 -0.053337593 0.9947015
-1.0331836 -0.81188476 -0.052812308 0.99475354
-1.0333788 -0.77083004 -0.051815566 0.9948523
-1.0334766 -0.7508691 -0.051343117 0.99489915
-1.0335644 -0.73126954 -0.050887108 0.99494433
-1.0589062 -0.70997071 -0.051240005 0.99490935
-1.1187109 -0.70996094 -0.053252831 0.99470985
-1.2538183 -0.70997071 -0.057911184 0.99424845
-1.3719727 -0.70997071 -0.062087934 0.99383497
-1.5592773 -0.70996094 -0.068861157 0.99316472
-1.6127148 -0.70996094 -0.070821337 0.99297082
-1.7293066 -0.70996094 -0.075134009 0.99254441
-1.7835547 -0.7061621 -0.077098958 0.99235016
-1.7834862 -0.68034178 -0.076720506 0.99238759
-10.927158 -3.7028906 -0.46371412 0.95486307
-11.377919 -3.6969237 -0.48083442 0.95323628
-11.757666 -3.6576171 -0.49490064 0.95190167
-11.80209 -3.5094042 -0.49487558 0.95190406
-11.885439 -3.2114062 -0.49482852 0.95190847
-11.924345 -3.0616698 -0.49480656 0.9519105
-11.961328 -2.9114451 -0.49478567 0.95191264
-12.061211 -2.4582813 -0.49472919 0.95191789
-12.090733 -2.3064454 -0.49471247 0.9519195
-12.118388 -2.154248 -0.4946968 0.95192099
-12.14415 -2.0017676 -0.49468219 0.9519223
-12.210049 -1.5425 -0.49464473 0.95192587
-12.27124 -0.92699218 -0.49460974 0.95192927
-12.281796 -0.77271485 -0.49460369 0.95192975
-12.290401 -0.6183008 -0.49459869 0.95193022
-12.297109 -0.46381834 -0.49459475 0.95193058
-11.521142 -9.7656248e-06 -0.49502939 0.95492059
-11.520225 0.14475586 -0.49502975 0.95492065
-11.517549 0.28953123 -0.49503112 0.95492041
-11.513066 0.43421873 -0.49503347 0.95492017
-11.498701 0.72342771 -0.49504122 0.95491946
-11.488809 0.86787105 -0.49504662 0.95491904
-11.448447 1.3003223 -0.49506876 0.95491707
-11.412617 1.5876855 -0.49508858 0.95491529
-11.392031 1.7310058 -0.49509996 0.95491427
-11.369687 1.8740722 -0.49511233 0.95491308
-11.319619 2.1593163 -0.49514011 0.9549107
-11.262519 2.4432714 -0.49517184 0.95490777
-11.23125 2.5846777 -0.49518919 0.95490652
-11.163652 2.8663378 -0.4952268 0.95490295
-11.049111 3.2854686 -0.49529061 0.95489728
-10.964063 3.5624316 -0.49533802 0.95489323
-10.919003 3.7001269 -0.49536312 0.95489091
-10.872216 3.8372264 -0.49538919 0.95488864
-1.7842871 0.65508789 -0.081669427 0.99241889
-1.7843261 0.68066406 -0.082057454 0.99238312
-1.729287 0.70993161 -0.080321155 0.9925437
-1.6126952 0.70994139 -0.075710408 0.99297017
-1.5087011 0.70993161 -0.07164333 0.99334651
-1.4607714 0.70994139 -0.069785267 0.99351847
-1.4152539 0.70993161 -0.068031617 0.99368089
-1.3719531 0.70994139 -0.066374317 0.99383438
-1.3307129 0.70994139 -0.064805642 0.99397963
-1.2913769 0.70994139 -0.063319206 0.99411732
-1.2537988 0.70993161 -0.061909102 0.99424791
-1.1833886 0.70993161 -0.059296113 0.99449015
-1.1187011 0.70994139 -0.05692932 0.99470931
-1.0882128 0.70993161 -0.055828206 0.99481148
-1.058916 0.70993161 -0.054777488 0.99490881
-1.0327734 0.750332 -0.054851111 0.99490207
-1.0326855 0.77028316 -0.055355605 0.99485523
-1.0323437 0.83240235 -0.056980629 0.99470466
-1.0322266 0.85392576 -0.057562027 0.99465078
-1.0321289 0.87589842 -0.058164481 0.99459487
-1.0319824 0.89834958 -0.058789253 0.99453706
-1.0318652 0.92127925 -0.05943672 0.99447703
-8.4278316 7.9142575 -0.4967556 0.95476705
-8.2281342 8.1253805 -0.49686733 0.95475709
-8.0231838 8.3314943 -0.49698204 0.95474696
-7.9187984 8.4326658 -0.49704048 0.95474172
-7.5980954 8.7282906 -0.49721998 0.95472568
-7.4887204 8.8241501 -0.49728122 0.95472032
-7.2664647 9.0118256 -0.49740568 0.95470911
-7.1535449 9.1035833 -0.49746889 0.95470351
-7.0394726 9.1939154 -0.49753276 0.95469791
-6.5720997 9.5410347 -0.49779448 0.95467454
-6.3319626 9.705781 -0.49792895 0.95466268
-6.2103515 9.7859173 -0.49799705 0.9546566
-5.9641013 9.9416409 -0.49813497 0.95464438
-5.713994 10.091221 -0.49827507 0.95463192
-5.5875192 10.163671 -0.49834591 0.95462567
-5.2027345 10.371552 -0.49856147 0.95460635
-4.9419041 10.50208 -0.49870762 0.95459342
-4.8102832 10.564932 -0.49878135 0.9545868
-4.6778221 10.626122 -0.49885553 0.95458019
-4.5445995 10.685664 -0.49893019 0.95457357
-4.0044041 10.907128 -0.49923286 0.95454663
-3.8676074 10.958252 -0.49930954 0.9545399
-3.7301855 11.007647 -0.49938655 0.95453316
-3.592119 11.0554 -0.49946392 0.95452613
-2.1860645 8.9811525 -0.39715958 0.96366882
-1.9602343 9.0358686 -0.39727613 0.96365845
-1.2751563 9.1660643 -0.39763054 0.9636265
-1.1600391 9.1827145 -0.39769015 0.96362126
-1.0447265 9.1979685 -0.3977499 0.96361583
-0.81348634 9.224062 -0.3978698 0.96360517
-0.58158201 9.2444038 -0.39799011 0.96359432
-0.46545896 9.2523823 -0.39805037 0.96358889
-0.34921876 9.2589064 -0.39811078 0.96358347
-0.11647461 9.2675581 -0.39823169 0.96357268
0.1165039 9.2703705 -0.39835283 0.96356183
0.23301758 9.269599 -0.39841345 0.96355635
0.46602538 9.2636328 -0.39853477 0.96354544
0.69889647 9.2517967 -0.39865607 0.96353459
0.93145508 9.2341404 -0.39877731 0.96352363
1.0475879 9.223115 -0.39883789 0.96351814
1.163584 9.2106247 -0.39889842 0.96351272
1.2794238 9.19666 -0.39895889 0.96350735
1.3950976 9.1812496 -0.39901936 0.96350187
1.5105566 9.1643066 -0.39907759 0.96349674
1.6258692 9.1460743 -0.39914107 0.96349102
3.6912107 19.349863 -0.84640372 0.92416203
5.1422262 23.703554 -1.0421634 0.90745693
5.7381153 23.574423 -1.0424976 0.90742856
6.034873 23.50415 -1.0426641 0.90741473
6.3307614 23.430254 -1.0428307 0.90740043
6.9241796 23.286024 -1.0438265 0.90731609
7.2254491 23.226719 -1.0451576 0.90720367
7.5263181 23.163525 -1.046486 0.90709126
7.8266892 23.096357 -1.0478117 0.9069792
8.1265326 23.025194 -1.0491372 0.90686744
4.5963087 8.1173334 -0.40080923 0.96334118
4.6986618 8.0601263 -0.40086898 0.96333587
4.8002734 8.0016212 -0.40092841 0.96333057
5.0013185 7.8807907 -0.40104616 0.96331996
5.1006837 7.8184566 -0.40110451 0.96331471
5.1992869 7.7548828 -0.40116242 0.96330947
5.2970896 7.6900096 -0.40121996 0.96330434
5.5855274 7.4880857 -0.40139028 0.96328908
5.6799707 7.4183397 -0.40144625 0.96328408
5.8662109 7.2752633 -0.40155682 0.96327412
5.9579782 7.2019529 -0.40161139 0.96326923
6.2276659 6.9750586 -0.40177229 0.96325487
6.3156543 6.8971481 -0.40182498 0.96325016
6.4887009 6.7380176 -0.40192881 0.96324068
6.6576266 6.5744824 -0.40203056 0.96323168
6.9032421 6.3212204 -0.40217918 0.96321833
6.9829979 6.234746 -0.40222758 0.96321386
7.0615916 6.1472068 -0.40227544 0.96320975
7.1391501 6.0587106 -0.40232271 0.9632054
7.2155566 5.9692087 -0.40236941 0.96320122
7.2908301 5.8787303 -0.40241554 0.96319711
7.4379492 5.6949511 -0.4025059 0.96318889
1.2620898 0.9413867 -0.067652166 0.993716
1.2624218 0.86958981 -0.065866165 0.9938814
1.2627538 0.80134761 -0.064260215 0.99403012
1.2630469 0.73626953 -0.062817074 0.99416381
1.2914063 0.70992184 -0.063319318 0.99411726
1.4607714 0.70994139 -0.069785304 0.99351847
1.6127148 0.70993161 -0.075710788 0.99297011
1.6692969 0.70993161 -0.077941626 0.99276364
1.7931347 0.70994139 -0.082863919 0.99230838
2.0189159 0.7125293 -0.091991156 0.99146485
2.0187793 0.68408203 -0.091585428 0.99150229
2.0186327 0.6558789 -0.091198042 0.99153811
11.329062 3.3687205 -0.50783932 0.95378137
11.449531 2.9397266 -0.50790733 0.95377523
11.486006 2.7957225 -0.50792789 0.9537735
11.553486 2.5063868 -0.50796604 0.95377016
11.584492 2.3611035 -0.50798362 0.95376855
11.666299 1.9229687 -0.50802994 0.9537645
11.749287 1.334502 -0.50807709 0.95376021
11.779531 1.0388477 -0.50809437 0.95375866
11.802236 0.7425195 -0.50810742 0.95375741
11.810722 0.59416014 -0.50811237 0.95375705
11.817305 0.44569334 -0.50811619 0.95375687
11.822041 0.29717773 -0.50811905 0.95375663
11.824912 0.14859375 -0.50812078 0.95375633
11.82585 -9.7656248e-06 -0.50812149 0.95375633
11.824903 -0.14862305 -0.50812107 0.95375639
11.817344 -0.44573241 -0.50811714 0.95375675
11.810791 -0.59416991 -0.50811368 0.95375681
11.802226 -0.74253905 -0.50810903 0.95375746
11.791816 -0.890791 -0.50810331 0.953758
11.779511 -1.0388671 -0.50809664 0.95375872
11.689931 -1.7763085 -0.50804716 0.95376295
11.640996 -2.0693848 -0.50801998 0.95376533
11.613701 -2.2154491 -0.50800484 0.95376676
11.553613 -2.5064452 -0.50797147 0.95376968
11.520801 -2.6513183 -0.50795323 0.95377123
11.449648 -2.939785 -0.50791365 0.95377475
11.411318 -3.0833008 -0.50789231 0.95377666
11.371191 -3.2263184 -0.50786996 0.95377856
11.329228 -3.368789 -0.50784659 0.95378065
11.285429 -3.5107129 -0.50782216 0.95378292
2.0187597 -0.68413085 -0.091585688 0.99150234
2.0189159 -0.71257812 -0.091991119 0.99146479
1.9337597 -0.70998043 -0.088510782 0.99178642
1.8611523 -0.70996094 -0.085588112 0.99205649
1.7931445 -0.70996094 -0.082864873 0.99230832
1.6693066 -0.70995116 -0.077942237 0.99276358
1.6127441 -0.70995116 -0.075711474 0.99296993
1.5087206 -0.70996094 -0.07164406 0.99334639
1.4608008 -0.70995116 -0.069786072 0.99351835
1.4152832 -0.70997071 -0.06803257 0.99368072
1.2914159 -0.70996094 -0.063320003 0.99411714
1.2631249 -0.71523434 -0.062369306 0.99420524
1.2630469 -0.73630857 -0.062817 0.99416369
1.2628515 -0.77936524 -0.063761711 0.99407619
1.2627636 -0.80137694 -0.064260289 0.99403
1.2626562 -0.82374996 -0.064776383 0.9939822
1.2624414 -0.86959958 -0.06586609 0.99388129
1.2623242 -0.89311522 -0.06644062 0.99382812
6.9846873 -6.2362595 -0.40232357 0.9632051
6.8241992 -6.4083591 -0.40223372 0.96321332
6.5755177 -6.6586914 -0.40209457 0.96322596
6.4905953 -6.7400193 -0.40204704 0.96323007
6.3176465 -6.8993258 -0.40195021 0.96323878
6.1407418 -7.0541797 -0.40185118 0.96324766
6.050869 -7.1299119 -0.40180087 0.96325213
5.9600391 -7.2044625 -0.40174997 0.96325672
5.8683004 -7.2778611 -0.40169865 0.96326125
5.3961816 -7.6269531 -0.40143427 0.96328503
5.2013669 -7.7580271 -0.40132517 0.96329492
5.1027927 -7.8217087 -0.40126994 0.96329975
4.8887987 -7.9218063 -0.39997604 0.9634161
5.2795701 -9.0566597 -0.45043251 0.95889723
4.7865233 -9.2499266 -0.44749999 0.95915902
4.6623731 -9.2943602 -0.44678101 0.95922345
4.4131641 -9.3784523 -0.44535229 0.95935136
1.8666894 -4.0998926 -0.1935598 0.98212564
1.7502344 -4.1153321 -0.19215001 0.98225462
1.686914 -4.1090527 -0.19085254 0.98237342
1.622041 -4.0968065 -0.18932287 0.98251355
3.4309666 -9.7211523 -0.44294155 0.95956671
3.3068945 -9.7586126 -0.44272062 0.9595865
3.1824803 -9.7946482 -0.44250441 0.95960569
3.0576952 -9.8292141 -0.44229773 0.95962441
2.3026464 -10.005776 -0.44115674 0.95972627
2.1782031 -10.040601 -0.44145292 0.95969999
2.0551171 -10.083222 -0.44215545 0.95963711
1.8069335 -10.164595 -0.44358861 0.95950866
1.4296875 -10.276816 -0.44581372 0.95930958
0.99460936 -7.8732128 -0.34097758 0.96872699
0.60185546 -9.5660791 -0.4118377 0.96235168
1.953125e-05 -9.577158 -0.41150019 0.96238184
-0.24057616 -9.5709858 -0.41136527 0.962394
-0.60083985 -9.5503902 -0.41116324 0.96241224
-0.72070312 -9.540556 -0.41109604 0.96241814
-0.84039062 -9.5291843 -0.41102889 0.96242416
-1.0792481 -9.5019875 -0.41089493 0.96243608
-1.6723828 -9.4078169 -0.41056219 0.96246606
-1.9076562 -9.3598146 -0.41043022 0.96247786
-2.0358593 -8.846406 -0.39003891 0.96430844
-2.3422656 -8.2553949 -0.36871046 0.96622682
-2.4894726 -8.0026264 -0.3601025 0.96700215
-3.455996 -7.8506737 -0.36855865 0.96624053
-3.5728319 -7.8471384 -0.37047046 0.96606833
-3.6908789 -7.8435254 -0.37246099 0.96588922
-3.8101757 -7.8398046 -0.3745282 0.96570319
-2.0738378 -4.0076952 -0.19388628 0.98209566
-2.1248047 -3.982744 -0.19395669 0.98208928
-4.4277635 -7.8196874 -0.38611111 0.96466136
-4.5559373 -7.8153124 -0.38869202 0.96442944
-4.9339256 -7.7746091 -0.39564171 0.96380508
-5.0305271 -7.7109275 -0.39558744 0.96381003
-5.126328 -7.6460738 -0.39553368 0.96381485
-5.2212892 -7.580029 -0.39548033 0.96381968
-5.3154492 -7.5128317 -0.39542747 0.96382427
-5.4086914 -7.4444432 -0.39537513 0.9638291
-5.6832418 -7.2325096 -0.39522094 0.96384281
-5.8616991 -7.0855761 -0.39512074 0.96385193
-3.6286621 -3.9627831 -0.23087525 0.97871727
-6.2911816 -6.6994333 -0.39487946 0.96387362
-6.4560547 -6.5377049 -0.39478683 0.96388185
-6.6167774 -6.3719139 -0.39469653 0.96389008
-6.6955762 -6.2875681 -0.39465225 0.96389401
-1.0318457 -0.9212988 -0.05943653 0.99447703
-1.0321192 -0.87592769 -0.058164597 0.99459481
-1.0322363 -0.85396481 -0.057561874 0.99465066
-1.0323535 -0.83241206 -0.056980513 0.9947046
-1.0325781 -0.79062498 -0.055878028 0.99480671
-1.032666 -0.77030271 -0.055355605 0.99485523
-1.0327538 -0.75036132 -0.054851111 0.99490207
-1.0328614 -0.73079097 -0.054364204 0.99494714
-1.0589062 -0.70998043 -0.054778058 0.99490875
-1.1834179 -0.70995116 -0.05929653 0.99448997
-1.2178417 -0.70996094 -0.06057018 0.99437201
-1.3307323 -0.70998043 -0.06480629 0.99397951
-1.3719727 -0.70997071 -0.066374816 0.99383426
-1.5087206 -0.70996094 -0.071644209 0.99334639
-1.6692773 -0.70996094 -0.077942312 0.9927637
-1.7842871 -0.65508789 -0.081669688 0.99241889
-10.505293 -3.7077539 -0.47867054 0.95637733
-10.964268 -3.5625098 -0.49534547 0.9548924
-11.049257 -3.285537 -0.49529752 0.95489669
-11.127315 -3.0065625 -0.49525344 0.95490074
-11.231377 -2.5847168 -0.49519464 0.95490599
-11.319736 -2.1593554 -0.49514464 0.95491022
-11.369746 -1.8741113 -0.49511629 0.95491284
-11.412724 -1.5877148 -0.49509189 0.95491487
-11.463711 -1.1563574 -0.49506286 0.95491773
-11.49872 -0.72343749 -0.49504274 0.9549194
-11.513085 -0.43423828 -0.4950344 0.95492011
-11.520264 -0.14477539 -0.49503005 0.95492047
-10.8271 0.27214843 -0.49541831 0.95755953
-10.816973 0.5441699 -0.49542367 0.95755905
-10.809326 0.68004882 -0.49542785 0.95755887
-10.800058 0.81583983 -0.49543288 0.95755833
-10.776406 1.0870117 -0.49544585 0.95755732
-10.762109 1.222373 -0.49545375 0.95755655
-10.687949 1.7617188 -0.49549475 0.95755321
-10.665235 1.8959179 -0.49550733 0.95755219
-10.557763 2.4296875 -0.49556705 0.95754725
-10.526787 2.5622559 -0.49558425 0.9575457
-10.49416 2.6944335 -0.4956024 0.95754409
-10.423955 2.9575391 -0.4956415 0.95754081
-1.6692773 0.70994139 -0.082976796 0.9927628
-1.6126952 0.70994139 -0.080601692 0.99296927
-1.5592675 0.70993161 -0.078370854 0.99316323
-1.5087011 0.70993161 -0.076272011 0.99334574
-1.4152343 0.70994139 -0.072426602 0.99368012
-1.3719629 0.70994139 -0.070662193 0.99383354
-1.2537988 0.70993161 -0.065908663 0.99424726
-1.1503808 0.70993161 -0.061836433 0.99460173
-1.1187011 0.70994139 -0.060607299 0.99470866
-1.0588964 0.70994139 -0.058316305 0.99490821
-1.0322851 0.71103513 -0.057337873 0.99499345
-1.0321777 0.73027343 -0.057837676 0.99494994
-1.0319824 0.76974607 -0.058891676 0.99485815
-1.0315039 0.85333008 -0.061237372 0.99465388
-7.8276658 7.5380077 -0.49709255 0.95741928
-7.7331443 7.6365523 -0.49714544 0.95741493
-7.5404296 7.830195 -0.4972533 0.95740587
-7.3429003 8.0189943 -0.49736384 0.95739663
-7.2423925 8.1115522 -0.4974201 0.95739186
-7.0378709 8.2929096 -0.49753463 0.95738226
-6.9339161 8.3816595 -0.49759281 0.95737743
-6.7226853 8.5553122 -0.49771109 0.95736748
-6.615459 8.6401367 -0.49777111 0.95736247
-6.2874217 8.886611 -0.49795479 0.9573471
-6.1760545 8.9660549 -0.49801719 0.95734179
-6.0636325 9.0440912 -0.49808013 0.9573366
-5.7206836 9.2697849 -0.49827221 0.95732039
-5.4873533 9.4130955 -0.49840289 0.95730942
-5.2504587 9.5505657 -0.49853557 0.95729834
-5.0101461 9.6820898 -0.49867019 0.95728713
-4.7665625 9.8076458 -0.49880669 0.95727557
-4.0176172 10.147314 -0.4992263 0.95724058
-3.8903515 10.198496 -0.49929759 0.95723444
