# .PCD v0.7 - Point Cloud Data file format
VERSION 0.7
FIELDS x y z intensity
SIZE 4 4 4 4
TYPE F F F F
COUNT 1 1 1 1
WIDTH 1093
HEIGHT 1
VIEWPOINT 0 0 0 1 0 0 0
POINTS 1093
DATA ascii
-1.1005371 -0.77864254 0.09164501 0.99460959
-1.0999805 -0.75768554 0.09079773 0.99465925
-1.0994238 -0.73710936 0.089980923 0.99470723
-1.1187109 -0.70995116 0.090068392 0.99470198
-1.1504102 -0.70994139 0.091895409 0.99459481
-1.1834277 -0.70994139 0.093812905 0.99448234
-1.3307421 -0.70993161 0.10252983 0.99397123
-1.3719823 -0.70993161 0.10501144 0.99382579
-1.4152734 -0.70993161 0.10763378 0.99367207
-1.5087206 -0.70994139 0.11334785 0.99333727
-1.612705 -0.70993161 0.11978267 0.99296045
-1.6892382 -0.71841794 0.12478554 0.99266744
-1.6897753 -0.69371092 0.12417243 0.99270338
-1.6903319 -0.66922849 0.12358349 0.99273777
-1.6127245 0.70995116 0.11487949 0.99296165
-1.4152734 0.70996094 0.1032278 0.99367321
-1.3307421 0.70996094 0.098332934 0.9939723
-1.2913867 0.70995116 0.096077345 0.99411023
-1.0963281 0.71524411 0.085342102 0.99476659
-1.1002831 0.86458981 0.091229744 0.99440646
-6.7173824 10.884853 0.83390152 0.95002061
1.5852636 4.491611 0.31053624 0.98108804
1.6335645 4.4494724 0.30901819 0.98117965
5.8812013 8.3125877 0.66386628 0.96000451
5.8787789 8.0915432 0.65206188 0.96070147
6.5036817 8.0659666 0.67551363 0.95931727
6.6711426 8.0641108 0.68232816 0.95891553
1.3428028 0.95005858 0.10724056 0.99342805
1.3415136 0.89942384 0.10529792 0.99354672
1.3403027 0.85058594 0.10349243 0.99365705
1.3397266 0.82678711 0.10263805 0.99370927
1.3391796 0.80338866 0.10181419 0.99375957
1.3381152 0.75769532 0.10025532 0.99385494
1.3719727 0.70996094 0.10071274 0.99382687
1.4607812 0.70995116 0.10588893 0.99351072
1.7293261 0.70995116 0.1218753 0.99253458
1.7931055 0.70996094 0.12573399 0.99229926
1.9023535 -0.67141598 0.13152462 0.99194604
1.9018652 -0.69823241 0.13208626 0.99191171
1.6127148 -0.70994139 0.11487911 0.99296165
1.5087304 -0.70994139 0.10870781 0.99333847
1.460791 -0.70992184 0.1058884 0.99351072
1.3371582 -0.71337891 0.098808169 0.99394333
1.3376563 -0.73535156 0.09951809 0.99389988
1.3381348 -0.75768554 0.10025509 0.99385488
1.3386524 -0.78035152 0.10102013 0.99380809
1.3391699 -0.80337888 0.10181411 0.99375963
1.3402832 -0.85056639 0.10349251 0.99365711
1.3415039 -0.89940429 0.10529823 0.99354678
1.3421191 -0.92448241 0.10625149 0.99348861
1.342793 -0.95003903 0.10724068 0.99342817
4.0569825 -8.0874805 0.58989543 0.96438098
3.9298828 -8.0860834 0.58614439 0.96460336
3.5578516 -8.0819721 0.57570988 0.96522242
3.4366992 -8.0806246 0.57249337 0.96541339
3.1381054 -8.2265139 0.57403475 0.9653219
-7.2936912 -15.499834 1.1167018 0.93363833
-6.9745507 -9.1091261 0.74796414 0.95505357
-6.8743944 -8.3096972 0.70311171 0.95769095
-7.6411524 -8.3446922 0.7376669 0.9556585
-1.1009179 -0.88768554 0.092201039 0.99434716
-1.0984765 -0.79806638 0.088520736 0.99457216
-1.0973437 -0.75586915 0.08687336 0.99467301
-1.096836 -0.73538083 0.086093634 0.99472058
-1.0963379 -0.71524411 0.085342102 0.99476653
-1.2178711 -0.70996094 0.091905132 0.99436516
-1.2914063 -0.70994139 0.096077345 0.99411017
-1.4152734 -0.70993161 0.10322803 0.99367326
-1.460791 -0.70993161 0.10588871 0.99351066
-1.5087206 -0.70994139 0.10870796 0.99333847
-1.5593066 -0.70994139 0.11169994 0.99315572
-1.694082 -0.6954785 0.11939228 0.99268621
-1.6945899 -0.6709277 0.11882473 0.99272084
-1.6993555 0.64825195 0.11351974 0.99273711
-1.6984081 0.69725585 0.11458991 0.99266887
-1.6127245 0.70995116 0.10997821 0.99296284
-1.5592871 0.70996094 0.10693401 0.99315697
-1.5087304 0.70995116 0.10407005 0.9933396
-1.460791 0.70996094 0.10137103 0.9935118
-1.4152734 0.70996094 0.098823659 0.99367434
-1.3307421 0.70996094 0.094137534 0.99397337
-1.2913867 0.70995116 0.091978297 0.99411124
-1.2537891 0.70996094 0.089929655 0.99424207
-1.1503808 0.70997071 0.084373549 0.99459684
-1.0947363 0.75410157 0.082969092 0.99468648
-1.0952636 0.77492183 0.083739661 0.99463725
-1.0975293 0.86243165 0.087119289 0.99442142
-1.0981543 0.88545895 0.088044509 0.99436229
-6.7172947 10.884706 0.79831022 0.95002985
1.6335645 4.4494724 0.29583293 0.98118293
6.0204687 8.0713081 0.62846768 0.96044761
6.1785254 8.0695705 0.63432711 0.96008623
6.3395309 8.0677929 0.64040035 0.95971197
6.842031 8.0622358 0.65997356 0.95850646
1.3395703 0.9477734 0.10241878 0.99344498
1.3389453 0.92230469 0.10147644 0.99350506
1.3377441 0.87274414 0.099691845 0.99361897
1.3371875 0.84861326 0.098847233 0.99367285
1.3361034 0.80156249 0.097247921 0.99377495
1.3355957 0.77860349 0.09649162 0.99382323
1.3351269 0.75599605 0.095762476 0.99386972
1.334209 0.71181637 0.094383009 0.9939577
1.3719727 0.70995116 0.096416168 0.993828
1.5087206 0.70996094 0.10407013 0.99333966
1.6692969 0.70997071 0.11321887 0.99275625
1.7293261 0.70994139 0.11667534 0.99253595
1.7931055 0.70996094 0.12036922 0.99230063
1.9065918 0.69999021 0.1267646 0.99189311
1.906582 -0.69997066 0.12676457 0.99189317
1.7931151 -0.70992184 0.12036903 0.99230063
1.6127148 -0.70995116 0.10997783 0.9929629
1.5592871 -0.70995116 0.1069339 0.99315697
1.460791 -0.70992184 0.10137096 0.99351186
1.3346386 -0.73373044 0.095059663 0.9939146
1.3356054 -0.77859372 0.096491545 0.99382323
1.3371972 -0.84860349 0.098847307 0.99367285
1.3377539 -0.87273437 0.099691808 0.99361897
1.3383496 -0.89728516 0.10056797 0.99356306
1.3389453 -0.92229491 0.10147648 0.99350512
8.2592087 -8.156045 0.72447968 0.9545449
8.2569532 -8.3613281 0.73343855 0.95399582
4.0569825 -8.0874805 0.56472743 0.96438712
3.1983202 -8.0780077 0.54226321 0.96577913
-2.6603124 -4.1919532 0.30987644 0.98029864
-2.7489648 -4.2136817 0.31401187 0.9800384
-6.8216696 -8.4602194 0.67830795 0.95737886
-6.8624802 -8.2952929 0.671947 0.95777005
-7.5354199 -8.4397268 0.70616424 0.95566779
-1.0987988 -0.90899414 0.089004785 0.99430096
-1.0975195 -0.8624121 0.087119214 0.99442148
-1.0969336 -0.83986324 0.086227261 0.9944784
-1.0952636 -0.77491212 0.083739549 0.99463731
-1.0947363 -0.75408202 0.082969092 0.99468654
-1.0937696 -0.71355468 0.081510045 0.99477971
-1.2538183 -0.70994139 0.089929581 0.99424201
-1.2914063 -0.70994139 0.091977991 0.99411118
-1.3719823 -0.70993161 0.096415706 0.993828
-1.460791 -0.70993161 0.10137081 0.99351186
-1.5087206 -0.70994139 0.10406998 0.99333966
-1.6979101 -0.72210938 0.11515888 0.99263257
-1.6983984 -0.69724607 0.11459003 0.99266893
-1.6988964 -0.67263669 0.11404369 0.99270368
-1.7032129 0.67436522 0.10924 0.99268645
-1.5592871 0.70996094 0.10216999 0.9931581
-1.460791 0.70996094 0.096854664 0.99351287
-1.4152734 0.70996094 0.094420962 0.99367535
-1.3307226 0.70997071 0.089943275 0.99397445
-1.1503808 0.70997071 0.080614775 0.99459773
-1.1186913 0.70997071 0.079011686 0.99470478
-1.0931641 0.79421872 0.080577426 0.99460018
-1.0936816 0.81580079 0.08136528 0.99454749
-1.0942187 0.83782226 0.082182847 0.99449289
-1.0947851 0.8602832 0.083030544 0.99443626
-1.0966308 0.93067378 0.085770644 0.9942531
1.6335645 4.4494724 0.2826536 0.98118609
5.8812013 8.3125877 0.60722727 0.96001804
6.0204687 8.0713081 0.60046846 0.96045417
6.1785254 8.0695705 0.60606599 0.96009284
6.3395309 8.0677929 0.61186832 0.95971864
6.6711426 8.0641212 0.62411243 0.95892942
6.842031 8.0622358 0.63057083 0.95851332
1.3363769 0.94551754 0.097621575 0.99346167
1.3351758 0.89519531 0.095861509 0.99357927
1.3346288 0.87071288 0.095028646 0.99363488
1.3325976 0.77685547 0.09198463 0.99383807
1.3321484 0.75430661 0.091291271 0.99388438
1.3316895 0.73210937 0.090622865 0.99392903
1.3312695 0.71023434 0.089979135 0.993972
1.3719727 0.70995116 0.092120588 0.99382901
1.4607812 0.70995116 0.096854739 0.99351293
1.5087206 0.70996094 0.099433519 0.99334073
1.5592968 0.70996094 0.10216991 0.9931581
1.7293261 0.70995116 0.11147743 0.99253714
1.9117968 0.67475587 0.1208992 0.99190897
1.9122363 0.64800781 0.12040264 0.99194211
1.9122461 -0.64799803 0.12040272 0.99194205
1.9113476 -0.70170897 0.12141819 0.9918744
1.7931151 -0.70992184 0.11500633 0.99230194
1.5592871 -0.70995116 0.10216965 0.9931581
1.5087304 -0.70994139 0.099433057 0.99334073
1.3719823 -0.70993161 0.092120282 0.99382901
1.3312597 -0.71023434 0.089979209 0.99397206
1.3316991 -0.73209959 0.090622783 0.99392903
1.3321484 -0.75428706 0.091291271 0.99388438
1.3330859 -0.79971677 0.092704274 0.99379009
1.3335742 -0.82298827 0.093450852 0.99374026
8.4486818 -8.1360254 0.69945705 0.95408708
8.2592182 -8.1560354 0.69220167 0.95455241
8.2569532 -8.3613281 0.70076275 0.95400339
3.8043749 -8.0847073 0.53283167 0.96482956
3.5578516 -8.0819826 0.52659184 0.96523416
3.1381152 -8.2265425 0.52506077 0.96533352
-7.5899997 -22.3979 1.4102681 0.90958762
-7.2936912 -15.499834 1.0216638 0.93366045
-2.6743457 -4.3334665 0.30366892 0.9798016
-2.6481445 -4.1727734 0.29471636 0.98039114
-2.7291698 -4.18332 0.29786053 0.98018408
-2.8139648 -4.1970997 0.30133495 0.9799552
-6.8082223 -8.4435301 0.64680982 0.95746815
-6.8571677 -8.288867 0.64151335 0.95780903
-7.0287595 -8.2821436 0.64777756 0.95740592
-7.5198145 -8.4222651 0.67330885 0.95576477
-1.0960058 -0.90666991 0.084823534 0.9943164
-1.0947949 -0.86026365 0.083030626 0.99443626
-1.0942285 -0.83781248 0.082182653 0.99449289
-1.0926465 -0.7730664 0.079817429 0.99465096
-1.0912207 -0.71190429 0.077697106 0.9947927
-1.1504102 -0.70994139 0.080614276 0.99459767
-1.2538183 -0.70994139 0.085923076 0.99424297
-1.2914063 -0.70994139 0.087880321 0.99411219
-1.3719823 -0.70993161 0.092120282 0.99382901
-1.4152734 -0.70993161 0.094420582 0.99367541
-1.612705 -0.70993161 0.10507839 0.99296415
-1.7032226 -0.67434567 0.10924003 0.99268639
-1.7079883 0.65154296 0.10393112 0.99270278
-1.7071191 0.70083982 0.10491619 0.99263382
-1.7066211 0.72583985 0.10543934 0.99259728
-1.6127245 0.70995116 0.10018016 0.99296516
-1.5592871 0.70996094 0.097407565 0.99315923
-1.5087304 0.70995116 0.09479858 0.9933418
-1.460791 0.70996094 0.09233997 0.99351394
-1.3719629 0.70995116 0.087826304 0.99383008
-1.3307421 0.70996094 0.085750766 0.99397534
-1.2913867 0.70995116 0.083783798 0.99411321
-1.1503808 0.70997071 0.076856762 0.99459863
-1.1186913 0.70997071 0.075328901 0.99470568
-1.0891407 0.73019528 0.074549675 0.99476027
-1.0895703 0.75051755 0.075220257 0.99471331
-1.0900195 0.77122068 0.075914994 0.99466461
-1.0910156 0.81381834 0.077383727 0.99456161
-1.0932031 0.90438473 0.080664329 0.99433172
-1.0944238 0.95273435 0.082495689 0.99420339
-6.7171092 10.884384 0.72716808 0.95004737
1.5852636 4.491611 0.27080128 0.98109758
1.6335645 4.4494724 0.26947781 0.98118907
6.3395309 8.0677929 0.58334613 0.95972502
6.5037012 8.0659761 0.58907884 0.95933741
6.6711521 8.0641212 0.59502047 0.95893586
1.3331835 0.94325191 0.092849001 0.9934783
1.3326074 0.9179492 0.091998748 0.99353784
1.3320606 0.89309567 0.091178969 0.99359524
1.3310254 0.84470701 0.089626119 0.99370396
1.3300586 0.79792964 0.088182718 0.99380505
1.3287402 0.73047853 0.086207084 0.99394345
1.3307323 0.70995116 0.085750766 0.9939754
1.3719727 0.70996094 0.087826386 0.99383003
1.4607812 0.70995116 0.092339821 0.993514
1.5087206 0.70996094 0.094798505 0.9933418
1.5592968 0.70996094 0.097407341 0.99315917
1.7293261 0.70995116 0.10628105 0.99253833
1.7931055 0.70996094 0.10964558 0.99230313
1.861123 0.70995116 0.11324897 0.99205112
18.401592 4.479043 1.0767407 0.92692947
1.9169629 -0.64958984 0.11507412 0.99192357
1.861123 -0.70994139 0.11324848 0.99205118
1.7931151 -0.70992184 0.10964523 0.99230319
1.6692871 -0.70994139 0.10313194 0.99275869
1.6127148 -0.70994139 0.10018016 0.99296522
1.460791 -0.70992184 0.092339739 0.993514
1.4152637 -0.70994139 0.090019494 0.99367648
1.3719823 -0.70993161 0.087826081 0.99383003
1.3287402 -0.73047853 0.086207233 0.99394345
1.3296094 -0.77507812 0.08749973 0.99385291
1.3305469 -0.82110351 0.088891298 0.99375546
1.3310351 -0.84469724 0.08962623 0.99370396
1.3331835 -0.94324219 0.092849232 0.9934783
9.1207809 -8.1434565 0.69516277 0.95219272
8.8904877 -8.1408987 0.68535519 0.95285118
8.6665821 -8.1384277 0.67592388 0.95348459
8.2592287 -8.1560354 0.65993452 0.9545595
3.8043749 -8.0847073 0.50799352 0.96483511
3.5578516 -8.0819826 0.50204563 0.9652397
3.1381249 -8.2265425 0.50058544 0.965339
0.39854491 -7.9221387 0.450973 0.96871978
0.19908203 -7.9196386 0.45040378 0.9687587
0.09951172 -7.9183884 0.45022684 0.9687708
-1.953125e-05 -7.9171386 0.45012012 0.96877807
-0.29848632 -7.9134374 0.45022938 0.96877062
-0.39805663 -7.9121871 0.45040622 0.96875846
-0.49773437 -7.9109373 0.45065629 0.96874148
-0.59751952 -7.9096971 0.4509778 0.96871948
-0.99859375 -7.9046874 0.45298359 0.96858257
-7.58957 -22.396669 1.3444535 0.90960628
-7.2936912 -15.499824 0.97394806 0.93367082
-2.6548533 -4.3019137 0.28740504 0.97995043
-6.8274217 -8.4673243 0.61839676 0.95735759
-7.3708982 -8.6852875 0.64764249 0.95538658
-7.5127048 -8.4142971 0.64131635 0.95581263
-1.0944335 -0.95270509 0.082495689 0.99420345
-1.093789 -0.9282617 0.081562839 0.99426889
-1.0926367 -0.8810156 0.079798087 0.9943924
-1.0920703 -0.85813475 0.078963853 0.99445093
-1.0900488 -0.77120113 0.07591518 0.99466455
-1.0895605 -0.75051755 0.075220183 0.99471337
-1.0891309 -0.73020506 0.074549638 0.99476027
-1.0886914 -0.71025389 0.073903427 0.99480557
-1.1187109 -0.70995116 0.075328633 0.99470562
-1.1504102 -0.70994139 0.07685665 0.99459857
-1.1834277 -0.70994139 0.078460351 0.99448615
-1.2178711 -0.70996094 0.080145568 0.99436802
-1.2538183 -0.70994139 0.081917875 0.99424386
-1.3307421 -0.70993161 0.085750729 0.9939754
-1.4152734 -0.70993161 0.090019338 0.99367642
-1.5087206 -0.70994139 0.094798274 0.99334186
-1.5593066 -0.70994139 0.097407565 0.99315917
-1.612705 -0.70993161 0.10018016 0.99296528
-1.707998 -0.65152341 0.10393104 0.99270278
-1.7123339 0.65319335 0.099102549 0.99268544
-1.7119238 0.67780274 0.09956371 0.99265146
-1.7110351 0.72771484 0.10054447 0.9925794
-1.5087304 0.70995116 0.090165101 0.99334282
-1.460791 0.70996094 0.087826498 0.9935149
-1.3719629 0.70995116 0.08353363 0.99383098
-1.3307421 0.70996094 0.081559405 0.99397629
-1.2913867 0.70995116 0.07968872 0.9941141
-1.2537891 0.70996094 0.077914044 0.99424481
-1.1503808 0.70997071 0.073100202 0.9945994
-1.0882226 0.70995116 0.070261344 0.99480861
-1.0865917 0.72850585 0.070740052 0.99477327
-1.0869921 0.74874997 0.071374737 0.9947266
-1.0874219 0.76938474 0.072032697 0.99467808
-1.0883594 0.81185544 0.073422924 0.99457562
-1.0916015 0.9502539 0.078260608 0.99421924
-1.4660547 8.2470608 0.45294756 0.96700233
-1.3530859 8.2089643 0.44988644 0.96722168
-1.1351465 8.1595507 0.4454748 0.96753788
-1.0304297 8.1567478 0.44457683 0.96760207
-0.92612302 8.1539154 0.44375476 0.96766114
-0.61532223 8.1455374 0.44172159 0.96780688
-0.51228517 8.1427441 0.44118556 0.96784526
-0.40949216 8.1399803 0.44072199 0.96787852
-0.30690429 8.137187 0.44032907 0.96790677
-0.10220703 8.13167 0.43975207 0.96794814
0.30628905 8.1206446 0.43943271 0.96797097
0.40838867 8.1178999 0.43952715 0.96796423
0.61291993 8.1136522 0.43999186 0.96793085
0.71553707 8.1133785 0.44042963 0.96789944
0.92170894 8.1148138 0.44162729 0.96781367
1.0252441 8.1155462 0.44233248 0.96776307
1.1291113 8.1162891 0.44311106 0.96770722
1.2333984 8.1170111 0.44396168 0.96764624
1.3380566 8.117734 0.44488597 0.96758002
1.4432031 8.1184864 0.44588566 0.96750832
1.6549804 8.1199608 0.44811061 0.96734893
1.7616894 8.1207027 0.44933763 0.96726096
1.8690137 8.1214552 0.45064279 0.96716744
1.5852636 4.491611 0.25756502 0.98110044
1.6335645 4.4494724 0.25630543 0.98119193
5.8812108 8.3125782 0.55062479 0.96003038
5.8787889 8.0915327 0.54083198 0.96072692
6.1785254 8.0695601 0.54957211 0.96010518
6.3395309 8.0677929 0.55483484 0.95973104
6.5037012 8.0659761 0.56028527 0.95934355
6.6711426 8.0641308 0.56593668 0.95894206
6.842031 8.0622358 0.57179278 0.95852613
1.3294727 0.9157812 0.087295681 0.993554
1.3279589 0.84275389 0.085049629 0.9937194
1.3275098 0.81924802 0.084353752 0.99377054
1.3262012 0.75095701 0.082412869 0.99391347
1.3258008 0.72888672 0.081812397 0.9939577
1.3307323 0.70995116 0.081559636 0.99397629
1.4152734 0.70996094 0.085619465 0.99367738
1.5087206 0.70996094 0.090164945 0.99334282
1.5592968 0.70996094 0.092646293 0.99316025
1.6692969 0.70997071 0.098091237 0.9927597
1.7931055 0.70996094 0.10428631 0.99230433
1.861123 0.70995116 0.10771377 0.99205238
1.9208984 0.70523435 0.11065075 0.99183649
1.9217187 0.65122068 0.10972076 0.99190485
18.401201 4.4789548 1.0240898 0.92694181
1.7931151 -0.70992184 0.10428596 0.99230433
1.6127148 -0.70994139 0.095283166 0.99296629
1.460791 -0.70992184 0.087826192 0.99351496
1.4152637 -0.70994139 0.085619465 0.99367744
1.3258106 -0.72886717 0.081812434 0.9939577
1.3262206 -0.75092775 0.082412794 0.99391347
1.3275 -0.81923825 0.084353715 0.9937706
1.3300097 -0.94099605 0.088100702 0.99349481
8.2592287 -8.1560354 0.62767899 0.95456636
4.1857615 -8.0889063 0.49250072 0.96417332
3.9298828 -8.0860939 0.4861609 0.96462631
3.5578516 -8.0819826 0.47750506 0.96524495
3.4366601 -8.0806341 0.47483751 0.96543586
3.3168652 -8.0793161 0.4722735 0.96561921
3.1983202 -8.0780077 0.46981007 0.9657954
3.1381249 -8.2265425 0.47611749 0.96534425
2.3629687 -7.94666 0.44830897 0.96733481
2.2542968 -7.9452929 0.4465996 0.96745741
2.1464062 -7.9439449 0.44497326 0.96757406
1.9329296 -7.9412889 0.4419626 0.96778983
1.8272363 -7.9399705 0.4405759 0.96788919
1.7221777 -7.938652 0.43926784 0.96798307
1.6177343 -7.9373531 0.4380357 0.96807134
1.5138671 -7.9360447 0.43688005 0.96815431
1.4105371 -7.9347558 0.43579927 0.96823186
1.2052929 -7.9321971 0.43385622 0.96837109
1.1033202 -7.9309177 0.43299463 0.96843302
1.0017285 -7.9296579 0.43220425 0.96848971
0.90050781 -7.9283886 0.43148518 0.96854138
0.69898438 -7.9258785 0.43025479 0.96862954
0.29873046 -7.9208789 0.42862567 0.96874642
-0.29848632 -7.9134374 0.4282217 0.96877533
-0.39805663 -7.9121871 0.42839167 0.96876317
-0.49773437 -7.9109373 0.4286285 0.96874619
-0.59751952 -7.9096971 0.42893451 0.96872425
-0.99859375 -7.9046874 0.43084314 0.96858734
-1.0995312 -7.9034276 0.4314931 0.96854067
-1.2007421 -7.9021678 0.43221316 0.96848893
-1.4043164 -7.8996191 0.43386805 0.96837026
-1.506709 -7.8983493 0.43480402 0.96830314
-1.6095703 -7.8970699 0.4358128 0.96823078
-1.7129102 -7.8957715 0.43689457 0.96815318
-2.0262988 -7.8918653 0.44059435 0.96788788
-2.5620897 -7.8851757 0.4483324 0.96733314
-2.6716015 -7.8838086 0.45012873 0.96720451
-2.7820702 -7.882441 0.45201129 0.96706957
-7.2936716 -15.499834 0.92641002 0.93368065
-2.8615332 -4.1542187 0.27277347 0.97999573
-6.8870215 -8.9948044 0.61259186 0.95563364
-7.0608397 -8.3199701 0.59007871 0.95722884
-1.091621 -0.95024413 0.078260347 0.99421924
-1.0898925 -0.87879878 0.075708047 0.9944073
-1.0883887 -0.81182617 0.073422961 0.99457556
-1.0878906 -0.79040039 0.072715223 0.99462777
-1.0874511 -0.76938474 0.07203266 0.99467802
-1.0870117 -0.74874997 0.071374737 0.99472654
-1.1504102 -0.70994139 0.073099934 0.9945994
-1.1834277 -0.70994139 0.074625432 0.99448699
-1.2538183 -0.70994139 0.077913739 0.99424475
-1.3307421 -0.70993161 0.081559218 0.99397629
-1.3719823 -0.70993161 0.083533473 0.99383098
-1.4152734 -0.70993161 0.085619546 0.99367744
-1.5087206 -0.70994139 0.09016487 0.99334288
-1.612705 -0.70993161 0.095283777 0.99296635
-1.7110449 -0.72769529 0.10054447 0.99257934
-1.7114843 -0.70262694 0.10004391 0.99261618
-1.7119336 -0.67779297 0.099563561 0.99265146
-1.7123437 -0.65319335 0.099102668 0.99268538
-1.7163184 0.67953122 0.094690472 0.99263376
-1.6127245 0.70995116 0.090388522 0.99296725
-1.5592871 0.70996094 0.087886773 0.99316126
-1.460791 0.70996094 0.083314627 0.99351585
-1.4152734 0.70996094 0.081220895 0.99367827
-1.3719629 0.70995116 0.079242326 0.99383187
-1.2913867 0.70995116 0.075594865 0.99411494
-1.2537891 0.70996094 0.07391113 0.99424565
-1.2178613 0.70996094 0.072312087 0.99436975
-1.1834277 0.70996094 0.070791818 0.99448776
-1.1503808 0.70997071 0.069344632 0.99460024
-1.1186913 0.70997071 0.067966156 0.99470723
-1.0840527 0.72681642 0.066949464 0.99478614
-1.0844336 0.74700195 0.067548677 0.99473971
-1.0848731 0.76755857 0.06816978 0.99469137
-1.0862012 0.83167964 0.070175245 0.99453562
-1.0866895 0.85391599 0.070893936 0.99447984
-1.0876952 0.89983398 0.072412983 0.99436188
-1.0882226 0.92355466 0.073215716 0.99429959
-2.3047462 8.529892 0.45324528 0.96522933
-2.1792188 8.4875679 0.44950488 0.9655112
-1.4660547 8.2470608 0.42967799 0.96700704
-1.3530859 8.2089643 0.42677334 0.96722639
-1.242041 8.1740236 0.42411128 0.96742743
-0.92612302 8.1539154 0.42095745 0.96766579
-0.71860349 8.1483393 0.41960323 0.96776801
-0.51228517 8.1427441 0.41852024 0.96784991
-0.40949216 8.1399803 0.41808063 0.96788311
-0.30690429 8.137187 0.41770777 0.96791142
-0.20449218 8.1344337 0.41740078 0.96793455
-0.10220703 8.13167 0.41715977 0.96795273
0.30628905 8.1206446 0.41685772 0.96797556
0.51057619 8.1151361 0.41710079 0.96795714
0.81848633 8.1141014 0.41833743 0.96786368
0.92170894 8.1148138 0.41893953 0.96781832
1.2333984 8.1170111 0.42115414 0.96765089
1.4432031 8.1184864 0.422979 0.96751297
1.6549804 8.1199608 0.42508951 0.96735358
1.7616894 8.1207027 0.42625362 0.96726567
1.8690137 8.1214552 0.42749277 0.96717215
2.4160936 8.1252928 0.434836 0.9666177
2.5278809 8.1260643 0.43654293 0.9664889
1.6335645 4.4494724 0.24313824 0.98119467
6.5037107 8.0659666 0.53150177 0.95934933
6.6711521 8.0641212 0.53686142 0.95894796
6.842041 8.0622263 0.54241818 0.95853204
11.032861 8.0159178 0.69955349 0.94684356
1.3249218 0.84083009 0.080495298 0.9937346
1.3236425 0.77163082 0.078593902 0.99388218
1.3228809 0.72725582 0.07743828 0.99397188
1.3307323 0.70995116 0.077369347 0.99397719
1.3719727 0.70995116 0.079242095 0.99383187
1.4152734 0.70996094 0.081220895 0.99367827
1.4607812 0.70995116 0.083314471 0.99351591
1.5087206 0.70996094 0.085532837 0.99334383
1.6127441 0.70996094 0.090388484 0.99296719
1.6692969 0.70997071 0.093051791 0.99276078
1.7931055 0.70996094 0.098928563 0.99230546
18.40086 4.4788671 0.97146088 0.92695338
1.9264746 -0.65282226 0.10434223 0.99188608
1.7293164 -0.70994139 0.095892601 0.99254066
1.6692871 -0.70994139 0.093051754 0.99276084
1.5592871 -0.70995116 0.087886348 0.99316126
1.5087304 -0.70994139 0.085532606 0.99334383
1.3719629 -0.70993161 0.079242095 0.99383193
1.3307421 -0.70993161 0.077369116 0.99397719
1.3229004 -0.72724611 0.077438124 0.99397182
1.3236425 -0.77162105 0.078593977 0.99388218
1.3258593 -0.88891602 0.081883237 0.99362695
1.3263574 -0.91360348 0.08261627 0.99357009
9.120801 -8.1434278 0.62721729 0.95220673
8.8905077 -8.1408882 0.61836618 0.95286494
8.6665821 -8.1384182 0.60985941 0.95349824
8.4487009 -8.1360159 0.60167277 0.9541077
8.2569628 -8.3613281 0.60279542 0.95402408
4.0569921 -8.0874901 0.46413538 0.96440911
3.8043749 -8.0846968 0.45834261 0.96484548
3.4366601 -8.0806341 0.45044339 0.96544081
3.3168652 -8.0793161 0.44801044 0.96562415
2.3629491 -7.94666 0.42527783 0.96733952
2.2542772 -7.9452929 0.42365634 0.96746206
2.1464062 -7.9439449 0.42211238 0.96757871
2.0393164 -7.9426074 0.42064708 0.96768945
1.6177343 -7.9373531 0.41553128 0.96807593
1.4105371 -7.9347558 0.41341081 0.96823639
1.3076562 -7.9334764 0.41245472 0.96830863
1.1033202 -7.9309177 0.41075024 0.96843755
1.0017285 -7.9296579 0.40999964 0.96849424
0.70086914 -7.9465623 0.40921605 0.96855348
-1.6095703 -7.8970699 0.41342372 0.96823531
-1.8168163 -7.8944821 0.41554698 0.96807474
-1.9212695 -7.8931637 0.41671678 0.9679864
-2.2383983 -7.8892188 0.42066553 0.96768796
-2.3454981 -7.8878808 0.42213213 0.9675771
-2.5620897 -7.8851757 0.42530018 0.96733779
-2.7820702 -7.882441 0.42878786 0.96707433
-3.0058203 -7.8796287 0.43261081 0.96678585
-3.1192381 -7.8782129 0.43465158 0.96663189
-3.2337499 -7.8767867 0.43677914 0.9664712
-3.3493946 -7.8753414 0.43899798 0.96630377
-3.4662499 -7.8738961 0.44131184 0.9661293
-2.6391211 -4.1585937 0.25265408 0.98046607
-2.7893262 -4.1603122 0.25693744 0.98013818
-2.8571093 -4.1478124 0.25836161 0.98002917
-6.8366795 -9.1654196 0.58654594 0.95523524
-6.8592186 -8.9584961 0.57877392 0.95581502
-7.0602441 -8.319253 0.55971646 0.9572385
-7.2399707 -8.3168697 0.56563187 0.95679635
-7.4235449 -8.3144379 0.57176638 0.95633823
-1.0887988 -0.94780272 0.074048653 0.99423492
-1.087705 -0.89981443 0.072413214 0.99436194
-1.0871875 -0.87661129 0.071639441 0.99442196
-1.0866895 -0.85389644 0.070893973 0.99447989
-1.0861914 -0.83166993 0.07017532 0.99453568
-1.0857519 -0.80985349 0.069482304 0.99458951
-1.0852734 -0.78849608 0.068814158 0.99464148
-1.0848535 -0.7675488 0.068169825 0.99469143
-1.0840625 -0.72678709 0.066949345 0.9947862
-1.2538183 -0.70994139 0.07391113 0.99424559
-1.2914063 -0.70994139 0.075594477 0.99411488
-1.460791 -0.70993161 0.083314471 0.99351591
-1.5087206 -0.70994139 0.08553268 0.99334383
-1.5593066 -0.70994139 0.087886542 0.9931612
-1.5087304 0.70995116 0.080901794 0.99334472
-1.460791 0.70996094 0.078803673 0.99351674
-1.4152734 0.70996094 0.07682354 0.99367917
-1.3307421 0.70996094 0.073180653 0.99397796
-1.1834277 0.70996094 0.066958882 0.99448854
-1.0882226 0.70995116 0.063043095 0.9948101
-1.0815136 0.72511715 0.063177489 0.99479902
-1.0819141 0.74523437 0.063741527 0.99475265
-1.0822949 0.76575196 0.064326517 0.99470466
-1.082705 0.78664058 0.064932935 0.99465483
-1.083125 0.80792969 0.065561943 0.99460322
-1.0835546 0.82964844 0.066214256 0.99454969
-1.0840039 0.85180664 0.066890642 0.9944942
-1.0844727 0.87443358 0.067592159 0.99443662
-1.0849707 0.89756835 0.0683202 0.99437678
-1.085996 0.94538087 0.069859467 0.99425048
-6.7168064 10.883945 0.62054622 0.95007068
-2.5997851 8.7431345 0.44256741 0.96413028
-2.0557616 8.4459372 0.42175531 0.96578795
-1.9342675 8.4049416 0.41846126 0.96605051
-1.6983789 8.333086 0.41262874 0.96651584
-1.136084 8.1662502 0.40003657 0.96752077
0.71615231 8.1204195 0.3955256 0.96788102
2.5278809 8.1260643 0.41290745 0.96649343
1.5852636 4.491611 0.23110439 0.98110574
1.6335645 4.4494724 0.22997478 0.98119724
5.8787789 8.0915432 0.48527193 0.96073788
6.339541 8.0677834 0.49783328 0.95974231
11.032861 8.0159273 0.66167772 0.94685072
1.3237011 0.93656248 0.078675419 0.99352729
1.3227832 0.8868652 0.077270165 0.99364251
1.3223144 0.86266601 0.076604575 0.99369717
1.3219043 0.838916 0.075962901 0.99374974
1.3214941 0.8155371 0.075344503 0.99380046
1.3210937 0.79254884 0.074748039 0.9938494
1.3199707 0.72567379 0.073084563 0.99398589
1.3307323 0.70995116 0.073180653 0.99397802
1.3719727 0.70995116 0.074951857 0.99383271
1.4152734 0.70996094 0.07682354 0.99367917
1.4607812 0.70995116 0.078803748 0.9935168
1.5087206 0.70996094 0.080901869 0.99334472
1.5592968 0.70996094 0.083128162 0.99316216
1.6127441 0.70996094 0.085494839 0.99296814
1.7293261 0.70994139 0.090701289 0.99254161
1.7931055 0.70996094 0.093572497 0.99230653
1.861123 0.70995116 0.096647874 0.99205464
1.9305469 0.70877928 0.099781528 0.99179798
1.9312891 0.65446287 0.098938674 0.99186701
18.400497 4.4787793 0.91884547 0.92696446
1.9312793 -0.65444332 0.098938711 0.99186707
1.9309082 -0.68149412 0.099350847 0.99183333
1.9305567 -0.70875973 0.099781759 0.99179792
1.861123 -0.70994139 0.096647225 0.99205464
1.5592871 -0.70995116 0.083128355 0.99316221
1.5087304 -0.70994139 0.080901638 0.99334472
1.3199804 -0.7256543 0.073084451 0.99398589
1.3210937 -0.79252928 0.07474792 0.9938494
1.3219043 -0.83889645 0.075963058 0.99374974
8.2592287 -8.1560354 0.56319505 0.95457894
8.2569628 -8.3613281 0.57016122 0.95403028
4.1857615 -8.0889063 0.44190425 0.96418333
3.9298828 -8.0860939 0.43621647 0.96463621
3.8041992 -8.0843258 0.43350673 0.96485186
3.6794531 -8.0813179 0.4308317 0.96506494
3.3141797 -8.0727634 0.42341068 0.96565622
0.29902342 -7.9281149 0.38494068 0.96872711
-1.405625 -7.906826 0.38965008 0.96835071
-1.6095703 -7.8970699 0.39103985 0.96823967
-1.7145116 -7.9029784 0.39236781 0.96813345
-7.5883398 -22.392998 1.147182 0.90965813
-3.3518164 -7.8809762 0.41552752 0.96628463
-3.4662499 -7.8738961 0.41741711 0.96613389
-7.2936716 -15.499834 0.83124131 0.93369889
-2.6357422 -4.2709079 0.24350627 0.98010206
-6.8560934 -8.7250824 0.53839815 0.95653456
-6.8695116 -8.3038082 0.52289349 0.95775944
-7.594902 -8.2941694 0.54565728 0.95596164
-1.0840137 -0.85179687 0.066890523 0.9944942
-1.0830957 -0.80791992 0.065561824 0.99460334
-1.0826952 -0.78662109 0.064932898 0.99465489
-1.0822852 -0.76573241 0.064326473 0.99470472
-1.081543 -0.72510743 0.063177526 0.99479896
-1.1504102 -0.70994139 0.065590091 0.99460095
-1.1834277 -0.70994139 0.066958658 0.9944886
-1.2178711 -0.70996094 0.068396986 0.99437046
-1.2914063 -0.70994139 0.071501695 0.99411571
-1.4152734 -0.70993161 0.076823309 0.99367923
-1.460791 -0.70993161 0.078803897 0.9935168
-1.5593066 -0.70994139 0.083128393 0.99316216
-1.6693066 -0.70993161 0.088014029 0.99276179
-1.720332 -0.70625001 0.090229303 0.99258029
-1.7210937 -0.65652341 0.089375608 0.99265021
-1.7255077 0.6582129 0.084477119 0.99263239
-1.7251562 0.6830371 0.084873043 0.99259794
-1.7247753 0.70809567 0.085285641 0.99256212
-1.6693066 0.70995116 0.082977518 0.99276268
-1.6127245 0.70995116 0.080602147 0.99296916
-1.5087304 0.70995116 0.076272659 0.99334556
-1.4152734 0.70996094 0.072427176 0.99368
-1.3719629 0.70995116 0.070662841 0.99383354
-1.2913867 0.70995116 0.067410275 0.99411654
-1.1503808 0.70997071 0.061836701 0.99460167
-1.0882226 0.70995116 0.059435386 0.99481076
-1.0793653 0.74349606 0.059953421 0.99476564
-1.0801171 0.78475583 0.061071165 0.9946683
-1.0809082 0.82763672 0.062273368 0.99456364
-1.0817773 0.87226558 0.063566208 0.99445111
-1.0822461 0.89532226 0.064249113 0.99439156
-1.0827148 0.91886717 0.064957581 0.99432993
-1.0832129 0.94294918 0.065692745 0.99426591
-6.7166991 10.883789 0.58502632 0.95007777
-2.4335155 8.5769625 0.4078187 0.96493036
-1.242041 8.1740236 0.37819162 0.96743602
0.40857422 8.1211233 0.37195131 0.96796477
0.61291993 8.1136522 0.37219828 0.96794391
1.6335645 4.4494724 0.21681476 0.98119968
5.8787889 8.0915327 0.45750171 0.96074289
6.1785254 8.0695705 0.46489543 0.96012133
6.5037107 8.0659666 0.47395837 0.95936006
6.842041 8.0622358 0.48369005 0.95854294
1.320586 0.93434566 0.073998071 0.99354339
1.3192871 0.86069334 0.072054937 0.99371237
1.318125 0.79076171 0.070312575 0.99386394
1.3719727 0.70995116 0.07066261 0.99383354
1.4152734 0.70996094 0.072427325 0.99368
1.5087206 0.70996094 0.076272428 0.99334562
1.6127441 0.70996094 0.080602266 0.9929691
1.6692969 0.70997071 0.082977407 0.99276268
1.861123 0.70995116 0.091117091 0.99205565
1.9357519 0.68321288 0.093900181 0.99181396
1.9360937 0.65610349 0.093509786 0.99184787
1.936123 -0.65608394 0.093509823 0.99184781
1.9357519 -0.6832031 0.093900256 0.99181396
1.861123 -0.70994139 0.091116823 0.99205565
1.7931151 -0.70992184 0.088217698 0.99230754
1.6693066 -0.70994139 0.082977295 0.99276274
1.6127148 -0.70994139 0.080602072 0.99296921
1.5592871 -0.70995116 0.078371197 0.99316311
1.4152637 -0.70994139 0.072427176 0.99368006
1.3307421 -0.70993161 0.068992496 0.9939788
1.3170898 -0.72407228 0.068751179 0.99399978
1.3184961 -0.81367183 0.070872307 0.9938153
1.3201367 -0.90933591 0.073326759 0.9936018
9.3577929 -8.1460543 0.56752062 0.95153505
8.8905077 -8.1408882 0.55141819 0.95287728
8.2592382 -8.156045 0.53096467 0.95458472
8.2569723 -8.3613377 0.53753412 0.95403612
4.3112497 -8.0810642 0.41896862 0.96398938
4.0505466 -8.074687 0.41322917 0.9644739
3.9228516 -8.0716305 0.41051701 0.96470284
3.549453 -8.0629005 0.40297839 0.96533966
3.4279883 -8.0601559 0.400657 0.96553594
3.1891308 -8.054863 0.39628261 0.96590567
2.9553905 -8.0498343 0.39225748 0.96624613
2.3629687 -7.94666 0.37923488 0.96734816
2.2563379 -7.952529 0.37813249 0.96744156
0.39854491 -7.9221387 0.36284044 0.9687373
-1.405625 -7.906826 0.36735287 0.96835476
-1.6095703 -7.8970604 0.36866221 0.96824378
-7.5879297 -22.391787 1.0814775 0.90967399
-3.5442188 -9.291152 0.45487705 0.96096396
-3.5395899 -8.9399652 0.43982631 0.9622308
-3.55708 -8.3637152 0.41574374 0.96426141
-7.2936912 -15.499844 0.78360885 0.93370718
-2.6342089 -4.2684765 0.22944187 0.98011589
-2.7128808 -4.1583204 0.22711368 0.98031551
-2.7874413 -4.1575193 0.22896503 0.98015666
-2.854326 -4.1437206 0.23016208 0.9800539
-6.8366599 -9.1654196 0.52304035 0.95524704
-6.859199 -8.9584961 0.51611239 0.95582664
-6.856113 -8.7250824 0.50758797 0.95654005
-7.0602341 -8.3192673 0.49911585 0.95724976
-7.2399607 -8.3168745 0.50439209 0.95680773
-7.4235349 -8.3144436 0.50986236 0.95634973
-7.594902 -8.2941694 0.51443011 0.95596725
-1.0822461 -0.89530271 0.064249113 0.99439162
-1.0817871 -0.87225586 0.063566171 0.99445111
-1.0813476 -0.84969723 0.062908053 0.99450839
-1.080918 -0.82760739 0.062273368 0.9945637
-1.0790137 -0.72342771 0.059424132 0.99481171
-1.1504102 -0.70994139 0.06183666 0.99460161
-1.2178711 -0.70996094 0.064482957 0.99437118
-1.2914063 -0.70994139 0.067410275 0.99411649
-1.4152734 -0.70993161 0.072427407 0.99368
-1.460791 -0.70993161 0.074293934 0.99351764
-1.5087206 -0.70994139 0.076272197 0.99334562
-1.5593066 -0.70994139 0.078371465 0.99316305
-1.612705 -0.70993161 0.080602072 0.99296927
-1.7255077 -0.6582129 0.084476694 0.99263239
-1.6693066 0.70995116 0.0779422 0.99276358
-1.6127245 0.70995116 0.075711019 0.99297005
-1.5592871 0.70996094 0.073615529 0.99316394
-1.5087304 0.70995116 0.071643755 0.99334639
-1.4152734 0.70996094 0.068032108 0.99368078
-1.3719629 0.70995116 0.066374511 0.99383432
-1.2913867 0.70995116 0.063319623 0.99411726
-1.2537891 0.70996094 0.061909329 0.99424791
-1.2178613 0.70996094 0.060570069 0.99437195
-1.1834277 0.70996094 0.059296455 0.99448991
-1.0882226 0.70995116 0.055828743 0.99481142
-1.0765136 0.72176754 0.055688858 0.99482435
-1.0771972 0.76213866 0.056696851 0.99473089
-1.0783007 0.825625 0.058352698 0.99457741
-1.0791113 0.87012696 0.059561234 0.99446541
-1.079541 0.89307618 0.060199544 0.99440628
-1.0804492 0.94054687 0.06154865 0.99428123
-2.8523242 9.1690817 0.41259021 0.96228427
-1.242041 8.1740236 0.35524058 0.96743995
2.4180663 8.1319723 0.36452648 0.96660364
1.6335645 4.4494724 0.20365742 0.98120195
5.8628416 8.0696096 0.42857492 0.96085191
6.1785254 8.0695705 0.43668354 0.96012616
6.5036912 8.0659666 0.44519687 0.95936501
6.6711521 8.0641212 0.44968462 0.95896369
11.000127 8.2052927 0.58965153 0.94653821
1.3174707 0.93213862 0.069343984 0.99355936
1.3166308 0.88276362 0.06811092 0.99367356
1.31625 0.85872066 0.067527391 0.99372756
1.3151855 0.78899413 0.065897867 0.99387836
1.314834 0.7664941 0.065393105 0.99392515
1.3307323 0.70995116 0.064806022 0.99397957
1.4152734 0.70996094 0.068032108 0.99368078
1.4607812 0.70995116 0.069785804 0.99351841
1.5087206 0.70996094 0.071643829 0.99334639
1.5592773 0.70996094 0.073615529 0.99316394
1.6692969 0.70997071 0.077942006 0.99276358
1.7293261 0.70995116 0.080321804 0.99254352
1.861123 0.70995116 0.085587688 0.99205661
18.399736 4.4785938 0.81366438 0.9269852
1.9405956 -0.68492186 0.088423423 0.99179459
1.9402636 -0.71234375 0.088808671 0.99175894
1.861123 -0.70994139 0.085587345 0.99205661
1.7931151 -0.70992184 0.082864225 0.9923085
1.7293164 -0.70994139 0.080321535 0.99254358
1.6692871 -0.70994139 0.077941895 0.9927637
1.5087304 -0.70994139 0.071643673 0.99334639
1.460791 -0.70992184 0.069785729 0.99351847
1.4152637 -0.70994139 0.068031959 0.99368083
1.3719823 -0.70993161 0.066374585 0.99383426
1.3141992 -0.72248048 0.064437635 0.99401367
1.3158789 -0.83507812 0.06696438 0.99377972
9.3578415 -8.1460543 0.53308278 0.95154071
9.1207905 -8.1434565 0.52536798 0.95222497
8.6665621 -8.1384277 0.51082784 0.95351601
8.4487104 -8.1360254 0.50397319 0.95412523
8.2592382 -8.156045 0.49874538 0.95459014
8.2569723 -8.3613377 0.50491321 0.9540416
4.3026953 -8.06499 0.39276272 0.964064
3.9152148 -8.0558987 0.384855 0.96477467
3.7894628 -8.0530272 0.38241208 0.96499425
3.665293 -8.0502338 0.38006145 0.96520561
3.1831348 -8.0397167 0.37153468 0.96597278
3.0659082 -8.0372458 0.3696126 0.96614593
2.7211914 -8.0302143 0.36430904 0.96662343
2.6084571 -8.0279779 0.36269274 0.96676904
2.4966795 -8.0258198 0.36114803 0.96690816
2.3629491 -7.94666 0.35622126 0.96735209
0.69964844 -7.9331055 0.34218556 0.96861798
0.39854491 -7.9221387 0.34082171 0.96874106
-1.6095703 -7.8970604 0.34629101 0.96824759
-7.5875387 -22.39056 1.0157933 0.90968925
-3.5491991 -9.667285 0.44248384 0.95960754
-3.56125 -8.9946527 0.41566294 0.96200877
-3.3524706 -7.8825192 0.36804858 0.96628654
-3.5347655 -8.0295506 0.37695599 0.96548474
-2.6178026 -4.3636427 0.21864383 0.97983277
-2.7119629 -4.1569333 0.21326023 0.98032445
-2.7865233 -4.1561131 0.2149982 0.98016566
-6.8366699 -9.1654053 0.49130067 0.95525241
-6.856113 -8.7250729 0.47678486 0.95654529
-7.2399607 -8.3168745 0.4737846 0.95681292
-7.594902 -8.2941694 0.48321474 0.95597255
-1.0799805 -0.91654295 0.060861699 0.99434489
-1.0791016 -0.87009764 0.059561118 0.99446547
-1.0787109 -0.84762692 0.058945883 0.99452245
-1.0783007 -0.82561523 0.058352545 0.99457741
-1.0779296 -0.80403316 0.057780761 0.99463046
-1.0775585 -0.78288084 0.057228811 0.99468154
-1.0771874 -0.76211911 0.056697004 0.99473095
-1.1504102 -0.70994139 0.058084294 0.99460226
-1.1834277 -0.70994139 0.05929615 0.99448997
-1.2178711 -0.70996094 0.060569838 0.99437189
-1.2538183 -0.70994139 0.061909255 0.99424785
-1.2914063 -0.70994139 0.063319393 0.9941172
-1.4152734 -0.70993161 0.06803219 0.99368078
-1.5593066 -0.70994139 0.073615603 0.99316388
-1.7292578 -0.70992184 0.080318026 0.99254382
-1.72958 -0.6847949 0.079928242 0.99257994
-1.7299218 -0.65990233 0.079554178 0.99261451
-1.6693066 0.70995116 0.07290794 0.99276441
-1.5087304 0.70995116 0.067016527 0.99334717
-1.460791 0.70996094 0.065278508 0.99351913
-1.4152734 0.70996094 0.063638262 0.99368149
-1.3719629 0.70995116 0.062087629 0.99383503
-1.3307421 0.70996094 0.060620382 0.99398017
-1.1503808 0.70997071 0.05433296 0.99460292
-1.1186913 0.70997071 0.053252637 0.99470991
-1.0882226 0.70995116 0.052222863 0.99481201
-1.0740429 0.72009766 0.051971968 0.99483681
-1.0743457 0.74003905 0.052432708 0.99479115
-1.0746777 0.76034176 0.052910421 0.99474376
-1.0756934 0.82361329 0.054451827 0.99459112
-1.0768554 0.89084959 0.056170844 0.99442077
-3.1866601 9.8075581 0.41446933 0.95955813
-2.5926268 8.7190819 0.36560175 0.96424013
-0.92604488 8.1530561 0.32979327 0.96768522
0.9224121 8.1209564 0.32849392 0.96781039
2.5984666 8.3531446 0.35159609 0.96558595
2.7313378 8.0602341 0.34204882 0.96650457
1.5852636 4.491611 0.19143963 0.98111266
3.1892285 8.0551853 0.34820271 0.96591234
3.665117 8.0499315 0.35549641 0.96521086
5.6089549 8.3660154 0.40482202 0.96048051
5.5459375 8.0514154 0.39294064 0.96161789
5.6967478 8.0518751 0.39642519 0.96128416
5.8503418 8.0523634 0.40003794 0.96093827
6.0067673 8.0529099 0.4037832 0.96057987
6.1662302 8.0535154 0.40766773 0.96020836
6.4947653 8.054883 0.41586918 0.9594242
6.6641212 8.0556345 0.42019886 0.9590106
6.8371482 8.0564642 0.42468965 0.95858163
7.0139647 8.0573435 0.42934832 0.95813686
11.000117 8.2053022 0.55156612 0.94654423
11.032861 8.0159178 0.54811299 0.94686979
1.3139844 0.90512693 0.064128228 0.99363297
1.3136133 0.88072264 0.063564792 0.99368876
1.3132714 0.85676754 0.063021541 0.99374247
1.3128906 0.83320308 0.062497139 0.99379444
1.3122265 0.78723633 0.061503906 0.99389279
1.3116211 0.74268556 0.060581166 0.9939841
1.3719727 0.70996094 0.06208786 0.99383497
1.4152734 0.70996094 0.063638039 0.99368149
1.4607812 0.70995116 0.065278359 0.99351919
1.5592968 0.70996094 0.06886097 0.99316466
1.6127441 0.70996094 0.070820846 0.99297076
1.7931055 0.70996094 0.077512242 0.99230933
1.945166 0.71414059 0.083282694 0.99173915
18.399355 4.4784961 0.76109648 0.92699474
1.9454784 -0.68664062 0.082920603 0.99177498
1.9451953 -0.71413082 0.083282471 0.99173903
1.861123 -0.70994139 0.080059238 0.99205756
1.7293164 -0.70994139 0.075133473 0.99254441
1.6127148 -0.70994139 0.070821039 0.99297088
1.5592871 -0.70995116 0.068860628 0.99316472
1.3719629 -0.70993161 0.062087476 0.99383503
1.3307421 -0.70993161 0.060620155 0.99398023
1.3116113 -0.74266601 0.060581207 0.99398422
1.3122363 -0.78721678 0.061504018 0.99389279
1.3128906 -0.83318359 0.062497176 0.9937945
1.3136035 -0.88071287 0.063565023 0.99368882
1.3139844 -0.90509766 0.064128302 0.99363303
1.3143847 -0.92993164 0.064712711 0.99357516
9.3578024 -8.1460638 0.49865291 0.95154625
9.1207905 -8.1434565 0.49143642 0.95223033
8.8905077 -8.1408882 0.48450288 0.95288825
8.6665621 -8.1384277 0.47783503 0.95352125
8.4487104 -8.1360254 0.4714233 0.95413041
8.2569723 -8.3613377 0.47230142 0.95404679
4.5611525 -8.055234 0.37205562 0.9636206
4.4266796 -8.0520697 0.369311 0.96388406
4.0347266 -8.0430861 0.3616614 0.96461862
3.9076073 -8.0402441 0.35929796 0.96484584
3.7821484 -8.0374804 0.35702258 0.96506459
3.6586816 -8.0356741 0.35487193 0.96527135
3.4164257 -8.0329981 0.35085031 0.96565807
3.062793 -8.0290918 0.34538752 0.96618354
2.7195506 -8.0252924 0.34057078 0.96664727
2.607168 -8.0240526 0.33910036 0.96678883
2.4957519 -8.0228224 0.33769566 0.96692407
2.3629491 -7.94666 0.33321315 0.96735579
-3.5545506 -10.07122 0.42925334 0.95814627
-3.5516992 -9.3107176 0.40051737 0.9608925
-3.2366991 -7.8839645 0.34253559 0.9664579
-7.5105662 -16.495653 0.7284776 0.93001133
-2.6166015 -4.3616309 0.20442821 0.97984427
-2.6348534 -4.1518164 0.19763668 0.98050731
-2.7855663 -4.1547165 0.20104435 0.9801746
-6.8366599 -9.1654196 0.45956835 0.95525742
-6.8592186 -8.9584866 0.45348087 0.95583695
-6.856113 -8.7250729 0.44598964 0.95655024
-7.0602341 -8.3192673 0.4385474 0.95725971
-7.2399411 -8.3168745 0.44318315 0.95681787
-7.4235349 -8.3144436 0.44798839 0.95635986
-7.594902 -8.2941694 0.45200557 0.9559775
-1.077666 -0.93812495 0.057426605 0.99429655
-1.0768359 -0.89083982 0.056170922 0.99442089
-1.076455 -0.86795896 0.055576783 0.99447966
-1.075332 -0.80211914 0.053919334 0.99464387
-1.0749902 -0.78102535 0.053405531 0.99469477
-1.0743555 -0.74002928 0.052432518 0.99479115
-1.1834277 -0.70994139 0.055466499 0.99449062
-1.2538183 -0.70994139 0.057910688 0.99424851
-1.2914063 -0.70994139 0.059229735 0.99411786
-1.3307421 -0.70993161 0.060620572 0.99398023
-1.3719823 -0.70993161 0.062087476 0.99383497
-1.4152734 -0.70993161 0.063637964 0.99368155
-1.460791 -0.70993161 0.065278284 0.99351919
-1.5087206 -0.70994139 0.067016445 0.99334723
-1.612705 -0.70993161 0.070820883 0.99297094
-1.7340527 -0.68654293 0.074958988 0.9925617
-1.734375 -0.66160154 0.074607469 0.99259645
-1.7388378 0.6633203 0.069636226 0.99257821
-1.7385644 0.68833983 0.069965437 0.99254322
-1.6693066 0.70995116 0.067875057 0.99276519
-1.6127245 0.70995116 0.065932117 0.9929716
-1.5592871 0.70996094 0.064107247 0.99316543
-1.5087304 0.70995116 0.062390286 0.99334788
-1.3719629 0.70995116 0.057801589 0.99383569
-1.2178613 0.70996094 0.052746732 0.9943732
-1.1834277 0.70996094 0.051637609 0.99449116
-1.1503808 0.70997071 0.050582275 0.99460351
-1.0715625 0.71843749 0.048272744 0.99484926
-1.0718554 0.73832029 0.048699759 0.99480379
-1.0721484 0.75857419 0.049142648 0.99475664
-1.0731152 0.82165039 0.050570641 0.99460465
-1.0738086 0.86583984 0.051612739 0.99449378
-1.0741503 0.88863277 0.052163277 0.99443531
-6.7164059 10.88331 0.47852632 0.95009673
-2.5973926 8.7350979 0.34098819 0.96417946
-3.129951 11.031621 0.42906618 0.95513719
-1.4626952 8.2282028 0.31270221 0.96710116
0.20413086 8.1206245 0.30394718 0.96800745
1.0259472 8.1212111 0.30628979 0.96776503
2.3069336 8.1307907 0.31623974 0.9667353
2.5984666 8.3531446 0.32732615 0.96558958
3.3063672 8.053896 0.32575968 0.96575123
3.665117 8.0499315 0.33095515 0.96521455
3.9109275 8.0471973 0.33478007 0.96481979
4.0360155 8.0458298 0.33680636 0.9646107
4.1626563 8.0444336 0.33890995 0.9643935
4.4208298 8.0415821 0.34336466 0.96393418
4.6860547 8.0386419 0.34815875 0.96343994
4.8214941 8.0371485 0.35069141 0.96317905
4.9589744 8.035615 0.35331553 0.96290857
5.098506 8.0340815 0.356038 0.9626283
5.2412791 8.0340624 0.35892764 0.96233076
5.3865623 8.0342865 0.36193097 0.96202135
5.5343161 8.0345602 0.36504802 0.96170074
5.9938378 8.0355959 0.37510082 0.96066713
6.649199 8.0375977 0.39031604 0.95910478
6.8216796 8.0382318 0.39447817 0.95867771
6.99791 8.0389156 0.3987968 0.95823503
7.1781054 8.0396481 0.40327471 0.95777595
1.3116602 0.95299804 0.060665589 0.99353123
1.3113183 0.92778319 0.060104217 0.99359077
1.3093164 0.78547847 0.057130735 0.99390692
1.3090136 0.76309568 0.05669529 0.99395329
1.3087305 0.74105465 0.0562751 0.99399799
1.4152734 0.70996094 0.059245031 0.99368215
1.4607812 0.70995116 0.060772285 0.9935199
1.5087206 0.70996094 0.062390212 0.99334788
1.6127441 0.70996094 0.065932155 0.99297148
1.861123 0.70995116 0.074533157 0.9920584
1.9500976 0.71595699 0.077729799 0.99171919
1.9506738 0.66103512 0.077066608 0.99178958
18.398973 4.4783983 0.70854062 0.92700374
1.9506934 -0.6610254 0.07706669 0.99178952
1.9500976 -0.71594727 0.077729948 0.99171919
1.7293164 -0.70994139 0.069947086 0.99254519
1.6692871 -0.70994139 0.067874677 0.99276531
1.5592871 -0.70995116 0.064107284 0.99316543
1.5087304 -0.70994139 0.062389981 0.99334788
1.460791 -0.70992184 0.060771901 0.9935199
1.4152637 -0.70994139 0.059245031 0.99368221
1.3719823 -0.70993161 0.057801589 0.99383563
1.3087597 -0.74105465 0.056275137 0.99399787
1.3090234 -0.7630859 0.056695327 0.99395329
1.3096093 -0.8082031 0.057582624 0.99385893
1.3105859 -0.87869138 0.059040565 0.9937039
1.3109472 -0.90299803 0.059563026 0.99364841
1.3113086 -0.92777342 0.060104523 0.99359083
1.3116699 -0.95297849 0.060665816 0.99353123
9.3578024 -8.1460638 0.46422869 0.95155132
8.8905077 -8.1408882 0.451056 0.9528932
8.6665621 -8.1384277 0.44484842 0.95352614
8.4487104 -8.1360159 0.43887895 0.95413524
8.2592382 -8.156045 0.43432581 0.95460004
4.8284569 -8.0486031 0.3511951 0.96312737
4.6910548 -8.04708 0.34852976 0.96340209
4.4222851 -8.0441113 0.34347728 0.96392292
4.1610742 -8.0412207 0.33878025 0.96440732
4.0330663 -8.0398045 0.33655918 0.96463656
3.7819433 -8.0370407 0.33235699 0.96507013
3.6586816 -8.0356741 0.33037493 0.96527499
3.5368555 -8.0343256 0.32846552 0.96547216
3.4164257 -8.0329885 0.32663012 0.9656617
3.2973046 -8.0316896 0.32486546 0.96584392
3.1794531 -8.0303802 0.32317173 0.96601903
3.062793 -8.0290918 0.32154614 0.96618712
2.9473047 -8.0278225 0.31998485 0.96634829
2.8328905 -8.0265522 0.31849125 0.96650285
2.607168 -8.0240526 0.3156918 0.96679235
2.4957519 -8.0228224 0.31438434 0.96692753
2.3629491 -7.94666 0.31021112 0.96735924
0.80033201 -7.9343553 0.2983903 0.96858329
0 -7.924365 0.29651028 0.96877813
-1.2018554 -7.9093652 0.29934588 0.96848428
-3.5732715 -11.486513 0.45011029 0.95298934
-3.5665038 -10.976572 0.431851 0.95485276
-3.5636327 -10.516176 0.41546834 0.95652783
-7.4958105 -16.463242 0.67685497 0.93015116
-2.6155176 -4.3597946 0.19023602 0.97985476
-2.629746 -4.2612109 0.18736202 0.98015612
-6.8366599 -9.16541 0.42784372 0.95526218
-6.856113 -8.7250729 0.41520244 0.95655477
-7.0602341 -8.3192673 0.40827397 0.95726418
-1.0749414 -0.93574214 0.053326413 0.99431157
-1.074541 -0.91191405 0.052734181 0.99437457
-1.0741796 -0.888623 0.052163314 0.99443525
-1.073789 -0.86582029 0.051612854 0.99449384
-1.0731055 -0.82163084 0.0505706 0.99460471
-1.0727735 -0.80019528 0.05007717 0.99465722
-1.0724511 -0.77917969 0.049601287 0.99470788
-1.0718554 -0.73831052 0.048699796 0.99480379
-1.0882324 -0.70995116 0.048617553 0.99481249
-1.1187109 -0.70995116 0.049576454 0.99471045
-1.1504102 -0.70994139 0.050582085 0.99460351
-1.2178711 -0.70996094 0.052746505 0.99437314
-1.2538183 -0.70994139 0.053913038 0.99424911
-1.3719823 -0.70993161 0.057801511 0.99383563
-1.4152734 -0.70993161 0.05924511 0.99368221
-1.5087206 -0.70994139 0.062390286 0.99334794
-1.5593066 -0.70994139 0.064107321 0.99316537
-1.612705 -0.70993161 0.065931968 0.99297166
-1.6693066 -0.70993161 0.067874789 0.99276525
-1.7382617 -0.71361327 0.070308186 0.9925068
-1.6127245 0.70995116 0.061044045 0.99297225
-1.5087304 0.70995116 0.057764966 0.99334854
-1.4152734 0.70996094 0.054852866 0.9936828
-1.3307421 0.70996094 0.052251622 0.99398142
-1.2178613 0.70996094 0.048836287 0.99437374
-1.0882226 0.70995116 0.045013387 0.99481308
