# .PCD v0.7 - Point Cloud Data file format
VERSION 0.7
FIELDS x y z intensity
SIZE 4 4 4 4
TYPE F F F F
COUNT 1 1 1 1
WIDTH 1084
HEIGHT 1
VIEWPOINT 0 0 0 1 0 0 0
POINTS 1084
DATA ascii
-9.644433 9.2874994 -0.50099158 0.94781631
-9.5271187 9.4081249 -0.50099939 0.94781542
-9.4082422 9.5272169 -0.50100732 0.94781482
-9.1662111 9.7609959 -0.50102353 0.94781291
-9.0429878 9.8755856 -0.50103176 0.94781202
-8.9183197 9.9886131 -0.50104004 0.94781119
-8.7922268 10.100049 -0.50104851 0.94781041
-6.793828 8.2123241 -0.39880446 0.95823443
-6.6782908 8.282383 -0.39809927 0.95830661
-6.4680958 8.4476557 -0.39810237 0.95830631
-6.3614645 8.5283203 -0.39810392 0.95830607
-6.1451755 8.6855469 -0.39810732 0.95830584
-6.0355663 8.7620993 -0.39810908 0.95830572
-5.8135352 8.9111328 -0.39811274 0.95830518
-5.5878124 9.0544434 -0.39811656 0.95830494
-5.4735937 9.1240139 -0.39811859 0.95830476
-5.3585544 9.1921482 -0.39812067 0.95830441
-5.1258984 9.3239651 -0.39812499 0.95830417
-5.0083985 9.3877344 -0.3981272 0.95830369
-4.8900485 9.4499998 -0.39812958 0.95830345
-4.5305076 9.6277733 -0.39813754 0.95830262
-4.4091892 9.6839943 -0.39814025 0.95830244
-4.1645017 9.7918749 -0.39814579 0.95830184
-3.9171777 9.8936129 -0.39815179 0.95830113
-3.7925487 9.9421091 -0.39815482 0.95830095
-3.6673534 9.9890327 -0.39815784 0.95830071
-2.6744041 8.5970507 -0.33688402 0.96460277
-4.5850391 21.134951 -0.80921036 0.91707426
-4.2223825 20.716513 -0.79109573 0.91885322
-1.452705 8.1719427 -0.31056738 0.96732235
-3.3127539 20.097763 -0.76215416 0.92170244
-2.5184569 18.103075 -0.6838941 0.92945135
-1.9940526 17.555946 -0.66112268 0.93171829
-1.8455957 18.296268 -0.68807042 0.92903584
-1.6855567 19.112177 -0.71790588 0.92607582
-1.1082226 22.028301 -0.82528502 0.91549867
-0.87278318 23.140156 -0.86645705 0.91147488
0.40814453 8.1134472 -0.3039676 0.96800542
2.3970313 8.0614452 -0.31468856 0.9668957
1.386709 4.457705 -0.17468013 0.9814868
1.4491405 4.4599805 -0.17546868 0.98140395
2.730459 8.0577536 -0.31833926 0.96651828
2.9572949 8.055254 -0.3210755 0.96623534
3.1882324 8.0527048 -0.32406515 0.96592629
3.3053417 8.0513964 -0.325661 0.96576166
3.4236326 8.0500975 -0.32732099 0.96559
3.5431542 8.048769 -0.32905269 0.96541125
3.6639843 8.047431 -0.33085394 0.96522516
4.0347753 8.0433397 -0.33670309 0.96462142
4.4194727 8.0390921 -0.34325927 0.96394515
4.5510936 8.0376272 -0.3456113 0.96370262
4.6846094 8.0361719 -0.34805229 0.96345097
4.8200293 8.0346584 -0.35058349 0.96319014
5.2386427 8.0300388 -0.35874712 0.9623493
5.382617 8.0284376 -0.36167091 0.96204853
5.5290136 8.0268259 -0.36469784 0.9617368
6.140615 8.0200777 -0.37794966 0.96037447
6.3006444 8.0182905 -0.38156691 0.9600029
6.4638085 8.0165033 -0.38531604 0.95961785
6.6302242 8.0146675 -0.38920251 0.95921904
6.8000779 8.0127926 -0.39322975 0.9588058
6.973496 8.0108595 -0.3974072 0.95837772
7.0999022 7.951982 -0.39888176 0.95822644
7.199502 7.8623729 -0.39889231 0.95822519
7.395195 7.6793652 -0.39891344 0.95822304
7.4912791 7.5860057 -0.39892393 0.95822209
7.5861816 7.4914551 -0.39893448 0.95822114
7.7724705 7.2988477 -0.39895535 0.95821893
7.9538865 7.1016016 -0.39897612 0.95821667
8.0426855 7.0012794 -0.39898646 0.95821565
8.1302242 6.8998046 -0.39899674 0.9582147
8.2165041 6.7972851 -0.39900699 0.95821363
8.3014746 6.6936622 -0.39901721 0.95821261
8.3851662 6.5889745 -0.39902741 0.95821154
8.4675093 6.4832616 -0.39903754 0.95821047
1.2639843 0.89429688 -0.057936057 0.99382138
1.2641015 0.87073243 -0.057434577 0.99387467
1.2642773 0.82480466 -0.056483116 0.99397582
1.264375 0.80239254 -0.056032181 0.9940238
1.2644531 0.78032225 -0.055597112 0.99407011
1.2646972 0.71610349 -0.054381676 0.9941994
1.3307421 0.70994139 -0.05643528 0.99398088
1.3719531 0.70995116 -0.057801511 0.99383569
1.460791 0.70995116 -0.060772017 0.99351984
1.5087206 0.70994139 -0.062390022 0.99334794
1.5592675 0.70994139 -0.064107172 0.99316555
1.612705 0.70994139 -0.065931849 0.99297166
1.861123 0.70995116 -0.074532695 0.9920584
1.9337305 0.70993161 -0.07707794 0.99178839
2.0145996 0.71102536 -0.079939194 0.99148494
2.0143554 0.65451169 -0.079251863 0.99155784
12.92039 3.6658299 -0.50252813 0.94766039
12.965478 3.5032129 -0.50253141 0.94766021
13.008574 3.3400292 -0.50253445 0.94765985
13.049589 3.1763184 -0.50253743 0.94765955
13.088525 3.0120995 -0.50254023 0.94765937
13.12542 2.8474023 -0.50254291 0.94765908
13.193017 2.5166991 -0.50254786 0.9476583
13.252187 2.184375 -0.50255221 0.947658
13.303027 1.8506738 -0.50255603 0.94765747
13.325263 1.6833692 -0.50255769 0.94765735
13.363408 1.3479785 -0.50256062 0.94765717
13.379335 1.1799414 -0.50256193 0.94765699
13.393125 1.0117383 -0.50256306 0.94765693
13.404843 0.84334958 -0.50256401 0.94765669
13.414374 0.67484373 -0.50256485 0.94765669
13.421797 0.50623047 -0.5025655 0.94765669
13.430342 -0.1687793 -0.50256681 0.94765645
13.427129 -0.33753905 -0.50256675 0.94765657
13.421845 -0.50623047 -0.50256658 0.94765651
13.414424 -0.67484373 -0.50256628 0.94765651
13.379404 -1.1799512 -0.50256443 0.94765675
13.363486 -1.3479882 -0.50256354 0.94765687
13.345478 -1.5158203 -0.50256246 0.94765693
13.252304 -2.1843946 -0.50255686 0.94765753
13.193134 -2.5167382 -0.50255322 0.94765788
13.160449 -2.6823046 -0.5025512 0.94765794
13.125606 -2.847461 -0.50254899 0.9476583
13.08873 -3.0121582 -0.50254667 0.94765854
13.049785 -3.1763768 -0.50254422 0.94765878
12.965713 -3.5032811 -0.50253886 0.94765931
12.824238 -3.9894042 -0.5025298 0.94766015
2.0143652 -0.65452147 -0.079251744 0.99155778
2.0146191 -0.71104491 -0.079939499 0.99148482
1.7931151 -0.70996094 -0.072161295 0.99231011
1.7292968 -0.70996094 -0.069946937 0.99254525
1.6692871 -0.70996094 -0.067874752 0.99276525
1.6127245 -0.70996094 -0.0659317 0.99297154
1.5592871 -0.70996094 -0.064107172 0.99316543
1.5086914 -0.70996094 -0.062389906 0.993348
1.4607714 -0.70996094 -0.060771864 0.9935199
1.4152637 -0.70995116 -0.059244689 0.99368221
1.3719629 -0.70995116 -0.057801321 0.99383569
1.3307129 -0.70995116 -0.056435507 0.99398094
1.2913867 -0.70995116 -0.055141028 0.99411857
1.2643652 -0.80241209 -0.056032218 0.99402374
1.2642773 -0.82481444 -0.056483343 0.99397582
1.2641797 -0.84759766 -0.056950644 0.99392617
1.2640722 -0.87075192 -0.057434615 0.99387473
1.2637793 -0.94268554 -0.058993835 0.99370891
8.387578 -6.5909081 -0.39914176 0.95819968
7.775322 -7.3015332 -0.39910102 0.95820391
7.6828318 -7.3985448 -0.39909485 0.95820457
7.4942479 -7.5890427 -0.39908224 0.95820582
6.5067086 -8.0696478 -0.38787439 0.95935559
6.3395896 -8.0677929 -0.38392532 0.9597609
6.1758008 -8.0659857 -0.38011619 0.96015215
5.8577051 -8.06248 -0.37289312 0.96089423
5.4021287 -8.0574408 -0.36297938 0.96191388
5.1113477 -8.0542383 -0.35693267 0.96253622
4.8299217 -8.0511227 -0.35130408 0.96311611
4.6924806 -8.0496092 -0.34863696 0.96339089
4.4236326 -8.0466309 -0.34358215 0.96391189
4.2920704 -8.045166 -0.34119064 0.96415865
4.162324 -8.0437498 -0.33888561 0.96439642
3.7830858 -8.0395412 -0.33245993 0.96505952
3.6597753 -8.0381832 -0.33047622 0.96526444
3.5379295 -8.0368357 -0.3285673 0.96546155
3.4174511 -8.0354977 -0.32673079 0.96565127
3.2983007 -8.0341797 -0.32496566 0.96583354
3.1804101 -8.0328808 -0.32327124 0.96600866
2.7203612 -8.0278025 -0.31715733 0.96664059
2.6079493 -8.0265627 -0.3157897 0.96678215
2.4965234 -8.025322 -0.31448138 0.9669174
2.2762499 -8.0228901 -0.31204638 0.96716946
3.4267089 -16.812778 -0.64202559 0.93362373
2.9974217 -15.713041 -0.59854317 0.9379766
2.6216309 -14.747598 -0.56046677 0.94180489
2.2899804 -13.89291 -0.52685201 0.94519794
1.9952148 -13.130874 -0.49696064 0.9482249
1.7132031 -12.314843 -0.46522674 0.95144957
1.5102831 -11.9552 -0.45088762 0.95291018
1.3581738 -11.957944 -0.45031214 0.9529689
0.75166017 -11.947505 -0.4479309 0.9532119
0.60063475 -11.939668 -0.44731522 0.95327437
0.44992188 -11.929667 -0.44669458 0.95333779
0.19915038 -7.9224606 -0.29653138 0.96877581
-3.9062499e-05 -11.887348 -0.44479391 0.95353162
-0.14914063 -11.869077 -0.44414902 0.95359778
-0.44605467 -11.826538 -0.44283488 0.95373166
-0.74273437 -11.804941 -0.44258526 0.95375711
-1.334209 -11.746449 -0.44234976 0.95378119
-1.4799218 -11.714589 -0.44181252 0.95383567
-1.6249218 -11.67999 -0.44124597 0.95389384
-1.7692871 -11.643677 -0.44067949 0.95395166
-2.3400977 -11.481397 -0.43843848 0.95418036
-1.8174707 -7.8972754 -0.30321974 0.9680829
-2.7795508 -11.419394 -0.43976116 0.9540453
-3.2332029 -11.395508 -0.44322154 0.95369214
-3.536953 -11.36978 -0.44553488 0.95345581
-3.689121 -11.353906 -0.44669646 0.95333755
-3.7966795 -11.203911 -0.44263557 0.95375162
-3.7894335 -10.321577 -0.41140959 0.9569428
-3.9187498 -10.272924 -0.41140079 0.95694375
-4.047451 -10.222636 -0.411392 0.95694464
-4.175488 -10.170781 -0.41138327 0.95694548
-4.4295802 -10.062187 -0.41136593 0.95694733
-4.5555663 -10.005537 -0.41135734 0.95694816
-3.7196875 -7.9046774 -0.32687873 0.96563536
-4.929111 -9.826108 -0.41133177 0.95695084
-5.7725 -9.3537445 -0.41127408 0.95695686
-2.9115527 -4.1151853 -0.1886216 0.98002404
-3.0619531 -4.1049509 -0.19162366 0.97970974
-6.6810937 -8.7258692 -0.41121176 0.95696318
-6.7709665 -8.3973341 -0.40362293 0.95774037
-7.1852927 -8.2540522 -0.40947068 0.95714134
-7.0029001 -7.8433299 -0.3934288 0.9587853
-7.2828317 -7.7554297 -0.39808008 0.95830864
-7.4752049 -7.569736 -0.39806685 0.95830983
-7.5695996 -7.4750876 -0.39806038 0.95831054
-1.0333984 -0.92266601 -0.051836051 0.99447
-1.0338184 -0.83358395 -0.049690742 0.99469829
-1.033916 -0.81244141 -0.049200933 0.99475044
-1.0340332 -0.79170895 -0.048728026 0.99480063
-1.0341992 -0.7513867 -0.047831267 0.99489611
-1.0342773 -0.73174804 -0.047406234 0.99494147
-1.0343554 -0.71249998 -0.046995658 0.9949851
-1.0589257 -0.70997071 -0.047702521 0.99490982
-1.1834277 -0.70994139 -0.051637419 0.99449122
-1.2178808 -0.70995116 -0.05274643 0.99437314
-1.2914063 -0.70995116 -0.055141065 0.99411845
-1.3307421 -0.70995116 -0.056435544 0.99398082
-1.3719921 -0.70995116 -0.057801437 0.99383557
-1.5593066 -0.70994139 -0.064107053 0.99316537
-1.6693066 -0.70996094 -0.067874752 0.99276519
-1.7293457 -0.70996094 -0.069947086 0.99254507
-1.7826074 -0.65446287 -0.071053125 0.99242771
-10.66413 -3.7637987 -0.42314646 0.95574224
-11.087978 -3.7573826 -0.43805578 0.95421904
-11.542891 -3.7504981 -0.45413107 0.95257962
-12.572148 -3.7383788 -0.49077293 0.9488529
-12.875634 -3.6531541 -0.50078619 0.94783688
-13.176689 -2.3423924 -0.50076437 0.94783908
-13.204941 -2.1766112 -0.50076228 0.94783962
-13.255429 -1.8440624 -0.50075853 0.9478398
-13.2775 -1.6773437 -0.5007568 0.94783998
-13.2975 -1.5103613 -0.50075531 0.94784009
-13.315331 -1.3431348 -0.50075388 0.94784045
-13.356464 -0.84031248 -0.50075054 0.94784057
-13.378574 -0.3363086 -0.50074857 0.94784087
-12.45954 0.15658203 -0.50081033 0.95134133
-12.456572 0.31313476 -0.50081038 0.95134139
-12.45167 0.4696289 -0.50081056 0.95134133
-12.444785 0.62607419 -0.50081086 0.95134133
-12.435927 0.78240234 -0.50081128 0.95134139
-12.425166 0.93862301 -0.50081182 0.95134121
-12.412382 1.0946679 -0.50081253 0.95134121
-12.397646 1.2505566 -0.50081342 0.95134121
-12.380996 1.40625 -0.50081438 0.95134103
-12.341777 1.7169433 -0.5008167 0.95134091
-12.319297 1.871914 -0.50081807 0.95134068
-12.294834 2.0265722 -0.50081956 0.95134056
-12.107529 2.9470215 -0.50083125 0.95133942
-12.029756 3.2503808 -0.50083619 0.95133901
-11.944414 3.5516894 -0.50084168 0.95133847
-11.898887 3.7015233 -0.5008446 0.95133829
-11.802246 3.9994335 -0.50085086 0.9513377
-1.783584 0.7061621 -0.077099115 0.99235004
-1.7293164 0.70994139 -0.075133398 0.99254441
-1.6692969 0.70994139 -0.072907791 0.99276447
-1.4152832 0.70994139 -0.063637845 0.99368149
-1.3719823 0.70995116 -0.062087324 0.99383497
-1.3307519 0.70994139 -0.06062004 0.99398017
-1.15042 0.70994139 -0.054332845 0.99460286
-1.1187109 0.70995116 -0.053252526 0.99470991
-1.0882422 0.70993161 -0.052222557 0.99481195
-1.0335742 0.73126954 -0.050887182 0.99494427
-1.0332812 0.7911523 -0.052305181 0.99480385
-1.0332227 0.81186521 -0.052812424 0.99475342
-1.0330957 0.83300781 -0.053337857 0.99470139
-1.0329883 0.85456055 -0.053882521 0.99464744
-1.0328808 0.87654293 -0.054447211 0.99459159
-1.0325292 0.94544917 -0.056267776 0.99441117
-9.087265 8.533515 -0.50103021 0.95132077
-8.6475487 8.9798632 -0.50105953 0.95131791
-6.4093747 7.5523047 -0.39811844 0.96112221
-6.217617 7.7110739 -0.39812109 0.96112186
-5.9226561 7.9400387 -0.39812544 0.96112132
-5.6192088 8.1576757 -0.39813018 0.96112108
-5.4124999 8.2964058 -0.39813361 0.96112067
-5.3078513 8.3637886 -0.39813536 0.96112055
-4.9889255 8.5580368 -0.39814094 0.96111989
-4.6628709 8.7401075 -0.3981469 0.96111941
-4.4418063 8.8546286 -0.39815107 0.961119
-4.1049805 9.0158787 -0.39815769 0.96111846
-3.9913769 9.0667963 -0.39815992 0.96111828
-3.8771582 9.1163177 -0.39816231 0.96111792
-3.4143164 9.2998238 -0.39817199 0.96111703
-3.2972167 9.3420506 -0.39817455 0.96111679
-7.7313571 22.815029 -0.96819919 0.90806854
-7.4192381 22.834063 -0.96497327 0.9083603
-6.8661618 23.090946 -0.96822828 0.9080658
-6.4859276 24.004541 -0.99938476 0.90525222
-5.2551365 21.590038 -0.89307553 0.91488826
-4.8677244 21.15169 -0.87235028 0.9167794
-3.8414745 20.137548 -0.82396388 0.92120844
-1.452705 8.1719427 -0.33359602 0.96731889
-3.0405273 18.446074 -0.7513876 0.92789167
-1.7643456 17.491211 -0.70657283 0.93204272
-1.438457 19.041651 -0.76750273 0.92640358
-1.2532519 19.919765 -0.80220193 0.9232077
-0.82716793 21.930546 -0.88205719 0.91589326
-0.57931638 23.045166 -0.926521 0.91184592
1.386709 4.457705 -0.18763286 0.98148483
2.8434081 8.0565033 -0.34338114 0.96637648
3.0722265 8.0539646 -0.34645522 0.96608067
3.1882324 8.0526953 -0.34809664 0.96592271
3.6639843 8.047431 -0.35538757 0.96522146
3.9097068 8.0447264 -0.35949355 0.96482676
4.1613669 8.0419436 -0.36393103 0.96440059
4.4194727 8.0390921 -0.36871168 0.96394134
4.6846094 8.0361719 -0.37386015 0.96344709
4.9574218 8.033144 -0.37939799 0.9629159
5.2386427 8.0300388 -0.38534942 0.9623453
5.382627 8.0284271 -0.38848853 0.96204454
5.8293653 8.0235252 -0.39860541 0.96107543
6.0323143 7.8785644 -0.3988131 0.96105564
6.4212108 7.5662889 -0.39885283 0.96105176
6.7939062 7.2347751 -0.39889231 0.96104819
6.9739256 7.062109 -0.39891192 0.96104628
7.0622754 6.974072 -0.3989217 0.96104538
7.1495214 6.8849411 -0.39893141 0.96104449
7.2356834 6.7947559 -0.39894116 0.96104336
7.3206835 6.7034664 -0.39895079 0.9610424
7.404531 6.6111131 -0.39896044 0.96104145
7.5686717 6.4232516 -0.39897966 0.96103966
7.6489549 6.3277636 -0.3989892 0.96103889
7.7280564 6.2312989 -0.39899871 0.96103793
7.8825879 6.0354004 -0.39901763 0.96103615
1.2629297 0.94204098 -0.063325271 0.99371248
1.2630273 0.91763669 -0.062747687 0.99376971
1.2631347 0.89371091 -0.062190436 0.99382484
1.2633495 0.84702146 -0.061132926 0.99392951
1.2634765 0.82426757 -0.060631752 0.99397904
1.2636328 0.77983397 -0.059681397 0.99407327
1.2638086 0.73673826 -0.058796424 0.99416089
1.2638965 0.71565425 -0.058377303 0.99420238
1.2913672 0.70995116 -0.059229773 0.99411798
1.3307421 0.70994139 -0.060620077 0.99398023
1.3719531 0.70995116 -0.062087402 0.99383503
1.4152539 0.70995116 -0.063637964 0.99368155
1.6692969 0.70995116 -0.072907828 0.99276447
1.7293066 0.70994139 -0.075133547 0.99254441
1.7931151 0.70995116 -0.077512398 0.99230933
1.9337305 0.70993161 -0.082793273 0.99178755
2.016748 0.7118066 -0.08595787 0.99147493
11.937275 3.7134862 -0.50246137 0.95118517
12.027012 3.4123828 -0.50246781 0.95118439
12.069023 3.2609961 -0.50247079 0.95118409
12.147275 2.9566894 -0.50247645 0.95118368
12.280693 2.3426757 -0.50248617 0.95118284
12.309267 2.1881738 -0.50248826 0.95118248
12.3604 1.8781641 -0.50249207 0.95118237
12.383135 1.722705 -0.5024938 0.95118195
12.403867 1.5669628 -0.50249535 0.95118171
12.422617 1.4109863 -0.50249678 0.95118153
12.466992 0.9417578 -0.5025003 0.95118147
12.477851 0.78501952 -0.50250119 0.95118141
12.486806 0.6281836 -0.50250196 0.95118111
12.493711 0.47121093 -0.50250256 0.95118117
12.502646 9.7656248e-06 -0.50250369 0.95118093
12.498692 -0.31419921 -0.50250375 0.95118099
12.49377 -0.47125 -0.50250363 0.95118093
12.486835 -0.62819332 -0.50250334 0.95118099
12.477959 -0.78504878 -0.50250286 0.95118099
12.46708 -0.94178706 -0.50250226 0.95118111
12.454219 -1.0983691 -0.50250161 0.95118129
12.439414 -1.2547754 -0.50250077 0.95118135
12.383232 -1.7227246 -0.50249743 0.95118153
12.335927 -2.0333593 -0.50249457 0.95118195
12.280849 -2.342705 -0.50249112 0.95118225
12.25039 -2.4968359 -0.50248927 0.95118248
12.183691 -2.8038769 -0.5024851 0.95118278
12.14745 -2.956748 -0.50248277 0.95118296
12.109297 -3.1091504 -0.50248033 0.95118314
12.027167 -3.4124119 -0.50247508 0.9511838
2.0165038 -0.65521485 -0.085217662 0.99154794
2.0166211 -0.68337888 -0.085579567 0.9915123
1.9337401 -0.70995116 -0.082793348 0.99178749
1.6692871 -0.70996094 -0.072907791 0.99276447
1.6127245 -0.70996094 -0.07082054 0.99297082
1.3719629 -0.70995116 -0.062087439 0.99383503
1.3307129 -0.70995116 -0.060620155 0.99398029
1.2913867 -0.70995116 -0.05922962 0.99411792
1.2639062 -0.7156738 -0.058377419 0.99420232
1.2638086 -0.73674804 -0.058796387 0.99416089
1.2635547 -0.80188477 -0.060148239 0.99402696
1.2634473 -0.82427734 -0.060631942 0.9939791
1.2632519 -0.87017578 -0.061652411 0.99387807
7.8077831 -6.1353126 -0.39910197 0.96102792
7.650918 -6.3294239 -0.39909157 0.96102899
7.570693 -6.4249606 -0.39908621 0.96102947
7.4892578 -6.5195017 -0.39908075 0.96103001
7.1518259 -6.8871679 -0.39905828 0.96103215
6.7047849 -7.3221188 -0.39902842 0.96103489
6.6121192 -7.4056444 -0.39902222 0.96103567
6.5184374 -7.4880567 -0.39901596 0.96103621
6.3279977 -7.6492381 -0.39900321 0.96103746
5.7031054 -8.0607615 -0.39686766 0.96124208
5.4021287 -8.0574408 -0.38989425 0.96190989
5.2555075 -8.05581 -0.38658944 0.96222663
5.1113477 -8.0542383 -0.38339919 0.96253228
4.9695411 -8.0526562 -0.38032386 0.96282738
4.5570898 -8.0480957 -0.37172592 0.96365225
4.4236326 -8.0466213 -0.3690609 0.96390814
4.162324 -8.0437498 -0.36401263 0.96439266
4.0342774 -8.0423241 -0.36162752 0.96462202
3.9078906 -8.0409279 -0.35932654 0.96484298
3.5379295 -8.0368357 -0.35293049 0.96545792
3.0637403 -8.0315914 -0.34549469 0.96617317
2.9481933 -8.0303221 -0.34381923 0.96633446
2.7203612 -8.0278025 -0.34067649 0.96663707
2.4965234 -8.025322 -0.33779991 0.96691394
2.2762499 -8.0228901 -0.33518335 0.96716601
3.8666406 -16.801718 -0.69294417 0.93330866
2.8869531 -14.164512 -0.5810017 0.94377303
2.4224608 -12.699125 -0.51960385 0.94956225
2.168164 -12.196611 -0.49789175 0.95161825
1.7246094 -11.350034 -0.46141425 0.95508176
1.5336523 -11.024219 -0.44735187 0.9564206
1.1130859 -11.035029 -0.44577062 0.95657134
0.83337891 -11.032455 -0.44467986 0.95667523
0.55449218 -11.022134 -0.44356596 0.9567818
0.41539061 -11.01416 -0.44299498 0.95683575
-9.7656248e-06 -10.978677 -0.44125292 0.95700163
-0.5490039 -10.912676 -0.43915507 0.95720166
-0.95962888 -10.88101 -0.43902954 0.95721406
-1.0961523 -10.866714 -0.4389714 0.95721936
-1.2324317 -10.850444 -0.43890357 0.95722568
-1.6396289 -10.790459 -0.43866837 0.95724821
-1.7747265 -10.766675 -0.43857372 0.95725727
-1.9094433 -10.741098 -0.43847179 0.95726669
-2.1776464 -10.684297 -0.43825331 0.95728797
-2.3110938 -10.653086 -0.43812704 0.95729971
-1.8174707 -7.8972754 -0.32570341 0.96807957
-2.5791795 -10.596206 -0.43831879 0.95728171
-2.7187207 -10.588574 -0.43937865 0.95718038
-2.8584862 -10.579199 -0.44044825 0.95707864
-2.9984276 -10.567973 -0.44151297 0.95697701
-3.1385741 -10.554976 -0.44258225 0.95687503
-3.2789843 -10.540518 -0.44367135 0.95677149
-3.4198437 -10.525142 -0.44479457 0.95666414
-3.7848046 -10.30895 -0.44137481 0.95698982
-3.7744823 -9.533247 -0.41209656 0.95978481
-3.8874316 -9.469101 -0.41140205 0.95985109
-4.473906 -9.2054396 -0.41136199 0.95985484
-4.5891209 -9.1482611 -0.41135412 0.95985585
-4.8173633 -9.029726 -0.41133848 0.95985729
-4.9303613 -8.9683008 -0.41133079 0.95985806
-2.8126953 -4.3113866 -0.20689771 0.97960329
-2.7892089 -4.1601562 -0.20130733 0.98014891
-2.8264453 -4.103281 -0.20025773 0.98025137
-2.9104493 -4.1135936 -0.20252986 0.98002952
-3.0613866 -4.1041698 -0.20578924 0.97971135
-3.144912 -4.1074219 -0.20791845 0.97950369
-6.1207809 -7.7893162 -0.39815894 0.96111834
-6.2181053 -7.711699 -0.39815226 0.96111882
-6.4097462 -7.5527539 -0.39813912 0.96112001
-6.5040231 -7.4714942 -0.39813262 0.96112067
-6.780654 -7.220654 -0.39811358 0.96112269
-1.0325292 -0.94545895 -0.056267813 0.99441117
-1.0328808 -0.87656248 -0.054447174 0.99459153
-1.0331055 -0.83301759 -0.053338163 0.99470133
-1.0332129 -0.81188476 -0.052812424 0.99475342
-1.0333984 -0.77083004 -0.051815756 0.99485224
-1.0335938 -0.73127925 -0.050887261 0.99494421
-1.0336719 -0.71201169 -0.050447159 0.99498791
-1.0589257 -0.70997071 -0.051239662 0.99490929
-1.253828 -0.70996094 -0.057910535 0.99424845
-1.3719921 -0.70995116 -0.062087402 0.99383491
-1.460791 -0.70996094 -0.065278508 0.99351913
-1.5593066 -0.70994139 -0.068860777 0.99316466
-1.7293261 -0.70995116 -0.075133778 0.99254435
-1.7835156 -0.68033201 -0.076720849 0.99238747
-11.542891 -3.7505078 -0.48780432 0.95257461
-11.899111 -3.7016113 -0.50085247 0.95133734
-11.94457 -3.551748 -0.50084919 0.95133781
-12.069785 -3.098994 -0.50084025 0.95133847
-12.107636 -2.947041 -0.50083756 0.95133901
-12.240244 -2.3349512 -0.50082791 0.95133966
-12.362451 -1.561748 -0.50081879 0.95134068
-12.397715 -1.2505664 -0.50081605 0.95134097
-12.41246 -1.0946777 -0.50081486 0.95134091
-12.444814 -0.62606442 -0.50081217 0.95134127
-12.456572 -0.31313476 -0.50081104 0.95134139
-12.45954 -0.15659179 -0.50081068 0.95134133
-11.657011 -0 -0.50086498 0.95440125
-11.65331 0.29293945 -0.50086492 0.95440137
-11.648721 0.43934569 -0.50086504 0.95440131
-11.642275 0.58569336 -0.50086534 0.95440131
-11.623886 0.87807614 -0.50086629 0.95440131
-11.611923 1.0240625 -0.50086689 0.95440137
-11.598193 1.1699121 -0.50086766 0.95440114
-11.582568 1.3155664 -0.50086862 0.9544012
-11.501963 1.8958789 -0.50087345 0.95440072
-11.477246 2.0402734 -0.50087494 0.9544006
-11.450781 2.1843457 -0.50087661 0.9544003
-11.422461 2.3280663 -0.50087839 0.95440018
-11.360391 2.6144042 -0.50088227 0.9544
-11.253955 3.0407519 -0.50088906 0.95439935
-11.214911 3.1819627 -0.50089157 0.95439911
-11.131514 3.4628222 -0.50089687 0.95439869
-11.087207 3.6024413 -0.50089973 0.95439833
-10.99331 3.8799803 -0.50090581 0.9543978
-1.7843066 0.65507811 -0.081670031 0.99241883
-1.6692969 0.70994139 -0.077941515 0.99276364
-1.6127245 0.70995116 -0.07571087 0.99297005
-1.5592871 0.70996094 -0.07361526 0.99316394
-1.4152832 0.70994139 -0.068031766 0.99368078
-1.3719823 0.70995116 -0.066374585 0.99383426
-1.1834277 0.70995116 -0.059296262 0.99448997
-1.1187109 0.70995116 -0.05692951 0.99470925
-1.0882422 0.70993161 -0.055828437 0.99481136
-1.0328906 0.73077148 -0.05436451 0.99494708
-1.0327929 0.75035155 -0.054851416 0.99490196
-1.0325977 0.79060543 -0.055878371 0.99480671
-1.0324805 0.81129879 -0.056419905 0.99475658
-1.0323731 0.83241206 -0.056980781 0.99470454
-1.0321289 0.87591797 -0.058164902 0.99459481
-1.0318652 0.9212988 -0.05943691 0.99447697
-1.0317481 0.94474608 -0.060108375 0.99441469
-8.5010643 7.983037 -0.5010705 0.95438308
-8.0896578 8.4005175 -0.50109798 0.95438075
-7.9835935 8.5016108 -0.50110507 0.9543801
-7.8762302 8.6014156 -0.50111222 0.95437944
-6.0833497 6.9882321 -0.39809456 0.9635849
-5.7247071 7.2852535 -0.39810607 0.96358395
-5.6327634 7.3566794 -0.39810881 0.96358359
-5.4461813 7.4960155 -0.39811406 0.96358311
-4.9649024 7.8234081 -0.39812604 0.9635821
-4.8662305 7.8852243 -0.39812818 0.96358186
-4.6665916 8.0051069 -0.39813238 0.9635815
-4.5656443 8.0631447 -0.39813438 0.96358138
-4.4639845 8.1199217 -0.39813629 0.9635812
-4.2585545 8.229599 -0.39813986 0.96358091
-4.1548142 8.2825193 -0.39814159 0.96358073
-4.0504298 8.3340912 -0.39814323 0.96358061
-3.94541 8.3843842 -0.39814478 0.96358037
-3.8397264 8.4333296 -0.39814627 0.96358031
-3.7334764 8.4809475 -0.3981477 0.96358013
-3.6266112 8.527236 -0.39814967 0.96358001
-3.4113183 8.6159964 -0.39816418 0.96357864
-3.1938574 8.6992865 -0.39817885 0.96357745
-3.084326 8.738945 -0.39818621 0.96357661
-6.6504588 22.365536 -1.002565 0.91081125
-6.403379 22.568798 -1.0079868 0.91035098
-5.5477242 21.606903 -0.95849514 0.91455901
-5.1522655 21.167519 -0.93606144 0.91647309
-4.7746482 20.747187 -0.91474956 0.91829497
-4.4135642 20.344608 -0.89448154 0.92003071
-3.5828416 18.781729 -0.82154709 0.92630452
-1.452705 8.1719427 -0.35662833 0.9673152
-2.3651855 15.5654 -0.67647558 0.9389112
-2.1281152 15.297177 -0.66360134 0.94003797
-1.9759277 15.640859 -0.6773808 0.93883187
-1.839287 16.193319 -0.70025086 0.93683332
-1.372666 18.170771 -0.7829659 0.92964041
-0.78397459 20.785614 -0.89373183 0.92009503
-0.54864258 21.82452 -0.9380331 0.91630477
-0.28839844 22.947811 -0.98607695 0.91221172
0 24.191669 -1.0394448 0.90768671
0.30398437 24.190224 -1.0394654 0.90768504
3.3527343 24.100214 -1.0454865 0.90717578
3.6593456 24.082588 -1.0466353 0.90707874
3.9659472 24.060694 -1.047767 0.90698314
2.730459 8.0577536 -0.36555392 0.96651095
2.9573145 8.055254 -0.36869696 0.96622795
3.0722265 8.0539646 -0.37037772 0.96607679
3.1882324 8.0526953 -0.37213141 0.96591884
3.7861328 8.0460939 -0.38207877 0.96502399
4.5511131 8.0376272 -0.39687189 0.96369469
5.1681933 7.7084861 -0.39876235 0.96352488
5.2647557 7.6430955 -0.39877173 0.96352416
5.360498 7.5764937 -0.39878103 0.96352339
5.6426368 7.3696094 -0.39880902 0.96352082
5.7349315 7.2982712 -0.39881831 0.96352005
5.8263278 7.2258105 -0.39882761 0.96351916
6.1826267 6.9245996 -0.39886466 0.96351576
6.4396386 6.687109 -0.39889228 0.96351337
6.5233102 6.6058006 -0.39890143 0.9635126
6.6059766 6.5234861 -0.39891055 0.96351165
6.6875682 6.4400878 -0.39891967 0.96351087
7.0033298 6.0964942 -0.39895582 0.96350765
7.0795407 6.0081444 -0.39896479 0.96350688
7.3014646 5.7374215 -0.3989915 0.96350443
1.2620507 0.9413867 -0.067651406 0.99371612
1.2621777 0.91703123 -0.067035027 0.99377316
1.2627343 0.80137694 -0.06425976 0.99403012
1.2628515 0.77934569 -0.063761406 0.99407625
1.2629199 0.75764644 -0.063280255 0.9941209
1.2631054 0.71521485 -0.062368888 0.99420536
1.3719531 0.70995116 -0.066374511 0.99383432
1.4152539 0.70995116 -0.068031885 0.99368083
1.5087206 0.70994139 -0.071643636 0.99334645
1.7293066 0.70994139 -0.080321386 0.99254358
1.7931151 0.70995116 -0.082864031 0.99230844
1.861123 0.70995116 -0.085587464 0.99205661
1.9337305 0.70993161 -0.088509902 0.9917866
2.0186133 0.6558789 -0.091197625 0.99153823
11.457822 2.335283 -0.50243032 0.95426232
11.486318 2.1911328 -0.50243241 0.95426208
11.512959 2.0466211 -0.50243437 0.95426202
11.53787 1.9018066 -0.50243622 0.95426166
11.618964 1.3196973 -0.50244236 0.95426118
11.679013 0.58753908 -0.50244719 0.95426077
11.690087 0.29385743 -0.50244826 0.95426077
11.6929 0.14694336 -0.50244862 0.95426065
11.6929 -0.14696288 -0.50244898 0.95426065
11.685517 -0.44074216 -0.50244874 0.95426059
11.670703 -0.73425782 -0.50244808 0.95426077
11.660546 -0.88085938 -0.50244755 0.95426083
11.648544 -1.0273144 -0.50244683 0.95426089
11.634727 -1.1736133 -0.50244612 0.95426083
11.619042 -1.3197168 -0.50244516 0.95426089
11.395576 -2.6224902 -0.50243139 0.95426208
11.36166 -2.7654686 -0.50242925 0.95426232
11.325917 -2.9080174 -0.50242698 0.95426267
11.24915 -3.1916797 -0.50242209 0.95426315
11.165293 -3.47333 -0.50241667 0.95426351
2.0187695 -0.68410152 -0.091585122 0.99150234
2.0189061 -0.71254879 -0.091990508 0.99146491
1.7931151 -0.70996094 -0.082864419 0.99230844
1.6692871 -0.70996094 -0.07794182 0.99276364
1.6127245 -0.70996094 -0.075710908 0.99296999
1.5592871 -0.70996094 -0.073615223 0.99316394
1.4607714 -0.70996094 -0.069785692 0.99351847
1.3719629 -0.70995116 -0.066374317 0.99383432
1.3307129 -0.70995116 -0.064806096 0.99397963
1.2630078 -0.7362988 -0.062816501 0.99416387
1.2629297 -0.75765622 -0.063280292 0.99412084
1.2627343 -0.80136716 -0.064259678 0.99403012
1.2624121 -0.86958981 -0.065865591 0.9938814
1.2622949 -0.89310545 -0.066440046 0.99382824
1.2621973 -0.91703123 -0.06703499 0.9937731
1.2620605 -0.94139647 -0.067651592 0.99371606
7.2300878 -5.8297849 -0.39906245 0.96349794
7.1561522 -5.9200974 -0.39905754 0.96349847
7.0811424 -6.0094919 -0.39905253 0.96349877
7.0049415 -6.0979199 -0.39904746 0.96349937
6.9276657 -6.1853905 -0.39904231 0.96349984
6.8493552 -6.2718945 -0.39903712 0.96350008
6.6893454 -6.4418259 -0.39902645 0.96350133
6.6077828 -6.5252929 -0.399021 0.96350175
6.5251756 -6.6077247 -0.39901549 0.96350223
6.2712598 -6.848711 -0.39899853 0.9635036
6.1846094 -6.9268456 -0.39899272 0.9635042
6.0969725 -7.0038867 -0.39898685 0.96350485
5.9188476 -7.1546969 -0.39897496 0.96350586
5.7370214 -7.3009567 -0.39896274 0.96350694
5.4575391 -7.5116405 -0.39894402 0.96350861
5.362617 -7.5795212 -0.39893764 0.96350914
5.2668552 -7.646162 -0.39893124 0.9635098
4.974668 -7.8388672 -0.39891163 0.96351153
4.7759571 -7.9611325 -0.39889827 0.96351272
4.6924806 -8.0496092 -0.40034521 0.9633829
4.4236326 -8.0466213 -0.39454311 0.96390402
4.0342774 -8.0423241 -0.38659531 0.96461803
3.9078906 -8.0409279 -0.38413802 0.96483904
3.7831054 -8.0395508 -0.38177124 0.96505183
3.6598144 -8.0381832 -0.37949201 0.96525675
3.5379295 -8.0368452 -0.37729907 0.96545398
3.1804101 -8.0328903 -0.37121853 0.96600121
3.0637403 -8.0315914 -0.36935082 0.96616936
2.9481835 -8.0303221 -0.36755854 0.96633065
2.83375 -8.0290623 -0.36584112 0.96648526
2.4965234 -8.025322 -0.36112586 0.96691018
2.385957 -8.0241013 -0.35969236 0.96703929
2.2762499 -8.0228901 -0.35832772 0.96716231
2.8764844 -12.499272 -0.55109441 0.94994491
2.3699999 -11.628213 -0.50990194 0.9535982
1.9429199 -10.929702 -0.47697914 0.95652807
1.7559863 -10.653237 -0.46391317 0.95769322
1.5630664 -10.286801 -0.44706622 0.95919788
1.431914 -10.293125 -0.44652387 0.95924634
1.1700195 -10.301132 -0.4454563 0.95934194
1.039248 -10.302876 -0.44493109 0.95938879
0.90863281 -10.303105 -0.44441321 0.95943516
0.38806641 -10.289023 -0.44240156 0.95961475
0.19915038 -7.922451 -0.34051257 0.96876901
-0.25740233 -10.238066 -0.44003835 0.95982623
-1.0263183 -10.174429 -0.43938556 0.95988482
-1.409453 -10.131304 -0.43950602 0.95987397
-1.6640332 -10.095156 -0.43961567 0.95986438
-1.7909961 -10.074926 -0.43967539 0.9598586
-2.1705565 -10.005259 -0.43989861 0.95983893
-1.8174707 -7.8972754 -0.34819302 0.96807593
-2.8117969 -9.9101849 -0.44261837 0.9595955
-2.9430273 -9.8973875 -0.44366416 0.95950204
-3.205996 -9.8670015 -0.44577518 0.95931345
-3.4695117 -9.8302736 -0.44791543 0.95912218
-3.6014452 -9.8095217 -0.44899535 0.95902556
-3.7334373 -9.7870846 -0.45008013 0.95892859
-3.769824 -9.1826754 -0.42650488 0.96103722
-3.7654588 -8.8536768 -0.41339102 0.96221238
-3.8577929 -8.76334 -0.4114033 0.96239054
-3.9675195 -8.7140284 -0.41139579 0.9623912
-3.7197654 -7.9048629 -0.37536627 0.96562707
-4.5064549 -8.4469233 -0.41135898 0.9623946
-4.6121678 -8.3895216 -0.41135177 0.96239507
-4.7171288 -8.3307076 -0.41134456 0.96239591
-4.9248242 -8.2092676 -0.41133034 0.96239716
-2.79 -4.396328 -0.22372524 0.97936898
-2.7877049 -4.1579394 -0.2150912 0.98015714
-2.9093065 -4.1120019 -0.21643002 0.98003489
-3.0607812 -4.1033788 -0.21995252 0.97971296
-3.1410058 -4.102324 -0.22199789 0.97952652
-5.9961424 -7.0654101 -0.39816666 0.9635784
-6.1716404 -6.9122849 -0.39815459 0.96357942
-6.4274802 -6.6744432 -0.39813697 0.96358109
-6.5107517 -6.5930958 -0.39813125 0.9635815
-6.5929785 -6.5106444 -0.39812556 0.9635821
-6.6741796 -6.4271774 -0.39811996 0.96358263
-6.7543063 -6.3427243 -0.39811447 0.96358317
-1.0317578 -0.94476563 -0.060108565 0.99441463
-1.0322655 -0.85393554 -0.057562217 0.99465066
-1.0325977 -0.79062498 -0.055878371 0.99480665
-1.0327929 -0.75036132 -0.054851338 0.99490196
-1.0328906 -0.73079097 -0.054364242 0.99494702
-1.0589257 -0.70997071 -0.054777563 0.99490869
-1.1187109 -0.70996094 -0.056929663 0.99470925
-1.2178808 -0.70995116 -0.060569763 0.99437189
-1.253828 -0.70996094 -0.06190918 0.99424779
-1.2914063 -0.70995116 -0.063319243 0.9941172
-1.3719921 -0.70995116 -0.066374436 0.9938342
-1.5593066 -0.70994139 -0.073615342 0.99316388
-1.6127441 -0.70996094 -0.075710677 0.99296993
-1.6693066 -0.70996094 -0.077941969 0.99276358
-1.7293261 -0.70995116 -0.080321461 0.99254352
-1.7844336 -0.70651364 -0.082462274 0.99234551
-1.7843847 -0.68067384 -0.082057722 0.99238288
-1.7843164 -0.65507811 -0.08166977 0.99241883
-10.66413 -3.7637987 -0.48590538 0.95573264
-11.041299 -3.7415819 -0.5009107 0.95439738
-11.131719 -3.4628906 -0.50090426 0.95439786
-11.422578 -2.3280957 -0.50088334 0.95439976
-11.50208 -1.8959179 -0.5008775 0.95440024
-11.582656 -1.3155859 -0.50087136 0.95440084
-11.598262 -1.1699317 -0.50087017 0.9544009
-11.611992 -1.0240917 -0.5008691 0.95440108
-11.623906 -0.87808591 -0.50086814 0.9544012
-11.634033 -0.73195308 -0.50086731 0.9544012
-11.642275 -0.58570313 -0.50086659 0.95440131
-11.656074 -0.1464746 -0.50086516 0.95440137
-10.949775 0.13758789 -0.50091279 0.95709908
-10.947158 0.27518556 -0.50091279 0.95709914
-10.908369 0.96202147 -0.50091469 0.95709884
-10.89542 1.0990235 -0.50091547 0.95709878
-10.826484 1.6450781 -0.50091952 0.95709866
-10.781816 1.9166406 -0.50092226 0.95709831
-10.730283 2.1870117 -0.50092548 0.95709813
-10.640381 2.5898926 -0.50093114 0.95709753
-10.60706 2.7234375 -0.50093323 0.95709729
-10.497011 3.1213086 -0.50094032 0.95709676
-10.457011 3.2529783 -0.50094289 0.95709658
-10.37207 3.5147753 -0.50094837 0.9570961
-1.7851758 0.65539062 -0.086987764 0.99241424
-1.7852343 0.68099606 -0.087401234 0.99237835
-1.7853124 0.7068457 -0.087832451 0.99234086
-1.7293164 0.70994139 -0.085510522 0.99254262
-1.6692969 0.70994139 -0.082977064 0.99276274
-1.6127245 0.70995116 -0.080601916 0.99296916
-1.5087304 0.70995116 -0.076272085 0.99334556
-1.3719823 0.70995116 -0.070662379 0.99383348
-1.3307519 0.70994139 -0.068992689 0.99397874
-1.2178613 0.70995116 -0.06448292 0.99437124
-1.1834277 0.70995116 -0.063127056 0.99448925
-1.15042 0.70994139 -0.061836585 0.99460161
-1.0323144 0.71106446 -0.057338219 0.99499327
-1.0321875 0.73027343 -0.057837903 0.99494988
-1.0320898 0.74985349 -0.058355406 0.99490476
-1.0319824 0.76978517 -0.058891755 0.99485803
-1.031875 0.79005855 -0.059447516 0.99480969
-1.0317773 0.81074214 -0.060023077 0.9947595
-1.0316406 0.83181638 -0.060619507 0.99470764
-1.0314063 0.87529296 -0.061878163 0.99459797
-7.9857225 7.4990916 -0.50110596 0.95708305
-7.890996 7.5989451 -0.50111234 0.95708239
-7.7949805 7.697607 -0.50111872 0.95708185
-7.5992675 7.8912888 -0.50113177 0.95708072
-7.4996285 7.9862595 -0.50113845 0.95708013
-5.7958102 6.4913473 -0.39806604 0.96575475
-5.7138476 6.5637403 -0.39807025 0.96575433
-5.4625096 6.77458 -0.3980785 0.96575367
-5.2033887 6.975781 -0.39808616 0.96575302
-4.8464551 7.2285838 -0.39809552 0.96575218
-4.7552538 7.2889452 -0.39809772 0.96575207
-4.6633105 7.3481641 -0.39809981 0.96575189
-4.3830957 7.5188184 -0.3981058 0.96575135
-4.288291 7.5733395 -0.39810768 0.96575123
-3.9999902 7.7299314 -0.39812517 0.96574968
-3.9025977 7.7797265 -0.39813176 0.96574908
-3.8045995 7.8282809 -0.39813834 0.96574855
-3.606787 7.9216599 -0.39815167 0.96574748
-3.3058887 8.0525579 -0.39817953 0.96574503
-3.1026659 8.1335354 -0.39820206 0.96574318
-2.7940526 8.2451849 -0.3982245 0.96574122
-2.6902442 8.2796774 -0.39822784 0.9657411
-2.5860252 8.3129101 -0.39823118 0.96574074
-2.4813573 8.3448439 -0.39823464 0.96574038
-2.3763378 8.3754292 -0.39823812 0.96574014
-5.2937989 20.617958 -0.97371358 0.91829562
-4.8895702 20.088144 -0.94571912 0.92054892
-4.5068359 19.583544 -0.91922706 0.92268646
-1.452705 8.1719427 -0.37966904 0.96731126
-2.0696776 14.877158 -0.6870774 0.9416284
-1.9205663 15.202773 -0.70094466 0.94048601
-1.7689062 15.573574 -0.71696037 0.93916845
-1.1391406 18.105585 -0.82983732 0.9299342
-0.950625 18.895605 -0.86543149 0.92704129
-0.52012694 20.690517 -0.94674301 0.92046636
0.85649413 22.70874 -1.0395051 0.91302264
1.9965234 22.63872 -1.0395813 0.91301644
2.857578 22.620136 -1.0429307 0.9127484
3.1449804 22.606709 -1.0440562 0.91265881
3.4324999 22.589725 -1.0451818 0.91256893
4.0077438 22.544872 -1.0474327 0.9123888
4.3764062 22.941874 -1.0683508 0.91071981
2.375205 8.3717184 -0.39806151 0.96575511
1.386709 4.457705 -0.21354686 0.98148042
1.4491308 4.45999 -0.21451135 0.98139757
2.8434081 8.0565033 -0.39080626 0.96636862
2.9573145 8.055254 -0.3925167 0.9662239
3.0722461 8.0539646 -0.39430475 0.96607268
3.1882324 8.0526953 -0.39617294 0.96591473
3.4106739 8.0194435 -0.39863068 0.96570694
3.5112402 7.9761329 -0.39863929 0.96570623
3.8095996 7.8386426 -0.39866534 0.96570402
3.9078906 7.7902927 -0.39867404 0.96570343
4.0055761 7.7407517 -0.39868277 0.96570259
4.1990232 7.6379786 -0.39870024 0.9657011
4.3898239 7.5303807 -0.39871776 0.96569967
4.5778809 7.4179978 -0.39873526 0.96569818
4.7630758 7.3009567 -0.39875281 0.96569663
5.0352049 7.1167188 -0.39877912 0.96569437
5.6417966 6.647861 -0.39884034 0.9656893
5.725029 6.5766015 -0.39884898 0.96568847
5.8073144 6.5042672 -0.39885768 0.96568787
5.8887305 6.4309177 -0.39886633 0.9656871
6.0487399 6.2811813 -0.39888361 0.96568561
6.2049217 6.1274509 -0.39890075 0.96568424
6.2816014 6.0491114 -0.39890936 0.96568346
6.4318848 5.8896189 -0.39892638 0.96568203
6.5781446 5.726367 -0.39894333 0.96568054
6.7897167 5.4746971 -0.39896846 0.96567851
6.9254589 5.3025684 -0.39898509 0.96567702
1.2614551 0.89249021 -0.070684962 0.99383163
1.2615722 0.86901367 -0.070074044 0.99388474
1.2616992 0.84590816 -0.06948486 0.993936
1.2618164 0.82319331 -0.068915896 0.99398547
1.2619238 0.80083007 -0.068366736 0.99403328
1.2620312 0.77881837 -0.06783691 0.99407941
1.2621094 0.75716794 -0.067325555 0.99412394
1.2913672 0.70995116 -0.067410164 0.9941166
1.3719531 0.70995116 -0.070662685 0.9938336
1.4152539 0.70995116 -0.072427101 0.99368006
1.7293066 0.70994139 -0.085510366 0.99254268
1.7931151 0.70995116 -0.088217653 0.99230748
1.861123 0.70995116 -0.091116786 0.99205565
2.0210547 0.71331054 -0.098037794 0.99145478
2.020752 0.656582 -0.097191729 0.99152821
10.48667 3.2621973 -0.5023635 0.95697755
10.602324 2.864707 -0.50237173 0.95697689
10.637519 2.7312403 -0.50237429 0.95697677
10.671083 2.5973926 -0.50237668 0.95697641
10.70292 2.4630957 -0.502379 0.95697629
10.761542 2.1933692 -0.50238323 0.95697588
10.81332 1.9222559 -0.50238705 0.95697564
10.83667 1.7862304 -0.50238878 0.95697546
10.878193 1.5133495 -0.50239193 0.95697522
10.896397 1.3765234 -0.50239331 0.95697504
10.927597 1.1022656 -0.50239569 0.95697486
10.940596 0.96486324 -0.5023967 0.95697486
10.983134 -0 -0.50240064 0.95697457
10.982265 -0.13801758 -0.50240076 0.95697457
10.979649 -0.27599609 -0.5024007 0.95697463
10.969257 -0.55184567 -0.50240028 0.95697457
10.961474 -0.68963867 -0.50239986 0.95697451
10.951895 -0.82731444 -0.50239938 0.95697469
10.940635 -0.96489257 -0.50239879 0.95697469
10.896445 -1.3765527 -0.50239623 0.95697486
10.858339 -1.6499316 -0.50239396 0.95697516
10.836728 -1.7862402 -0.50239259 0.95697522
10.788379 -2.0579979 -0.50238961 0.9569754
10.703027 -2.4631348 -0.50238425 0.95697588
10.637656 -2.7312987 -0.50238013 0.95697623
10.526982 -3.130244 -0.50237304 0.95697689
10.486807 -3.2622654 -0.50237042 0.95697695
2.0207422 -0.65660155 -0.097191997 0.99152821
2.0208983 -0.68482423 -0.097604938 0.99149233
1.8611034 -0.70995116 -0.091116749 0.99205571
1.7931151 -0.70996094 -0.088217653 0.99230748
1.7293164 -0.70995116 -0.085510597 0.99254262
1.6692871 -0.70996094 -0.082977064 0.99276274
1.5592871 -0.70996094 -0.078371085 0.99316311
1.5086914 -0.70996094 -0.076272048 0.99334568
1.4607714 -0.70996094 -0.074293971 0.99351764
1.4152637 -0.70995116 -0.072427064 0.99368
1.3719629 -0.70995116 -0.070662498 0.99383354
1.3307129 -0.70995116 -0.068992577 0.99397886
1.2623242 -0.71476561 -0.066356391 0.99420822
1.2618066 -0.82320309 -0.068915859 0.99398547
1.2615625 -0.86900389 -0.070074268 0.9938848
1.2614648 -0.89250976 -0.070685081 0.99383157
1.2613477 -0.91641599 -0.071317598 0.9937765
6.9264159 -5.3033204 -0.3990413 0.96567231
6.8591504 -5.3899021 -0.39903682 0.96567267
6.7213964 -5.5604391 -0.39902768 0.96567339
6.6509275 -5.6443944 -0.39902297 0.96567374
6.5794139 -5.7274609 -0.39901823 0.9656741
6.3586326 -5.9711423 -0.39900351 0.96567535
6.1287985 -6.2063184 -0.39898819 0.96567672
6.0502539 -6.2827735 -0.39898291 0.96567714
5.8089161 -6.5060644 -0.39896679 0.96567851
5.7266212 -6.5784664 -0.39896125 0.96567899
5.6434083 -6.6498046 -0.39895573 0.96567953
5.5593457 -6.7201071 -0.39895007 0.96567994
5.4743943 -6.7893457 -0.39894438 0.96568036
5.214375 -6.9905372 -0.398927 0.96568185
5.1260352 -7.0554199 -0.39892104 0.96568233
5.0368943 -7.1191502 -0.39891508 0.96568292
4.9469628 -7.1817675 -0.39890903 0.96568346
4.6725388 -7.362783 -0.39889061 0.96568501
4.5796094 -7.4208102 -0.39888439 0.96568543
4.485908 -7.4776464 -0.3988781 0.96568602
4.2006931 -7.6410446 -0.3988589 0.96568763
4.1042771 -7.6931248 -0.39885241 0.96568811
4.0072069 -7.7439256 -0.39884588 0.96568882
3.9095311 -7.7935643 -0.39883932 0.96568924
3.5379295 -8.0368357 -0.40167442 0.96544987
3.1804101 -8.0328808 -0.39520004 0.9659971
3.0637403 -8.0315914 -0.39321265 0.9661653
2.9481933 -8.0303221 -0.39130464 0.96632659
2.7203612 -8.0278025 -0.38772789 0.96662927
2.6079493 -8.0265627 -0.38605362 0.96677089
2.4965234 -8.025322 -0.38445529 0.96690619
2.3859766 -8.0241013 -0.38292933 0.96703523
2.1471777 -7.9467673 -0.37654471 0.96757591
2.8454394 -11.690142 -0.55035412 0.95296592
2.6184571 -11.378071 -0.53406888 0.95432526
2.4041209 -11.081997 -0.51871467 0.9556089
1.7983788 -10.116508 -0.47001287 0.95969146
1.4743164 -9.7028027 -0.44892848 0.96146441
1.2272069 -9.7146339 -0.44790709 0.96155035
1.1037891 -9.7183247 -0.44740433 0.96159285
0.85734373 -9.7214594 -0.44641593 0.96167612
0.61144531 -9.7189112 -0.44544834 0.96175718
0.48875976 -9.7154732 -0.44497612 0.96179712
0.36623046 -9.7106495 -0.44450882 0.96183646
-2.9296874e-05 -9.6877441 -0.44314608 0.96195126
-0.12163085 -9.6772804 -0.44270325 0.96198863
-0.24296874 -9.6654587 -0.4422653 0.96202534
-0.36406249 -9.6522455 -0.44183716 0.96206158
-0.48498046 -9.6396675 -0.44150668 0.96208948
-0.60607421 -9.6330271 -0.44151309 0.96208864
-0.72708982 -9.6250391 -0.44153175 0.96208715
-0.84802735 -9.6155958 -0.44155529 0.96208543
-1.0895605 -9.5925436 -0.44161212 0.96208036
-1.2101171 -9.5789404 -0.44165275 0.96207708
-1.4507617 -9.5474949 -0.44174379 0.96206933
-1.8174707 -7.8972754 -0.37068793 0.96807206
-2.5243847 -9.342617 -0.44268608 0.96199012
-2.6473827 -9.3307371 -0.44366404 0.96190774
-2.7705665 -9.3173532 -0.44464689 0.96182489
-3.0172851 -9.2861958 -0.44663695 0.96165723
-3.3880076 -9.2281542 -0.4496733 0.96140182
-3.7590625 -9.1564159 -0.45276329 0.96114171
-3.7654588 -8.8536768 -0.44009691 0.96220785
-3.7574608 -8.2526655 -0.4147855 0.96434212
-3.7076464 -7.8791308 -0.39832273 0.96573287
-4.0985546 -7.682373 -0.398296 0.9657352
-4.2901759 -7.5767088 -0.39828292 0.96573627
-4.3849607 -7.5220604 -0.39827645 0.96573693
-4.4791017 -7.4662399 -0.39826995 0.9657374
-2.7888768 -4.3945408 -0.2380822 0.97937477
-2.8097069 -4.3067579 -0.23522027 0.9796201
-2.7862303 -4.1557126 -0.22886835 0.98016524
-2.8241894 -4.0999904 -0.22773249 0.98026234
-2.9869628 -4.1111817 -0.23245066 0.97985756
-3.1371093 -4.0972266 -0.23604618 0.97954923
-5.5488672 -6.7074022 -0.39819661 0.9657436
-5.632627 -6.6370797 -0.39819083 0.96574402
-5.7974801 -6.4932323 -0.3981795 0.96574503
-5.958652 -6.3453221 -0.39816841 0.96574593
-6.0378318 -6.2698631 -0.39816296 0.9657464
-6.1160545 -6.193418 -0.39815757 0.96574682
-6.1933103 -6.1159763 -0.39815223 0.96574736
-6.2695799 -6.0375781 -0.39814696 0.96574789
-1.0309961 -0.94406247 -0.06394428 0.99441808
-1.031123 -0.92064452 -0.063230626 0.99448025
-1.0315331 -0.85333985 -0.061237793 0.99465376
-1.0316504 -0.83182615 -0.060619392 0.99470758
-1.031875 -0.79006833 -0.059447289 0.99480969
-1.0319824 -0.76978517 -0.058891792 0.99485803
-1.0321972 -0.7302832 -0.057837866 0.99494982
-1.1834277 -0.70994139 -0.063126907 0.99448931
-1.253828 -0.70996094 -0.065908812 0.99424708
-1.2914063 -0.70995116 -0.067410126 0.99411643
-1.415293 -0.70996094 -0.072426945 0.99367988
-1.5593066 -0.70994139 -0.078371048 0.99316305
-1.7853026 -0.7068457 -0.087832637 0.99234086
-1.7852343 -0.68100584 -0.087400965 0.99237835
-10.372227 -3.5148437 -0.50095582 0.95709544
-10.640488 -2.5899413 -0.50093663 0.95709711
-10.7021 -2.3216991 -0.50093216 0.95709753
-10.880811 -1.2358692 -0.50091892 0.95709854
-10.91958 -0.82487303 -0.50091588 0.9570989
-10.929121 -0.68759763 -0.50091505 0.95709872
-10.936835 -0.55020505 -0.50091439 0.95709896
-10.942881 -0.41272461 -0.50091386 0.95709902
-10.947187 -0.27518556 -0.50091338 0.95709908
-10.949775 -0.13760743 -0.50091308 0.95709908
-10.324853 -0 -0.50095528 0.95949519
-10.324053 0.12973632 -0.50095522 0.95949513
-10.321601 0.25946289 -0.50095528 0.95949513
-10.28499 0.90703124 -0.50095707 0.95949495
-10.207831 1.5510741 -0.5009616 0.95949459
-10.165684 1.8070996 -0.50096416 0.95949441
-10.142207 1.934707 -0.50096565 0.95949429
-10.117119 2.0620215 -0.5009672 0.95949417
-10.090439 2.1889942 -0.50096887 0.95949405
-10.062168 2.3156543 -0.50097066 0.95949388
-10.032324 2.4418848 -0.50097257 0.95949376
-10.000889 2.5677831 -0.5009746 0.95949358
-9.9678707 2.6932714 -0.50097668 0.9594934
-9.933301 2.81833 -0.50097889 0.95949316
-9.8971186 2.9429295 -0.50098121 0.9594931
-9.8594141 3.0671093 -0.5009836 0.9594928
-9.8201361 3.190742 -0.50098616 0.95949268
-9.7793159 3.3139257 -0.50098878 0.95949244
-1.7860937 0.68131834 -0.092750967 0.9923737
-1.7293164 0.70994139 -0.090700723 0.99254167
-1.5592871 0.70996094 -0.083128281 0.99316221
-1.5087304 0.70995116 -0.080901757 0.99334472
-1.460791 0.70994139 -0.078803517 0.9935168
-1.4152832 0.70994139 -0.076823041 0.99367917
-1.3719823 0.70995116 -0.074951783 0.99383271
-1.3307519 0.70994139 -0.07318031 0.99397796
-1.15042 0.70994139 -0.065590017 0.99460089
-1.0882422 0.70993161 -0.063042872 0.99481004
-1.0316113 0.71059567 -0.060778197 0.99499601
-1.0315235 0.72979492 -0.061307561 0.9949525
-1.0312988 0.76924801 -0.062424049 0.99486083
-1.030918 0.83123046 -0.064253807 0.99471068
-1.0308007 0.85273433 -0.064908639 0.99465686
-1.0306641 0.87465817 -0.065587275 0.99460119
-1.0303613 0.91994137 -0.067019574 0.99448365
-7.5292087 7.0703907 -0.50113744 0.95948088
-7.2576852 7.3494625 -0.50115556 0.95947915
-7.1648536 7.440166 -0.50116169 0.95947868
-7.0708594 7.5296969 -0.50116801 0.95947826
-5.5402832 6.0503612 -0.39804104 0.96768022
-5.3865819 6.1878123 -0.39804879 0.96767956
-5.3084474 6.2550387 -0.39805141 0.96767938
-5.1496482 6.3865623 -0.39805651 0.9676789
-5.0690136 6.4508104 -0.39805901 0.96767873
-4.9875684 6.5140233 -0.39806139 0.96767861
-4.9053712 6.5762501 -0.398065 0.96767825
-4.8224316 6.6374803 -0.39807054 0.96767771
-4.7387009 6.6976266 -0.39807618 0.96767735
-4.6542087 6.7567282 -0.39808184 0.967677
-4.4830956 6.8717871 -0.3980943 0.96767592
-4.3091698 6.9825683 -0.39811093 0.96767461
-4.1325293 7.0889549 -0.39812818 0.96767324
-3.7714648 7.2883105 -0.39816463 0.96767032
-3.6796484 7.3352928 -0.39817414 0.96766961
-3.5873046 7.3811326 -0.39818373 0.96766877
-3.4943261 7.4258299 -0.39819357 0.967668
-3.4008496 7.469326 -0.39820349 0.96766722
-2.9254003 7.668828 -0.39824012 0.9676643
-2.8287988 7.705039 -0.39824301 0.96766412
-2.731787 7.7400293 -0.39824602 0.96766388
-2.5364745 7.8063574 -0.39825216 0.96766335
-2.4381835 7.8377147 -0.39825606 0.96766299
-2.0414062 7.9506445 -0.3982732 0.96766168
-1.941328 7.9757714 -0.3982777 0.96766126
-1.8410058 7.999609 -0.39828226 0.96766096
-1.6394238 8.0435352 -0.39829203 0.96766025
-1.5382421 8.0636425 -0.39829776 0.96765965
-1.2332715 8.11625 -0.39831528 0.96765828
-0.92654294 8.1573334 -0.39833376 0.96765685
-0.82396483 8.1684666 -0.39834014 0.96765631
-1.4185547 16.08456 -0.78344351 0.9373824
-1.0894922 17.316757 -0.84185803 0.93287355
-0.49442381 19.668301 -0.95459735 0.92423338
