# .PCD v0.7 - Point Cloud Data file format
VERSION 0.7
FIELDS x y z intensity
SIZE 4 4 4 4
TYPE F F F F
COUNT 1 1 1 1
WIDTH 1082
HEIGHT 1
VIEWPOINT 0 0 0 1 0 0 0
POINTS 1082
DATA ascii
-1.6692675 -0.70992184 -0.10313156 0.99275881
-1.7293066 -0.70992184 -0.10628036 0.99253845
-1.7886425 -0.68228513 -0.10883979 0.99235958
-8.335 -2.9417381 -0.50252217 0.96520704
-8.4063959 -2.7313867 -0.50252885 0.96520662
-8.4724798 -2.5193067 -0.50253505 0.96520621
-8.5615425 -2.1982226 -0.50254333 0.96520567
-8.5885639 -2.0904784 -0.50254583 0.96520537
-8.6141796 -1.9824023 -0.50254822 0.96520525
-8.6384468 -1.8739941 -0.50255042 0.96520513
-8.6613474 -1.7653124 -0.50255257 0.96520501
-8.6828909 -1.6563379 -0.50255448 0.96520483
-8.7030468 -1.5470898 -0.50255638 0.96520472
-8.7218256 -1.4376172 -0.50255805 0.96520466
-8.7392282 -1.3279004 -0.5025596 0.96520454
-8.7698927 -1.1078808 -0.50256234 0.9652043
-8.8054781 -0.77655274 -0.50256544 0.96520406
-8.8145409 -0.66584957 -0.50256622 0.96520406
-8.8222265 -0.55502927 -0.50256687 0.965204
-8.8285255 -0.44414061 -0.50256735 0.96520394
-8.8334084 -0.33315429 -0.50256771 0.96520394
-8.838974 -0.11106445 -0.50256801 0.965204
-8.4162893 0.42341796 -0.50252646 0.96679616
-8.4029884 0.63480467 -0.50252491 0.96679616
-8.3843451 0.84575194 -0.50252289 0.96679628
-8.3729982 0.95103514 -0.50252169 0.96679652
-8.3603811 1.0561719 -0.50252038 0.96679652
-8.3464451 1.1611524 -0.50251889 0.96679658
-8.3311615 1.2659374 -0.50251728 0.9667967
-8.2966604 1.4748925 -0.50251371 0.96679693
-8.2119331 1.8898535 -0.50250506 0.96679747
-8.1875 1.9928808 -0.50250256 0.96679765
-8.1347361 2.1979883 -0.50249726 0.96679801
-8.1064453 2.3000391 -0.50249439 0.96679813
-8.0459862 2.5029979 -0.50248837 0.96679854
-1.789414 0.6569922 -0.11367504 0.99239069
-1.7895215 0.68268555 -0.11421688 0.99235451
-1.6692773 0.70998043 -0.10817424 0.9927575
-1.5592773 0.70997071 -0.10216976 0.9931581
-1.5086914 0.70997071 -0.099433437 0.99334085
-1.4607714 0.70997071 -0.096854553 0.99351293
-1.4152539 0.70998043 -0.094420657 0.99367541
-1.2913769 0.70997071 -0.087880053 0.99411225
-1.2537891 0.70997071 -0.085922964 0.99424303
-1.2178515 0.70997071 -0.084064141 0.99436718
-1.1834081 0.70997071 -0.082296446 0.99448532
-1.0882226 0.70995116 -0.07748352 0.994807
-1.0588964 0.70996094 -0.076025046 0.99490446
-1.0287402 0.72786129 -0.075149305 0.99496299
-1.0286034 0.74733394 -0.075819507 0.99491823
-1.028457 0.76715821 -0.076514125 0.9948718
-1.0283203 0.78735352 -0.077233389 0.99482369
-1.0281934 0.80793941 -0.077978745 0.99477381
-1.0280371 0.8289355 -0.078750879 0.99472219
-1.0277051 0.87217772 -0.080380134 0.99461335
-1.0273242 0.91728514 -0.082130544 0.99449641
-5.0063963 4.7013574 -0.40954962 0.97285521
-4.828867 4.6502247 -0.39977646 0.97349429
-4.7617478 4.7023044 -0.3990778 0.97353989
-4.5808787 4.8781543 -0.39905569 0.97354138
-4.3934178 5.0469823 -0.39902794 0.97354335
-4.3295603 5.1016798 -0.39901859 0.97354388
-4.265039 5.1555567 -0.3990092 0.97354442
-4.1998143 5.2086134 -0.39899981 0.97354507
-4.1339064 5.260869 -0.39899036 0.97354573
-4.0673633 5.3122849 -0.39898086 0.97354633
-3.9324315 5.412539 -0.39896178 0.97354758
-3.8640039 5.4614062 -0.39895216 0.97354817
-3.3687108 5.778789 -0.39888537 0.97355253
-3.222285 5.8613477 -0.39886683 0.97355372
-2.8475389 6.0514059 -0.39882046 0.97355682
-2.7712305 6.0865722 -0.39881128 0.97355735
-2.694453 6.1207809 -0.39880219 0.97355795
-2.617285 6.1540136 -0.3987931 0.97355855
-2.5396483 6.1862693 -0.39878407 0.9735592
-2.4616797 6.2175488 -0.39877504 0.9735598
-2.3833106 6.2478614 -0.39876604 0.97356033
-2.1459668 6.3328223 -0.39873907 0.97356212
-2.0661817 6.3591404 -0.39873013 0.97356266
-1.9860742 6.3844433 -0.39872116 0.97356331
-1.7439063 6.4543357 -0.39869437 0.97356504
-1.6626172 6.4755955 -0.39868551 0.97356564
-1.5810839 6.4958396 -0.39867663 0.97356617
-1.4993066 6.515039 -0.39866775 0.97356683
-1.4172949 6.5332127 -0.39865893 0.97356743
-1.3350586 6.5503712 -0.39865011 0.97356796
-1.2526073 6.5664845 -0.39864135 0.97356856
-1.1699706 6.5815721 -0.39863259 0.97356904
-1.0871484 6.5956054 -0.39862385 0.97356963
-0.75430661 6.6412988 -0.39858925 0.97357202
-0.58716798 6.6578903 -0.39857224 0.97357303
-0.50343746 6.6645994 -0.39856377 0.97357363
-0.41965818 6.6702733 -0.39855537 0.9735741
-0.25186524 6.6784372 -0.39853865 0.97357517
-0.16791992 6.6809177 -0.39853033 0.97357577
0.16792968 6.6803904 -0.39849761 0.97357786
0.33576173 6.673779 -0.39848155 0.97357893
0.41960937 6.6688962 -0.39847359 0.97357947
0.58701169 6.6559763 -0.39845783 0.97358054
0.75406247 6.6388669 -0.3984423 0.97358155
0.83741212 6.6287403 -0.39843458 0.97358203
0.92064452 6.617578 -0.39842695 0.97358251
1.0037109 6.6053514 -0.39841941 0.97358304
1.4163378 6.5287008 -0.39838248 0.97358543
1.4982324 6.5102634 -0.3983753 0.9735859
1.5798827 6.4907908 -0.39836818 0.97358644
1.6613183 6.4703221 -0.39836112 0.97358686
2.0641308 6.3526855 -0.39832699 0.97358912
2.1437597 6.3261619 -0.39832038 0.97358948
2.2230566 6.2986131 -0.39831382 0.9735899
2.3805273 6.2405567 -0.39830101 0.97359079
2.7674608 6.0783005 -0.39827034 0.97359282
2.9944725 5.9694042 -0.39825293 0.97359395
3.0691991 5.9312305 -0.3982473 0.97359431
3.217207 5.8520603 -0.3982363 0.97359502
3.4353418 5.7264161 -0.39822048 0.9735961
3.5780663 5.638154 -0.39821041 0.97359669
3.7879002 5.4990821 -0.39819598 0.97359765
3.8566504 5.4509864 -0.39819136 0.97359794
3.9247949 5.4020214 -0.39818686 0.9735983
3.9923437 5.3522363 -0.39818245 0.97359848
4.0592284 5.3015819 -0.3981781 0.97359878
4.1254783 5.2500978 -0.3981739 0.97359908
4.2560253 5.1446486 -0.39816573 0.97359967
4.3202734 5.0907321 -0.3981618 0.97359991
4.3838768 5.0359764 -0.39815798 0.97360015
4.4467773 4.9804587 -0.39815426 0.97360033
4.5704589 4.8670411 -0.39814711 0.9736008
4.8090429 4.6311035 -0.39813411 0.97360176
5.0355177 4.3834958 -0.39812279 0.97360247
5.1440039 4.2555079 -0.39811778 0.97360289
5.1970506 4.1904979 -0.39811292 0.97360301
5.2492089 4.124795 -0.39810798 0.97360349
5.3005466 4.0584569 -0.39810306 0.97360384
1.2569531 0.93758786 -0.093510434 0.99373609
1.2572656 0.88955075 -0.09184242 0.99384749
1.2578808 0.79828125 -0.088840216 0.994048
1.2583886 0.71255857 -0.086235963 0.99422199
1.2914063 0.70996094 -0.087880246 0.99411213
1.3307421 0.70996094 -0.089943543 0.99397439
1.4608105 0.70998043 -0.096854933 0.99351275
1.5087402 0.70997071 -0.099433742 0.99334067
1.5593066 0.70997071 -0.10216995 0.99315804
1.6127441 0.70997071 -0.10507827 0.99296397
1.7293457 0.70996094 -0.11147746 0.99253708
1.7931542 0.70997071 -0.11500652 0.9923017
1.9337695 0.70996094 -0.1228424 0.99177945
2.0240037 0.71436524 -0.12799464 0.99143612
2.0240135 0.68589842 -0.12743999 0.99147308
2.0240037 0.65765625 -0.12690987 0.99150848
8.0517282 2.3942089 -0.50092793 0.96689987
8.0810938 2.2928221 -0.50092518 0.96690023
8.1092281 2.1910839 -0.50092262 0.96690041
8.1360836 2.088994 -0.50092012 0.96690053
8.2510347 1.5739844 -0.50090951 0.96690118
8.2701368 1.4701757 -0.50090778 0.9669013
8.3044043 1.2618653 -0.50090468 0.96690154
8.3334475 1.0527831 -0.50090212 0.96690172
8.367197 0.73792964 -0.50089914 0.96690178
8.3830366 0.52743161 -0.50089782 0.96690202
8.3890133 0.422041 -0.50089735 0.96690196
8.3936424 0.31661132 -0.50089699 0.96690202
8.3996096 1.953125e-05 -0.50089681 0.96690202
8.393652 -0.3165625 -0.50089771 0.96690196
8.3890333 -0.42202148 -0.5008983 0.9669019
8.3758001 -0.63270509 -0.50089973 0.96690178
8.357275 -0.84298825 -0.50090176 0.96690172
8.3460836 -0.94792968 -0.50090301 0.96690148
8.3335257 -1.0527442 -0.50090432 0.96690142
8.3196478 -1.1574023 -0.50090581 0.96690136
8.3044624 -1.2618457 -0.50090736 0.96690136
8.2090139 -1.78083 -0.50091714 0.96690065
8.1860352 -1.8838574 -0.50091946 0.96690047
8.1093264 -2.1910937 -0.50092727 0.96689999
8.0517969 -2.3942089 -0.50093305 0.96689963
8.0211029 -2.4952049 -0.50093615 0.96689951
2.0240037 -0.65761715 -0.12690982 0.99150848
2.0240135 -0.6858691 -0.12743992 0.99147314
2.0240135 -0.71433592 -0.12799464 0.99143612
1.6693066 -0.70993161 -0.10817459 0.9927575
1.5087304 -0.70992184 -0.099433094 0.99334079
1.4608008 -0.70992184 -0.096854478 0.99351293
1.4152637 -0.70993161 -0.094420582 0.99367547
1.3719629 -0.70992184 -0.092120208 0.99382913
1.3307519 -0.70991212 -0.089943156 0.99397445
1.2582519 -0.73347652 -0.086852379 0.99418092
1.2580175 -0.77631837 -0.088153876 0.99409395
1.2577343 -0.82048827 -0.089551426 0.99400061
1.2575781 -0.84312499 -0.090288274 0.99395138
1.2574219 -0.86611325 -0.091051675 0.99390042
1.2572753 -0.8895117 -0.091842569 0.99384755
1.2570996 -0.91331053 -0.092661701 0.99379289
5.2493553 -4.1248536 -0.39811674 0.97360289
5.2152634 -4.2051463 -0.39951012 0.97351182
5.1441503 -4.2555661 -0.39812708 0.97360229
5.090332 -4.3199415 -0.39813235 0.97360194
5.0356932 -4.3836231 -0.39813772 0.97360164
4.6915817 -4.7508883 -0.39817148 0.97359943
4.6316013 -4.8095508 -0.39817733 0.97359896
4.5708494 -4.8674412 -0.39818332 0.97359866
4.5094142 -4.9245505 -0.39818931 0.97359824
4.3843555 -5.0364842 -0.39820158 0.97359741
4.2565427 -5.1452341 -0.3982141 0.97359663
4.1916308 -5.1983981 -0.39822045 0.97359616
4.0597754 -5.3022656 -0.39823332 0.97359538
3.9928906 -5.3529587 -0.39823985 0.9735949
3.8572557 -5.451787 -0.39825308 0.97359401
3.7885058 -5.4999218 -0.39825979 0.97359359
3.7191699 -5.5471973 -0.39826658 0.97359312
3.6492088 -5.5935841 -0.39827341 0.9735927
3.5787108 -5.6390915 -0.39828032 0.97359222
3.507617 -5.6837106 -0.39828727 0.9735918
3.4359961 -5.7274413 -0.39829424 0.97359133
3.1440918 -5.8932614 -0.3983227 0.97358954
3.0698633 -5.9324121 -0.39832994 0.973589
2.8442383 -6.0442381 -0.39835197 0.97358757
2.7680762 -6.0796094 -0.39835936 0.97358716
2.6145411 -6.14749 -0.39837432 0.97358614
2.5371387 -6.1799903 -0.39838186 0.97358555
2.2236035 -6.3001466 -0.39841238 0.97358358
1.9043945 -6.4043846 -0.39844343 0.97358161
1.823789 -6.4279294 -0.39845127 0.97358114
1.252207 -6.5642285 -0.39850685 0.97357744
1.0869141 -6.5938768 -0.39852285 0.97357643
1.0039746 -6.6071482 -0.39853096 0.97357595
0.92088866 -6.6193943 -0.39853901 0.97357535
0.83766598 -6.6305661 -0.39854708 0.97357488
0.58718747 -6.6578417 -0.3985714 0.97357321
0.50350583 -6.664824 -0.39857951 0.97357273
0.25194335 -6.6794724 -0.39860392 0.97357112
0.16800781 -6.6822457 -0.39861205 0.97357059
0.084023438 -6.6839843 -0.39862019 0.97356999
9.7656248e-06 -6.6846189 -0.39862835 0.97356957
-0.083984375 -6.6842284 -0.39863646 0.97356904
-0.58733398 -6.6597462 -0.39868525 0.97356576
-0.67098629 -6.6519723 -0.39869338 0.97356528
-0.75452149 -6.6431541 -0.39870143 0.97356474
-0.83796871 -6.6332812 -0.39870951 0.97356421
-1.0874707 -6.597373 -0.39873368 0.97356266
-1.3354101 -6.5520992 -0.39875767 0.97356105
-1.4997168 -6.5167379 -0.39877358 0.97355998
-1.6630664 -6.4772458 -0.39878935 0.97355896
-1.8253906 -6.4336524 -0.39880499 0.97355795
-2.066709 -6.3606639 -0.39882836 0.9735564
-2.5402539 -6.1876073 -0.39887404 0.97355348
-2.7718065 -6.0878415 -0.3988964 0.97355193
-2.9240332 -6.0164552 -0.39891109 0.97355103
-3.0744042 -5.9412889 -0.39892557 0.97355014
-3.1488769 -5.9022851 -0.39893275 0.97354966
-3.2963378 -5.8215036 -0.39894697 0.97354871
-3.369287 -5.7797165 -0.398954 0.97354829
-3.4417088 -5.737031 -0.39896095 0.97354776
-3.5135937 -5.693418 -0.39896789 0.97354734
-3.5849414 -5.6489453 -0.39897475 0.97354674
-3.7258689 -5.5572457 -0.39898834 0.97354597
-4.2001562 -5.2090235 -0.39903396 0.97354299
-4.2653513 -5.1559176 -0.39904016 0.97354257
-4.5192966 -4.9354005 -0.39906454 0.97354096
-4.1555271 -4.208076 -0.35267711 0.97658026
-4.1545506 -4.1026564 -0.34818351 0.97687471
-4.2466016 -4.0894532 -0.35156921 0.97665286
-1.0273438 -0.91725582 -0.082130544 0.99449646
-1.0275292 -0.89448237 -0.081239469 0.99455589
-1.0277051 -0.87215817 -0.080380172 0.99461335
-1.0281738 -0.80792969 -0.077978708 0.99477392
-1.0284668 -0.76713866 -0.076513939 0.99487185
-1.0287402 -0.72784179 -0.075149417 0.99496305
-1.0306641 -0.70994139 -0.074632145 0.99499762
-1.0589062 -0.70993161 -0.076024935 0.99490452
-1.0882128 -0.70993161 -0.077483363 0.99480706
-1.1187109 -0.70994139 -0.079011492 0.99470478
-1.2538086 -0.70993161 -0.085922621 0.99424303
-1.2913867 -0.70993161 -0.087879904 0.99411225
-1.3307129 -0.70993161 -0.08994285 0.99397451
-1.4607519 -0.70992184 -0.096854091 0.99351311
-1.5087206 -0.70992184 -0.099433057 0.99334079
-1.5592675 -0.70992184 -0.10216938 0.99315822
-1.6692675 -0.70992184 -0.1081742 0.99275762
-1.7293066 -0.70992184 -0.11147682 0.99253726
-1.7894238 -0.6569531 -0.11367515 0.99239075
-7.945869 -2.8044043 -0.50248426 0.96679884
-7.9805369 -2.7043555 -0.50248754 0.9667986
-8.0460548 -2.5029786 -0.50249368 0.96679831
-8.1348143 -2.1979785 -0.50250196 0.96679771
-8.235117 -1.7865039 -0.50251126 0.96679717
-8.2774801 -1.5789942 -0.50251514 0.96679688
-8.2966986 -1.4748633 -0.50251687 0.96679676
-8.3312111 -1.2659081 -0.50252002 0.96679652
-8.3604488 -1.0561621 -0.50252259 0.96679628
-8.3730764 -0.95100582 -0.50252372 0.96679622
-8.3843746 -0.84572262 -0.50252473 0.96679622
-8.4209862 -0.31758788 -0.50252765 0.96679598
-8.0350389 0.50553709 -0.50248945 0.96824861
-8.0102053 0.80801755 -0.50248665 0.9682489
-7.999414 0.90860349 -0.50248551 0.9682489
-7.9739938 1.1093457 -0.50248283 0.96824914
-7.959404 1.2094531 -0.50248134 0.96824926
-7.9435935 1.3093749 -0.50247967 0.9682492
-7.8884764 1.6078124 -0.50247401 0.96824968
-7.8676267 1.7068067 -0.50247192 0.96824974
-7.8455272 1.8055371 -0.50246966 0.96824986
-7.8221679 1.9039648 -0.50246727 0.9682501
-7.7975974 2.0020995 -0.50246477 0.96825022
-7.6870017 2.3913085 -0.50245368 0.96825081
-1.790293 0.65731442 -0.11903317 0.99238569
-1.7904199 0.68299806 -0.11960056 0.99234945
-1.6127245 0.70997071 -0.10997791 0.99296284
-1.5086914 0.70997071 -0.10406982 0.99333972
-1.4607714 0.70997071 -0.10137077 0.99351186
-1.4152539 0.70998043 -0.098823428 0.99367434
-1.3719629 0.70997071 -0.096415743 0.993828
-1.2913769 0.70997071 -0.09197811 0.99411124
-1.2537891 0.70997071 -0.089929312 0.99424201
-1.2178515 0.70997071 -0.087983891 0.99436623
-1.1503808 0.70998043 -0.084373318 0.99459678
-1.1186913 0.70998043 -0.082695886 0.99470389
-1.0306641 0.70995116 -0.078112297 0.99499673
-1.0280371 0.727373 -0.078600958 0.99496555
-1.0277636 0.7666406 -0.080027349 0.99487442
-1.0276074 0.78682613 -0.080779418 0.99482638
-1.0272949 0.82835937 -0.082365453 0.99472505
-1.0269433 0.87157226 -0.084068336 0.99461627
-1.0263965 0.93990231 -0.086862907 0.99443775
-4.9876075 4.6837111 -0.42703798 0.97295117
-4.8109961 4.632998 -0.41686785 0.97358674
-4.6426659 4.5847263 -0.40724373 0.97418863
-4.3766017 4.6606345 -0.39904052 0.97470194
-4.3175974 4.7151952 -0.39903355 0.97470236
-4.2579298 4.7689648 -0.3990247 0.97470289
-4.012588 4.9764357 -0.3989889 0.9747051
-3.9496288 5.0263672 -0.39897987 0.9747057
-3.8860643 5.0754685 -0.39897081 0.97470629
-3.6258202 5.2638278 -0.3989343 0.97470856
-3.3564746 5.4388766 -0.39889887 0.97471076
-3.2877831 5.4805079 -0.39889008 0.9747113
-3.2185936 5.5212793 -0.39888126 0.97471184
-3.1488965 5.561152 -0.39887241 0.97471237
-2.9368358 5.675498 -0.39884582 0.97471416
-2.8652344 5.7118359 -0.39883694 0.97471464
-2.793164 5.7472653 -0.39882818 0.97471517
-2.720664 5.7817774 -0.39881945 0.97471577
-2.6477442 5.8153906 -0.3988108 0.97471625
-2.5744042 5.8480954 -0.39880219 0.97471672
-2.5006738 5.8798337 -0.39879355 0.97471732
-2.3520117 5.9405565 -0.39877632 0.97471845
-2.2019043 5.997539 -0.39875916 0.97471946
-2.0503905 6.050703 -0.39874199 0.9747206
-1.9741503 6.0758691 -0.39873341 0.97472113
-1.7436426 6.1455665 -0.39870778 0.97472268
-1.66625 6.1668458 -0.39869925 0.97472328
-1.5106738 6.2065134 -0.39868227 0.97472435
-1.1968163 6.2740526 -0.39864856 0.97472644
-0.95944333 6.3143163 -0.39862353 0.97472793
-0.87999022 6.3257422 -0.39861527 0.97472847
-0.80041993 6.3361621 -0.39860699 0.974729
-0.72073239 6.3455954 -0.39859882 0.97472948
-0.56102538 6.3614354 -0.39858252 0.97473055
-0.080234371 6.3848438 -0.39853466 0.97473359
9.7656248e-06 4.4873533 -0.28007266 0.98217642
0.16045898 6.3829589 -0.39851126 0.97473502
0.4009082 6.3720312 -0.39848831 0.97473639
0.48092774 6.3663669 -0.39848074 0.97473687
0.64074218 6.3520312 -0.39846578 0.97473782
0.72048825 6.3433495 -0.39845839 0.9747383
0.95902342 6.3113379 -0.39843649 0.97473967
1.431543 6.2205076 -0.39839438 0.97474235
1.6649023 6.1618261 -0.3983742 0.9747436
1.7421875 6.1403222 -0.39836761 0.97474396
1.8191699 6.1178317 -0.39836106 0.97474444
1.9722558 6.0699902 -0.39834824 0.97474521
2.0483692 6.0446386 -0.39834189 0.97474557
2.1995506 5.9910645 -0.3983295 0.97474635
2.4976268 5.8726172 -0.39830557 0.97474796
2.5711913 5.840703 -0.39829978 0.97474819
2.6443262 5.8078418 -0.39829406 0.97474861
2.7170801 5.7740917 -0.39828846 0.97474891
2.7893846 5.7394042 -0.39828292 0.97474927
2.8612401 5.7038279 -0.39827743 0.97474957
2.9326563 5.6673341 -0.3982721 0.97474998
3.0740428 5.5916796 -0.39826155 0.97475076
3.3509471 5.4299121 -0.39824158 0.97475189
3.4188964 5.3873048 -0.39823684 0.97475219
3.4862792 5.3438673 -0.3982321 0.97475243
3.6850879 5.2084765 -0.39821863 0.97475332
3.8147168 5.1141014 -0.39821011 0.97475398
3.8786523 5.065752 -0.39820594 0.97475404
3.9419627 5.0165524 -0.39820188 0.97475433
4.0046482 4.9665723 -0.39819798 0.97475457
4.0666895 4.9158106 -0.39819416 0.97475487
4.2489743 4.7588964 -0.39818317 0.97475553
4.3671484 4.650537 -0.39817634 0.974756
4.4252048 4.5952635 -0.39817309 0.97475618
4.5951562 4.4250975 -0.39816391 0.97475678
4.6503611 4.3669825 -0.39816108 0.9747569
4.704824 4.3081737 -0.39815828 0.97475713
4.7648044 4.2542577 -0.39867729 0.97472459
4.8115134 4.1884861 -0.39815032 0.97475761
4.8637009 4.1276464 -0.39814532 0.97475797
5.0216017 4.0490136 -0.40261009 0.97447848
1.2564355 0.88896483 -0.096060902 0.99385053
1.2567577 0.84261715 -0.094436452 0.99395418
1.2569238 0.82000977 -0.093666188 0.99400336
1.2570703 0.79777342 -0.092922628 0.9940508
1.2914063 0.70996094 -0.091978073 0.99411118
1.3719921 0.70997071 -0.096415862 0.99382788
1.415293 0.70997071 -0.098823659 0.99367422
1.4608105 0.70998043 -0.10137123 0.99351168
1.5593066 0.70997071 -0.10693428 0.99315685
1.6127441 0.70997071 -0.10997841 0.99296278
1.6693066 0.70997071 -0.11321914 0.99275619
1.7293457 0.70996094 -0.11667515 0.99253583
1.7931542 0.70997071 -0.12036922 0.99230045
1.861123 0.70997071 -0.12432506 0.9920485
1.9337695 0.70996094 -0.12857085 0.99177802
2.0239453 0.6576367 -0.13282268 0.99150729
7.6642089 2.3842089 -0.50096554 0.96834344
7.6935058 2.2876952 -0.50096279 0.96834368
7.7485156 2.0936327 -0.50095767 0.96834391
7.8217969 1.8000586 -0.50095087 0.96834439
7.84375 1.7016308 -0.50094885 0.96834457
7.8644919 1.6029296 -0.50094694 0.96834463
7.9192481 1.3053515 -0.50094193 0.96834493
7.985498 0.80552733 -0.50093609 0.96834528
8.0031834 0.60458004 -0.5009346 0.9683454
8.0101366 0.50396484 -0.500934 0.96834546
8.0253515 0.10086914 -0.50093293 0.9683454
8.0234375 -0.20166992 -0.50093347 0.96834546
8.0101461 -0.50393552 -0.50093508 0.9683454
7.9950094 -0.70506835 -0.50093675 0.96834522
7.9628024 -1.0059277 -0.5009402 0.96834505
7.9495602 -1.1059179 -0.50094163 0.96834493
7.9350586 -1.2057129 -0.50094312 0.96834481
7.9192867 -1.3053223 -0.50094473 0.96834481
7.9022946 -1.4047461 -0.50094646 0.96834469
7.8645701 -1.6029004 -0.50095034 0.96834439
7.8218846 -1.8000586 -0.50095469 0.96834403
7.7742476 -1.9960644 -0.50095952 0.96834379
7.7485642 -2.0936131 -0.50096214 0.96834373
7.7216992 -2.19083 -0.50096482 0.9683435
7.693584 -2.2876952 -0.50096768 0.96834338
2.0239453 -0.68582028 -0.13337776 0.99147201
1.9337401 -0.70992184 -0.12856987 0.99177819
1.7293164 -0.70992184 -0.11667526 0.99253601
1.6127245 -0.70993161 -0.1099778 0.9929629
1.5087304 -0.70991212 -0.10406963 0.99333966
1.4608008 -0.70992184 -0.10137085 0.9935118
1.4152637 -0.70993161 -0.09882351 0.9936744
1.3307519 -0.70991212 -0.094137341 0.99397343
1.2576073 -0.71206051 -0.090200648 0.99422467
1.257207 -0.77583009 -0.092205122 0.9940967
1.2568945 -0.81998044 -0.093666263 0.99400347
1.2565918 -0.86554688 -0.095234446 0.9939034
1.256289 -0.91269529 -0.096917152 0.99379593
1.2560937 -0.93690425 -0.097804338 0.99373937
5.0899119 -3.9995799 -0.40402773 0.97438997
4.9658885 -4.0040817 -0.3981441 0.97475803
4.9152341 -4.0662012 -0.39814907 0.97475779
4.3674512 -4.6508007 -0.39820281 0.97475439
3.9423828 -5.0170312 -0.39824438 0.97475183
3.8791015 -5.0662599 -0.39825058 0.97475141
3.6855371 -5.2091112 -0.3982695 0.97475028
3.6198535 -5.2550879 -0.39827591 0.97474992
3.5535936 -5.3002539 -0.39828238 0.97474951
3.4867871 -5.3445802 -0.39828891 0.97474903
3.4194043 -5.3880467 -0.39829552 0.97474867
3.351455 -5.4306836 -0.39830211 0.97474831
3.2830174 -5.4724708 -0.39830878 0.97474784
3.2140429 -5.5133982 -0.39831555 0.97474736
3.1445704 -5.5534472 -0.39832228 0.97474694
2.9331737 -5.6682911 -0.39834294 0.97474569
2.7898827 -5.7404199 -0.39835688 0.97474486
2.6448534 -5.8089356 -0.39837104 0.9747439
2.4981248 -5.8737693 -0.39838532 0.97474301
2.42416 -5.9048047 -0.39839253 0.97474259
2.3498046 -5.9349022 -0.39839977 0.97474217
2.0487988 -6.045918 -0.39842907 0.97474033
1.896289 -6.0957127 -0.39844391 0.97473943
1.7425976 -6.1416798 -0.39845887 0.97473842
1.6653028 -6.1632028 -0.39846632 0.974738
1.5099413 -6.2033496 -0.39848143 0.97473699
1.353623 -6.2395701 -0.39849666 0.97473609
1.038496 -6.3001757 -0.39852726 0.97473419
0.95924801 -6.3128514 -0.39853495 0.97473371
0.87986326 -6.3245506 -0.39854267 0.97473317
0.80034178 -6.3352146 -0.39855042 0.9747327
0.48105466 -6.3679199 -0.39858139 0.97473079
0.32088867 -6.3782325 -0.39859691 0.9747299
0.08029297 -6.3861814 -0.39862022 0.97472835
-0.16050781 -6.3850389 -0.39864355 0.97472692
-0.32090819 -6.3792577 -0.39865914 0.97472584
-0.56113279 -6.362988 -0.39868239 0.97472447
-0.64108396 -6.355547 -0.39869013 0.97472399
-0.72090816 -6.3471189 -0.39869788 0.97472352
-0.9596777 -6.3157907 -0.39872095 0.97472209
-1.118125 -6.2899313 -0.39873633 0.97472113
-1.3544922 -6.2436914 -0.39875919 0.97471964
-1.5110449 -6.2079196 -0.39877433 0.97471863
-1.5889453 -6.1885548 -0.39878184 0.97471821
-1.6666211 -6.1682224 -0.39878935 0.97471768
-1.8211817 -6.1246095 -0.39880428 0.97471678
-1.9745996 -6.0771384 -0.39881912 0.97471583
-2.2776074 -5.9706931 -0.39884838 0.97471404
-2.4269824 -5.9117575 -0.39886278 0.97471327
-2.5749121 -5.8491211 -0.39887705 0.97471225
-2.6482227 -5.8164062 -0.39888412 0.97471189
-2.7211621 -5.7827735 -0.39889118 0.97471142
-2.7936523 -5.7482224 -0.39889815 0.974711
-2.8657324 -5.7127633 -0.3989051 0.97471052
-3.0085058 -5.6391406 -0.39891887 0.97470963
-3.1493554 -5.5619531 -0.39893246 0.9747088
-3.2190526 -5.5220408 -0.39893916 0.97470832
-3.2882421 -5.4812403 -0.39894584 0.97470796
-3.3569336 -5.43958 -0.39895242 0.97470748
-3.5597558 -5.3094435 -0.39897197 0.97470623
-3.6921582 -5.2184863 -0.3989847 0.97470546
-3.7575097 -5.1717577 -0.39899102 0.97470504
-3.9499218 -5.0266795 -0.39900947 0.97470403
-4.1367674 -4.8744531 -0.39902741 0.97470289
-4.2580857 -4.7691112 -0.39903906 0.97470206
-4.1523337 -4.2048631 -0.36883995 0.97659409
-4.1528416 -4.1009765 -0.36426687 0.97688025
-1.0265918 -0.91657227 -0.085897408 0.99449956
-1.0267676 -0.89381832 -0.084966466 0.99455905
-1.0269531 -0.87151366 -0.084068224 0.99461639
-1.0276269 -0.78679687 -0.080779381 0.99482638
-1.0277929 -0.7666406 -0.080027543 0.9948743
-1.0280664 -0.72735351 -0.078600995 0.99496549
-1.0306641 -0.70994139 -0.078112222 0.99499679
-1.0589062 -0.70993161 -0.079570085 0.99490362
-1.0882128 -0.70993161 -0.081096187 0.99480617
-1.1186913 -0.70993161 -0.082695886 0.99470401
-1.1503808 -0.70992184 -0.084373049 0.9945969
-1.217832 -0.70992184 -0.087983742 0.99436635
-1.2538086 -0.70993161 -0.089929275 0.99424201
-1.2913867 -0.70993161 -0.091977805 0.9941113
-1.3307129 -0.70993161 -0.094137035 0.99397349
-1.4152539 -0.70992184 -0.098823167 0.99367446
-1.4607519 -0.70992184 -0.10137054 0.99351197
-1.5592675 -0.70992184 -0.10693371 0.99315709
-1.6692675 -0.70992184 -0.11321838 0.99275643
-1.7293066 -0.70992184 -0.11667488 0.99253601
-1.7904785 -0.70887691 -0.12019241 0.99231189
-1.7903906 -0.68294919 -0.11960048 0.99234962
-7.6244431 -2.5837011 -0.50245291 0.96825099
-7.6563473 -2.4876757 -0.50245589 0.96825087
-7.6870799 -2.391289 -0.50245875 0.96825057
-7.7448044 -2.1973827 -0.50246418 0.96825027
-7.7976561 -2.0020995 -0.50246906 0.96824998
-7.8222265 -1.9039258 -0.50247133 0.96824992
-7.908154 -1.5085351 -0.50247926 0.96824932
-7.9740233 -1.1093066 -0.50248522 0.96824908
-7.9994531 -0.90857422 -0.50248748 0.96824878
-8.0102634 -0.80797851 -0.50248837 0.96824872
-8.0197754 -0.70724607 -0.50248921 0.96824872
-8.0280275 -0.60643554 -0.50248992 0.96824872
-8.0350294 -0.50549805 -0.50249046 0.96824867
-8.0452242 -0.30340821 -0.50249124 0.96824855
-8.048398 -0.20230468 -0.50249141 0.96824861
-8.050312 -0.10114258 -0.50249153 0.96824855
-7.706943 9.7656248e-06 -0.50245816 0.9695791
-7.7063084 0.096855469 -0.50245798 0.96957922
-7.7014551 0.2904785 -0.50245732 0.96957916
-7.6770701 0.67707032 -0.50245452 0.9695794
-7.6679196 0.77348632 -0.50245351 0.96957952
-7.6575975 0.86977535 -0.50245243 0.96957952
-7.6332908 1.0619433 -0.50244987 0.96957964
-7.6193161 1.1577832 -0.50244844 0.96957976
-7.6041503 1.2534082 -0.50244683 0.96957982
-7.5877929 1.348877 -0.50244516 0.96957982
-7.5702047 1.4441113 -0.50244331 0.96957999
-7.5514159 1.539121 -0.50244141 0.96958017
-7.531445 1.6338965 -0.50243938 0.96958029
-7.510293 1.7283887 -0.50243723 0.96958041
-7.4644432 1.9165624 -0.50243258 0.96958059
-7.4138184 2.1035156 -0.50242746 0.96958101
-7.3585253 2.2891309 -0.50242192 0.96958137
-7.3291502 2.3814158 -0.50241894 0.96958148
-7.2986035 2.4732909 -0.5024159 0.96958166
-1.791162 0.6576367 -0.124398 0.99238068
-1.7912598 0.68333006 -0.12499126 0.9923445
-1.7292968 0.70997071 -0.12187511 0.9925347
-1.6127245 0.70997071 -0.11487918 0.99296159
-1.5086914 0.70997071 -0.10870788 0.99333853
-1.4607714 0.70997071 -0.10588859 0.99351072
-1.4152539 0.70998043 -0.1032278 0.99367321
-1.3719629 0.70997071 -0.10071285 0.99382693
-1.2178515 0.70997071 -0.091905326 0.99436522
-1.1834081 0.70997071 -0.089972608 0.99448341
-1.1503808 0.70998043 -0.088133693 0.99459583
-1.1186913 0.70998043 -0.086381413 0.99470294
-1.0588769 0.70997071 -0.083116412 0.99490273
-1.0306641 0.70996094 -0.081593663 0.99499583
-1.0272266 0.74634767 -0.082780033 0.99492323
-1.0270605 0.76614255 -0.083537176 0.99487692
-1.0264159 0.84915036 -0.086848371 0.99467438
-4.9689646 4.6661911 -0.44440243 0.97304624
-4.7934179 4.6160741 -0.43385711 0.97367734
-4.466084 4.5225682 -0.41438597 0.97484362
-4.3131347 4.4789157 -0.40538687 0.97538316
-4.1896873 4.4616013 -0.39902258 0.97576493
-4.0761228 4.5653515 -0.39901146 0.97576559
-4.0183887 4.6161227 -0.3990047 0.97576594
-3.9009373 4.7154493 -0.39898762 0.97576702
-3.8412695 4.7639842 -0.39897898 0.97576761
-3.7810352 4.8117871 -0.39897034 0.97576803
-3.5967772 4.9505663 -0.39894462 0.97576952
-3.3432128 5.1245899 -0.39891121 0.97577155
-3.1474903 5.2466211 -0.39888591 0.9757731
-3.0145018 5.3238378 -0.39886901 0.97577417
-2.947324 5.3611717 -0.39886051 0.97577465
-2.8115332 5.43332 -0.39884362 0.97577566
-2.6739843 5.5020313 -0.39882699 0.97577667
-2.6045702 5.5350876 -0.39881873 0.97577715
-2.3939745 5.6289549 -0.39879397 0.9757787
-2.3229883 5.6584959 -0.39878577 0.97577912
-2.1799903 5.7148337 -0.39876926 0.97578013
-2.1079493 5.7416601 -0.39876106 0.97578067
-2.0355957 5.7675781 -0.39875281 0.97578114
-1.8166504 5.8398633 -0.39872822 0.97578251
-1.5208105 5.9232516 -0.39869559 0.9757846
-1.4462402 5.9417672 -0.39868748 0.97578508
-1.2211914 5.9917088 -0.39866319 0.97578645
-1.0702051 6.0202537 -0.39864716 0.97578746
-0.99444336 6.0331249 -0.39863917 0.97578788
-0.9185254 6.0450096 -0.39863122 0.97578841
-0.76629883 6.0659571 -0.39861542 0.97578931
-0.53710938 6.0901756 -0.398592 0.97579068
-0.46049803 6.0963182 -0.39858428 0.97579122
-0.30713865 6.1057224 -0.3985689 0.97579217
-0.23040038 6.108994 -0.39856127 0.97579253
-0.15361328 6.1112695 -0.3985537 0.97579306
9.7656248e-06 4.4873438 -0.29255524 0.98217332
0.055917967 4.4493456 -0.2901001 0.98232156
0.1536328 6.1108298 -0.39852378 0.97579479
0.23038085 6.1082907 -0.39851639 0.97579533
0.30712891 6.1048145 -0.39850906 0.97579569
0.46042967 6.0949411 -0.39849451 0.97579658
0.53696287 6.0885644 -0.39848736 0.975797
0.68980467 6.0729394 -0.39847311 0.97579783
0.84214842 6.0534668 -0.39845911 0.97579873
1.0696582 6.0171189 -0.39843851 0.97579992
1.2956054 5.9722166 -0.39841843 0.97580117
1.4452441 5.9375782 -0.39840537 0.97580194
1.5197265 5.9188571 -0.39839888 0.9758023
1.6679296 5.8785934 -0.39838621 0.97580314
2.0335839 5.761826 -0.39835563 0.97580498
2.1776659 5.7087402 -0.39834389 0.97580564
2.3204002 5.65207 -0.39833245 0.97580624
2.3912108 5.6223826 -0.39832678 0.97580659
2.4616308 5.5918064 -0.39832127 0.97580695
2.5316601 5.5603614 -0.39831582 0.97580725
2.6705077 5.4948239 -0.39830512 0.97580796
2.7393067 5.460752 -0.3982999 0.97580832
3.010078 5.3159471 -0.39827979 0.97580951
3.0766113 5.2776561 -0.39827496 0.97580975
3.2081738 5.198545 -0.39826557 0.97581035
3.3377244 5.1161618 -0.39825648 0.97581095
3.5280859 4.9865623 -0.39824358 0.97581166
3.7134082 4.8499022 -0.39823142 0.97581238
3.773994 4.8028221 -0.39822757 0.97581261
3.8934472 4.706377 -0.39822012 0.97581303
3.9522557 4.6570411 -0.39821655 0.97581321
4.0104098 4.6069627 -0.39821303 0.97581351
4.1248536 4.5046482 -0.39820632 0.97581387
4.5557423 4.0676074 -0.39817524 0.97581583
4.7733006 4.0509276 -0.40815735 0.97521693
4.8929687 4.047832 -0.41400903 0.97486621
5.0161328 4.0446286 -0.42009699 0.97450143
5.2737107 4.0378709 -0.43302885 0.97372681
1.2552441 0.93631834 -0.10209373 0.99374241
1.2562597 0.79725581 -0.097001493 0.99405354
1.2563964 0.77538085 -0.096253052 0.99409938
1.2566894 0.73260742 -0.094833829 0.99418604
1.3307421 0.70996094 -0.098332979 0.9939723
1.3719921 0.70997071 -0.10071296 0.99382681
1.415293 0.70997071 -0.10322811 0.99367309
1.4608105 0.70998043 -0.10588867 0.99351054
1.5593066 0.70997071 -0.1116999 0.99315566
1.7293457 0.70996094 -0.12187573 0.99253452
1.7931542 0.70997071 -0.12573391 0.99229908
2.0238574 0.71431637 -0.13992351 0.9914338
2.0238769 0.68583983 -0.13931713 0.99147075
2.0238769 0.65760744 -0.13873775 0.9915061
7.3657517 2.1902344 -0.50099468 0.96966636
7.4183884 2.0044239 -0.50098979 0.96966666
7.4429393 1.9110351 -0.50098747 0.9696669
7.4885645 1.7233887 -0.50098324 0.96966708
7.5294628 1.5346386 -0.50097948 0.96966726
7.5655856 1.3449316 -0.5009762 0.96966749
7.5818748 1.2497363 -0.50097471 0.96966755
7.5969238 1.154375 -0.5009734 0.96966779
7.6108494 1.0588086 -0.50097215 0.96966773
7.6235447 0.96309566 -0.50097096 0.96966773
7.6350193 0.86720699 -0.50097001 0.96966785
7.6543846 0.67506832 -0.50096834 0.96966791
7.6622362 0.5788281 -0.50096768 0.96966803
7.6688766 0.48249021 -0.50096709 0.96966809
7.6743455 0.38610351 -0.50096667 0.96966809
7.6785936 0.28962889 -0.50096637 0.96966809
7.6840429 9.7656248e-06 -0.50096613 0.96966809
7.6834569 -0.096533202 -0.50096631 0.96966803
7.6816306 -0.19308594 -0.50096661 0.96966803
7.6743846 -0.38605466 -0.5009675 0.96966791
7.6689258 -0.48246092 -0.5009681 0.96966791
7.6543746 -0.67504883 -0.50096977 0.96966797
7.6453123 -0.77118164 -0.50097072 0.96966785
7.6350584 -0.8671875 -0.50097179 0.96966767
7.6235547 -0.9630664 -0.50097305 0.96966773
7.6108689 -1.0587988 -0.50097436 0.96966761
7.596992 -1.1543456 -0.50097585 0.96966755
7.5818844 -1.2497168 -0.5009774 0.96966755
7.4430075 -1.9110351 -0.50099152 0.9696666
7.4184375 -2.0044239 -0.50099403 0.96966648
7.3658299 -2.1902344 -0.50099933 0.96966606
2.0238769 -0.71427733 -0.13992329 0.9914338
1.9337401 -0.70992184 -0.13429999 0.99177676
1.7931249 -0.70992184 -0.12573338 0.99229926
1.5593066 -0.70993161 -0.11169948 0.99315572
1.5087304 -0.70991212 -0.10870792 0.99333853
1.4152637 -0.70993161 -0.10322758 0.99367326
1.3719629 -0.70992184 -0.10071289 0.99382699
1.3307519 -0.70991212 -0.098332673 0.99397236
1.2568262 -0.71161133 -0.094161607 0.99422729
1.256709 -0.73254883 -0.094833903 0.9941861
1.2565234 -0.75378907 -0.095530622 0.99414366
1.2564062 -0.77533203 -0.096253015 0.99409944
1.2560937 -0.81944335 -0.097776905 0.99400628
1.2557714 -0.86497068 -0.099412955 0.99390632
1.2556055 -0.88832027 -0.10027511 0.99385363
1.2552344 -0.93626952 -0.10209358 0.99374253
5.2141504 -3.9922752 -0.42814186 0.97401965
5.0782909 -3.9904687 -0.42107058 0.9744432
4.9495311 -3.9908788 -0.41451994 0.97483581
4.7080173 -3.9954882 -0.40257713 0.97555178
4.6065626 -4.0100389 -0.39817894 0.97581559
4.5044432 -4.124629 -0.39818898 0.97581506
4.3459568 -4.2916408 -0.39820448 0.9758141
4.0106835 -4.6071973 -0.39823735 0.97581208
3.9525096 -4.6572852 -0.39824301 0.97581184
3.7137401 -4.8502927 -0.39826638 0.97581035
3.652539 -4.8966599 -0.39827237 0.97580999
3.4020996 -5.0742869 -0.39829683 0.97580862
3.2736328 -5.1583495 -0.39830938 0.97580779
3.2085741 -5.1991601 -0.39831573 0.97580749
3.0770116 -5.2783203 -0.39832857 0.97580671
3.0104883 -5.3166599 -0.39833504 0.9758063
2.9434862 -5.3541598 -0.3983416 0.97580594
2.8760254 -5.3908105 -0.39834815 0.97580552
2.8080957 -5.426621 -0.3983548 0.9758051
2.7397461 -5.4615817 -0.39836141 0.97580463
2.6709278 -5.4956641 -0.39836815 0.97580427
2.6017187 -5.5288768 -0.39837489 0.97580391
2.5320604 -5.5612497 -0.39838168 0.97580343
2.4620311 -5.5927048 -0.3983885 0.97580308
1.9614258 -5.7880759 -0.39843726 0.97580022
1.8885839 -5.8123727 -0.39844432 0.97579974
1.7419823 -5.8582029 -0.3984586 0.9757989
1.6682519 -5.8797364 -0.39846575 0.97579849
1.5942675 -5.9003515 -0.39847296 0.97579801
1.4455469 -5.9387794 -0.39848742 0.97579712
1.2207519 -5.9893651 -0.39850929 0.97579581
0.99417967 -6.031445 -0.39853126 0.97579455
0.68994141 -6.0742188 -0.39856082 0.97579277
0.38389647 -6.1016793 -0.39859051 0.97579098
0.15364258 -6.1121483 -0.39861283 0.97578967
9.7656248e-06 -6.1143165 -0.39862773 0.97578871
-0.15365234 -6.1126075 -0.39864266 0.97578788
-0.23044921 -6.1102929 -0.39865005 0.97578746
-0.38395506 -6.1028223 -0.39866495 0.97578651
-0.61373043 -6.0843358 -0.39868721 0.9757852
-0.69013673 -6.0762696 -0.3986946 0.97578472
-0.76644528 -6.0672264 -0.398702 0.9757843
-1.1460059 -6.0076852 -0.39873871 0.9757821
-1.3717188 -5.960547 -0.39876053 0.97578079
-1.5954882 -5.9049411 -0.39878219 0.97577941
-1.6695703 -5.884531 -0.39878932 0.97577906
-1.7434374 -5.8631835 -0.3987965 0.97577858
-1.8902831 -5.8177247 -0.39881065 0.9757778
-1.9632812 -5.7935934 -0.39881769 0.97577745
-2.1083398 -5.7426658 -0.3988317 0.97577643
-2.2520604 -5.6880469 -0.39884558 0.97577566
-2.3943553 -5.6298437 -0.39885932 0.97577488
-2.4649608 -5.5994043 -0.39886615 0.97577447
-2.6743751 -5.5028028 -0.39888632 0.97577327
-3.0149024 -5.3244724 -0.39891914 0.97577119
-3.2135742 -5.2072949 -0.3989383 0.97577012
-3.3435352 -5.1250587 -0.39895079 0.97576934
-3.4077344 -5.0827146 -0.39895698 0.97576898
-3.5344725 -4.995615 -0.39896917 0.97576833
-3.5970213 -4.9508886 -0.39897516 0.97576797
-3.6590037 -4.9053807 -0.39898115 0.97576755
-3.8414648 -4.7641797 -0.39899868 0.97576654
-3.9011133 -4.7156153 -0.39900443 0.97576606
-4.0184665 -4.6162009 -0.39901569 0.97576553
-4.1511326 -4.099287 -0.38034564 0.97688562
-1.0256445 -0.93916011 -0.090667263 0.99444103
-1.02583 -0.91590816 -0.089660302 0.9945026
-1.0262305 -0.87091798 -0.087752417 0.99461919
-1.0270703 -0.76609373 -0.083537251 0.99487704
-1.027207 -0.74629879 -0.082780108 0.99492335
-1.0273633 -0.72685546 -0.082049295 0.99496806
-1.0306641 -0.70994139 -0.081593513 0.99499589
-1.0882128 -0.70991212 -0.084710695 0.99480528
-1.1186913 -0.70993161 -0.086381339 0.99470305
-1.1833984 -0.70994139 -0.089972496 0.99448347
-1.3307323 -0.70994139 -0.098332442 0.99397236
-1.3719531 -0.70992184 -0.10071243 0.99382704
-1.4152539 -0.70992184 -0.10322746 0.99367332
-1.4607519 -0.70992184 -0.10588814 0.99351084
-1.5087206 -0.70992184 -0.10870781 0.99333853
-1.6126952 -0.70992184 -0.114879 0.99296176
-1.6692675 -0.70992184 -0.11826416 0.99275512
-1.7912598 -0.68328124 -0.12499149 0.99234456
-7.2986813 -2.4732909 -0.5024212 0.96958137
-7.3292379 -2.3813965 -0.50242406 0.96958119
-7.3586035 -2.2891309 -0.5024268 0.96958107
-7.3868456 -2.1964843 -0.50242943 0.96958083
-7.4139156 -2.1034961 -0.50243199 0.96958065
-7.439785 -2.0101855 -0.50243437 0.96958053
-7.4644918 -1.9165527 -0.50243664 0.96958041
-7.5103707 -1.7283691 -0.50244093 0.96958011
-7.5314941 -1.6338476 -0.5024429 0.96958011
-7.5702243 -1.4440918 -0.50244641 0.96957994
-7.6041989 -1.2534082 -0.50244951 0.96957964
-7.6333399 -1.0619141 -0.50245214 0.96957946
-7.6460738 -0.96590817 -0.50245327 0.96957952
-7.6679883 -0.77345699 -0.50245517 0.96957928
-7.6770992 -0.67704099 -0.50245595 0.96957928
-7.691709 -0.48389646 -0.5024572 0.96957922
-7.6971679 -0.38721678 -0.50245762 0.96957928
-7.7044821 -0.19365235 -0.5024581 0.96957922
-7.390986 1.953125e-05 -0.50242752 0.97080255
-7.39042 0.09288086 -0.50242734 0.97080249
-7.3436813 0.83412105 -0.50242203 0.9708029
-7.3204002 1.0184082 -0.50241959 0.9708029
-7.306982 1.1103222 -0.50241822 0.97080302
-7.2924218 1.202041 -0.50241667 0.9708032
-7.2598825 1.3849121 -0.50241333 0.97080332
-7.2418847 1.4760253 -0.50241148 0.97080338
-7.2227244 1.5669043 -0.50240952 0.97080356
-7.2024317 1.657539 -0.50240749 0.97080368
-7.1810055 1.7479004 -0.50240529 0.9708038
-7.1099219 2.0172949 -0.50239813 0.97080421
-7.0839744 2.1064649 -0.50239551 0.97080433
-7.0569043 2.1952929 -0.50239277 0.97080451
-7.0287399 2.2837889 -0.50238997 0.97080463
-6.9690037 2.4596679 -0.50238401 0.97080511
-1.7922266 0.7096191 -0.13103557 0.99230158
-1.7292968 0.70997071 -0.12707669 0.99253333
-1.6692773 0.70997071 -0.12331218 0.99275368
-1.6127245 0.70997071 -0.11978252 0.99296027
-1.5592773 0.70998043 -0.11646709 0.99315453
-1.5086914 0.70997071 -0.11334785 0.99333733
-1.4152539 0.70998043 -0.10763378 0.99367207
-1.3307129 0.70997071 -0.10252964 0.99397129
-1.2537891 0.70997071 -0.097946964 0.99423993
-1.1503808 0.70997071 -0.091895446 0.99459487
-1.1186913 0.70998043 -0.090068549 0.99470198
-1.0882226 0.70996094 -0.08832664 0.9948042
-1.0306641 0.70997071 -0.085076176 0.99499488
-1.0266699 0.72642577 -0.085494347 0.99497038
-1.0263672 0.76561522 -0.087043606 0.99487948
-1.0258496 0.8272168 -0.089582972 0.99473047
-1.0251074 0.9152832 -0.093419261 0.99450541
-1.0248926 0.9385156 -0.094467387 0.99444395
-4.9637108 4.6612792 -0.46288258 0.97306937
-4.7776661 4.6008887 -0.45088673 0.97375798
-4.4503903 4.5067091 -0.43055704 0.97492623
-4.2982616 4.4634862 -0.42123377 0.9754625
-4.0128322 4.3823242 -0.40392712 0.97645861
-3.8537402 4.427002 -0.39899006 0.97674298
-3.7977636 4.4750195 -0.39898458 0.97674328
-3.7411523 4.5223241 -0.39897811 0.9767437
-3.567832 4.6598434 -0.3989543 0.97674501
-3.5089159 4.7041993 -0.39894634 0.97674555
-3.3894725 4.7907128 -0.3989304 0.97674638
-3.2678905 4.8741894 -0.39891437 0.97674727
-3.2062988 4.9147654 -0.39890632 0.97674781
-3.0816698 4.9935837 -0.39889017 0.9767487
-3.0186131 5.0318165 -0.39888206 0.97674918
-2.5645409 5.2767868 -0.39882597 0.97675246
-2.4310057 5.339365 -0.39881018 0.97675335
-2.2959862 5.3985643 -0.39879438 0.97675419
-2.2279198 5.4268651 -0.39878646 0.97675472
-2.0216699 5.50666 -0.39876276 0.9767561
-1.8125976 5.5786228 -0.39873916 0.97675741
-1.7423145 5.6008496 -0.39873129 0.97675782
-1.3870605 5.6986327 -0.39869219 0.97676009
-1.2433496 5.7314649 -0.39867666 0.97676104
-1.1712109 5.7465329 -0.39866897 0.97676146
-1.0988965 5.7606835 -0.39866126 0.97676188
-0.95375973 5.7862692 -0.39864588 0.97676271
-0.88095701 5.7976561 -0.39863825 0.97676325
-0.80801755 5.8081641 -0.39863068 0.97676367
-0.51510739 5.8409958 -0.3986007 0.97676539
-0.44166014 5.8469043 -0.39859328 0.97676581
-0.22097656 5.8590817 -0.39857122 0.976767
-0.14731444 5.861279 -0.39856395 0.97676748
0.14733398 5.8608494 -0.39853522 0.97676915
0.29455078 5.8550878 -0.3985211 0.97676998
0.4415918 5.8456249 -0.39850724 0.97677082
0.58835936 5.83249 -0.39849344 0.97677153
0.6615625 5.8245411 -0.39848667 0.97677195
0.80770504 5.8058591 -0.39847323 0.97677279
0.88058591 5.795166 -0.39846659 0.97677314
0.95331055 5.783545 -0.39846 0.9767735
1.0259179 5.7710352 -0.39845347 0.9767738
1.0983496 5.7575974 -0.39844698 0.97677416
1.2426269 5.7279882 -0.39843422 0.97677493
1.3144921 5.7118163 -0.3984279 0.97677535
1.3861328 5.6947556 -0.39842167 0.97677571
1.5287499 5.657959 -0.39840934 0.97677642
1.8109961 5.5736618 -0.39838549 0.97677779
1.8808788 5.5503807 -0.39837965 0.97677815
2.0196972 5.5012207 -0.3983683 0.97677875
2.2255175 5.4209571 -0.3983517 0.9767797
2.2934277 5.3924804 -0.39834633 0.97678006
2.5613184 5.2701755 -0.3983255 0.97678125
2.6929004 5.2039938 -0.39831558 0.97678185
2.7580371 5.1696973 -0.39831069 0.97678208
2.8870213 5.0986328 -0.39830124 0.97678262
2.9508202 5.0618944 -0.39829656 0.97678292
3.0141699 5.0243454 -0.39829203 0.97678322
3.0770311 4.9860153 -0.39828756 0.97678345
3.1394141 4.9469333 -0.39828318 0.97678357
3.3235254 4.8249216 -0.39827055 0.97678441
3.3838475 4.7827439 -0.39826646 0.97678459
3.5615916 4.65166 -0.39825484 0.9767853
3.734287 4.5139942 -0.39824402 0.97678596
3.7907031 4.4666796 -0.39824054 0.97678608
3.9562597 4.3205175 -0.39823073 0.97678667
4.0634961 4.2196579 -0.3982228 0.97678715
4.1681347 4.1160936 -0.39821276 0.97678775
4.8877344 4.0434861 -0.4312174 0.97488821
5.010664 4.0402145 -0.43755022 0.9745242
1.254375 0.93568355 -0.10637908 0.99374551
1.2545702 0.91151363 -0.10541542 0.99380201
1.2547461 0.88776368 -0.10448532 0.99385655
1.2551172 0.84151363 -0.10272075 0.9939599
1.2552637 0.81893551 -0.10188404 0.99400908
1.2555859 0.77487302 -0.10029697 0.99410206
1.255752 0.75335938 -0.099544831 0.99414611
1.2560351 0.71121091 -0.098119162 0.99422973
1.2914063 0.70996094 -0.10017838 0.99410903
1.3307421 0.70996094 -0.10252998 0.99397117
1.3719921 0.70997071 -0.10501182 0.99382567
1.4608105 0.70998043 -0.1104084 0.99350935
1.5087402 0.70997071 -0.11334816 0.99333715
1.6127441 0.70997071 -0.11978271 0.99296021
1.6693066 0.70997071 -0.12331268 0.99275357
1.7293457 0.70996094 -0.1270773 0.99253315
1.7931542 0.70997071 -0.13110065 0.99229765
1.861123 0.70998043 -0.13540867 0.99204564
2.0238085 0.68581051 -0.14525822 0.99146944
2.0237987 0.65758789 -0.14465442 0.99150485
7.0377049 2.1893163 -0.50102651 0.97088277
7.0646286 2.1007128 -0.50102395 0.97088289
7.1151171 1.9224805 -0.50101924 0.97088319
7.1611524 1.7430761 -0.50101501 0.97088331
7.2026267 1.562539 -0.50101113 0.97088361
7.2395606 1.3810351 -0.50100774 0.97088379
7.2719431 1.198662 -0.50100482 0.97088397
7.286406 1.1071777 -0.5010035 0.97088408
7.3229198 0.83176756 -0.50100029 0.9708842
7.3414941 0.64747071 -0.50099868 0.97088426
7.3554196 0.46277341 -0.50099754 0.97088438
7.3606544 0.37031248 -0.50099713 0.97088438
7.3676071 0.18523437 -0.50099659 0.9708845
7.3693552 0.092626952 -0.50099653 0.9708845
7.3699703 9.7656248e-06 -0.50099659 0.97088438
7.3647265 -0.27775389 -0.50099742 0.97088438
7.3554296 -0.46274412 -0.5009985 0.97088432
7.3490624 -0.55513668 -0.50099921 0.97088426
7.3414941 -0.64745116 -0.50100005 0.97088426
7.2396092 -1.3810155 -0.50101072 0.97088367
7.2216992 -1.4718847 -0.5010125 0.97088361
7.2026658 -1.5625292 -0.50101447 0.97088343
7.1825094 -1.6529297 -0.50101656 0.97088325
7.1611915 -1.7430567 -0.5010187 0.97088319
7.1387401 -1.8329004 -0.50102097 0.97088313
7.1151853 -1.9224805 -0.50102335 0.97088295
7.0905075 -2.0117285 -0.50102586 0.97088277
7.0377927 -2.1893163 -0.50103116 0.97088248
2.0238085 -0.65756834 -0.14465427 0.99150485
2.0238085 -0.68579102 -0.14525844 0.9914695
2.0237987 -0.71425778 -0.14589077 0.99143255
1.861123 -0.70992184 -0.13540836 0.9920457
1.7293164 -0.70992184 -0.12707686 0.99253333
1.5593066 -0.70993161 -0.11646686 0.99315447
1.5087304 -0.70991212 -0.11334766 0.99333727
1.4152637 -0.70993161 -0.1076334 0.99367213
1.3719629 -0.70992184 -0.10501121 0.99382585
1.3307519 -0.70991212 -0.1025296 0.99397123
1.2914063 -0.70992184 -0.10017784 0.99410909
1.2558984 -0.73208004 -0.098819084 0.99418879
1.255752 -0.75330079 -0.099544831 0.99414623
1.2555859 -0.77483398 -0.10029705 0.99410218
1.2551172 -0.84147459 -0.10272102 0.99396002
1.2549316 -0.86440426 -0.10358737 0.99390924
1.2547461 -0.88773435 -0.10448555 0.99385667
1.2543652 -0.93563473 -0.10637901 0.99374568
4.4681053 -3.9893064 -0.40718168 0.97627127
4.1682224 -4.1161423 -0.39822155 0.97678739
4.0103025 -4.2704883 -0.39823702 0.97678643
3.956367 -4.3205957 -0.39824229 0.97678614
3.846621 -4.4187694 -0.39825305 0.9767856
3.790869 -4.466836 -0.39825851 0.97678518
3.6775098 -4.5608006 -0.39826956 0.97678465
3.6199608 -4.6067185 -0.39827523 0.97678429
3.5031445 -4.6963673 -0.39828661 0.97678363
3.3841112 -4.7830763 -0.39829826 0.97678292
3.3238182 -4.8252831 -0.39830416 0.97678256
3.2629492 -4.8667283 -0.3983101 0.97678232
3.1397069 -4.9473438 -0.39832214 0.97678161
2.6932323 -5.2046094 -0.39836571 0.9767791
2.6276464 -5.2381248 -0.39837208 0.97677881
2.5616796 -5.2708302 -0.39837852 0.97677833
2.4952636 -5.3026953 -0.39838496 0.97677797
2.3613281 -5.3638964 -0.39839804 0.9767772
2.2937696 -5.3932419 -0.3984046 0.97677678
2.0889647 -5.4761229 -0.39842457 0.97677571
1.8811718 -5.55125 -0.39844477 0.97677451
1.8112793 -5.5745506 -0.39845157 0.97677416
1.7411523 -5.5969629 -0.39845839 0.97677374
1.6707031 -5.6184959 -0.39846528 0.97677332
1.5290234 -5.6588964 -0.39847904 0.97677261
1.457832 -5.6777635 -0.39848593 0.97677219
1.386377 -5.6957321 -0.39849287 0.97677177
1.2428613 -5.7289939 -0.39850685 0.97677088
1.1707715 -5.7442479 -0.39851385 0.97677058
0.80785155 -5.8069334 -0.39854911 0.97676855
0.66169918 -5.8256249 -0.3985633 0.97676766
0.58846676 -5.8335838 -0.39857039 0.97676724
0.51510739 -5.8406348 -0.39857748 0.97676682
0.44167969 -5.8467283 -0.39858463 0.97676647
0.36819336 -5.8519139 -0.39859176 0.97676611
0.29461914 -5.8561912 -0.39859888 0.97676563
0.22100586 -5.8595309 -0.39860603 0.97676528
0.14735352 -5.8619528 -0.39861318 0.97676486
0.073701173 -5.8634372 -0.39862034 0.97676444
-0.073681638 -5.8636522 -0.39863458 0.97676361
-0.14735352 -5.8623633 -0.39864174 0.97676325
-0.29464844 -5.8570409 -0.39865601 0.97676229
-0.58859372 -5.8352342 -0.3986845 0.97676075
-0.7350781 -5.8188281 -0.39869869 0.97675985
-0.95390624 -5.7872949 -0.39871985 0.97675866
-1.0265918 -5.7749414 -0.39872688 0.9767583
-1.0991015 -5.7616992 -0.39873388 0.97675782
-1.3873144 -5.6995797 -0.39876178 0.97675627
-1.5301563 -5.663125 -0.39877558 0.97675544
-1.8128809 -5.5794625 -0.39880291 0.97675389
-2.0219824 -5.5074511 -0.39882308 0.97675276
-2.0910547 -5.481699 -0.39882976 0.9767524
-2.1598144 -5.4550877 -0.39883643 0.97675198
-2.2962987 -5.3992677 -0.39884955 0.97675121
-2.4313378 -5.3400192 -0.3988626 0.97675049
-2.498291 -5.3091211 -0.39886904 0.97675014
-2.6310058 -5.2448535 -0.39888185 0.9767493
-2.696748 -5.2114549 -0.3988882 0.976749
-2.8913867 -5.1063571 -0.39890692 0.97674787
-2.9553711 -5.0696874 -0.39891312 0.97674757
-3.1445019 -4.9549317 -0.39893135 0.9767465
-3.2065527 -4.9150782 -0.39893728 0.9767462
-3.32916 -4.8331056 -0.39894912 0.97674549
-3.389668 -4.790947 -0.39895493 0.97674519
-3.4496679 -4.7480564 -0.39896068 0.97674477
-3.5091112 -4.7044044 -0.3989664 0.97674447
-3.5679882 -4.6599903 -0.39897209 0.97674417
-3.6263378 -4.6148729 -0.39897767 0.97674376
-3.7978613 -4.4750876 -0.39899412 0.9767428
-3.853828 -4.4270506 -0.39899951 0.97674263
-3.909209 -4.3783398 -0.39900482 0.97674227
-3.9639549 -4.3289256 -0.39901009 0.97674203
-4.0715919 -4.2280469 -0.3990204 0.97674149
-4.2390037 -4.082119 -0.40005141 0.97668195
-1.0250976 -0.9152441 -0.093418993 0.99450558
-1.025293 -0.89250976 -0.092407912 0.99456495
-1.0255078 -0.87029296 -0.091432609 0.99462199
-1.0260352 -0.8062402 -0.088706359 0.99478203
-1.0266503 -0.72636718 -0.08549419 0.99497056
-1.0306445 -0.70993161 -0.085076176 0.99499506
-1.0588866 -0.70992184 -0.08666382 0.9949019
