# .PCD v0.7 - Point Cloud Data file format
VERSION 0.7
FIELDS x y z intensity
SIZE 4 4 4 4
TYPE F F F F
COUNT 1 1 1 1
WIDTH 1085
HEIGHT 1
VIEWPOINT 0 0 0 1 0 0 0
POINTS 1085
DATA ascii
-1.7403418 5.5945215 -0.39828259 0.97678381
-1.5992676 5.6366796 -0.39829737 0.97678304
-1.457168 5.6753025 -0.39831245 0.97678214
-1.1702832 5.7418065 -0.39834341 0.9767803
-1.0980567 5.7561622 -0.39835131 0.97677988
-1.0256543 5.769619 -0.39835924 0.97677946
-0.88037109 5.7938085 -0.39837536 0.97677851
-0.73451167 5.8143358 -0.39839163 0.97677761
-0.66143554 5.8232322 -0.39839989 0.97677708
-0.58819336 5.8312106 -0.39840814 0.9767766
-0.29448241 5.8538961 -0.39844185 0.97677463
-0.073652342 5.8612008 -0.39846754 0.9767732
9.7656248e-06 5.8618064 -0.39847621 0.97677267
0.073681638 5.861455 -0.39848492 0.97677225
0.14731444 5.8602052 -0.39849365 0.97677171
0.294541 5.8549118 -0.39851123 0.9767707
0.36811522 5.8508692 -0.39852008 0.97677022
0.44161132 5.8459277 -0.39852896 0.97676963
0.51505858 5.8400192 -0.3985379 0.97676921
0.66166991 5.8255177 -0.39855582 0.97676808
0.80791014 5.8073044 -0.39857382 0.97676706
0.8808496 5.7968359 -0.39858291 0.97676653
1.0262696 5.7731347 -0.39860106 0.97676545
1.2432226 5.7307324 -0.39862853 0.97676396
1.5297363 5.6615624 -0.39866531 0.97676176
1.600791 5.6420212 -0.39867455 0.97676128
1.7421484 5.6002927 -0.398693 0.97676009
1.9521191 5.5310154 -0.39872077 0.9767586
2.0905957 5.4804783 -0.39873931 0.97675747
2.1593652 5.4538965 -0.39874858 0.97675693
2.2277734 5.426445 -0.39875785 0.97675645
2.4308789 5.3390036 -0.39878559 0.97675484
2.4978516 5.3081641 -0.39879486 0.97675425
2.564414 5.2764845 -0.39880404 0.97675371
2.6305566 5.2439451 -0.39881328 0.97675329
2.6963086 5.2105956 -0.39882246 0.97675276
3.0815723 4.9933691 -0.39887732 0.9767496
3.14416 4.9543748 -0.39888641 0.976749
3.328877 4.8326755 -0.3989135 0.97674751
3.3894141 4.790576 -0.39892244 0.97674698
3.4494336 4.747705 -0.39893141 0.97674644
3.7411425 4.5222459 -0.39897558 0.97674394
3.7977636 4.4749999 -0.39898428 0.97674334
3.8537793 4.427002 -0.39899299 0.97674292
3.9091895 4.3783107 -0.39900166 0.97674245
3.9639843 4.3289452 -0.39901027 0.97674191
4.0854688 4.2424412 -0.40037617 0.97666317
4.1767869 4.124619 -0.39903927 0.97674018
4.3007126 4.0386229 -0.40105399 0.97662425
4.4074903 4.0358787 -0.40624899 0.97632504
4.6296191 4.030117 -0.41725203 0.97569162
4.7452731 4.0270896 -0.42307982 0.97535628
4.8641696 4.0239744 -0.42913878 0.97500777
5.1125584 4.0173826 -0.44200289 0.97426832
5.2424316 4.0139256 -0.4488351 0.97387582
1.2543848 0.93566406 -0.10637882 0.99374557
1.2547559 0.88774413 -0.10448512 0.99385661
1.2551074 0.84148437 -0.10272053 0.99396002
1.2552637 0.81891602 -0.10188381 0.99400908
1.2554394 0.79671872 -0.10107604 0.9940564
1.2556055 0.77486324 -0.10029685 0.99410206
1.2558887 0.73210937 -0.098818853 0.99418873
1.2560253 0.71119142 -0.098118663 0.99422979
1.2913965 0.70995116 -0.10017788 0.99410909
1.3719921 0.70994139 -0.10501137 0.99382573
1.460791 0.70994139 -0.11040794 0.99350947
1.50875 0.70995116 -0.1133477 0.99333715
1.7931445 0.70994139 -0.13110016 0.99229771
2.0237792 0.71426755 -0.14589024 0.99143261
2.0238183 0.68580079 -0.14525805 0.99146944
2.023828 0.65757811 -0.14465412 0.99150473
7.0580564 2.1956251 -0.50247258 0.97079986
7.1822071 1.7481738 -0.50248772 0.97079897
7.2036328 1.6577832 -0.5024904 0.97079891
7.2239256 1.5671387 -0.5024929 0.97079879
7.2936912 1.2022265 -0.50250155 0.97079819
7.3338766 0.92648435 -0.50250661 0.97079796
7.3449512 0.83424801 -0.50250798 0.9707979
7.3548923 0.74188477 -0.5025093 0.97079778
7.3712497 0.55682617 -0.50251144 0.97079766
7.3776755 0.46415037 -0.50251228 0.9707976
7.3829393 0.371416 -0.50251299 0.97079754
7.3899512 0.18577148 -0.502514 0.97079748
7.3922753 -9.7656248e-06 -0.50251448 0.97079754
7.3899412 -0.18577148 -0.50251442 0.97079754
7.3777051 -0.46416992 -0.50251329 0.97079748
7.3712692 -0.55683595 -0.50251263 0.97079754
7.3549118 -0.74189454 -0.50251085 0.97079772
7.32166 -1.0185547 -0.50250721 0.97079796
7.2036915 -1.6578125 -0.50249392 0.97079867
7.1822653 -1.7481836 -0.50249147 0.97079879
7.159668 -1.8383105 -0.50248891 0.97079897
7.1359668 -1.9281055 -0.50248617 0.97079915
7.1111522 -2.017627 -0.50248337 0.97079921
2.0238085 -0.68579102 -0.14525798 0.9914695
2.0237792 -0.71427733 -0.14589027 0.99143261
1.8611327 -0.70994139 -0.13540843 0.99204564
1.7931445 -0.70994139 -0.13110031 0.99229771
1.7293457 -0.70994139 -0.12707672 0.99253315
1.6693164 -0.70994139 -0.12331196 0.99275357
1.6127343 -0.70994139 -0.11978245 0.99296033
1.4608008 -0.70995116 -0.11040813 0.99350941
1.3720019 -0.70994139 -0.1050114 0.99382567
1.2558887 -0.73210937 -0.098818965 0.99418873
1.2547461 -0.8877539 -0.10448528 0.99385661
1.25458 -0.91148436 -0.10541515 0.99380201
1.254375 -0.93566406 -0.1063787 0.99374557
5.2415037 -4.0132422 -0.44875649 0.97388035
4.9727831 -4.0096774 -0.43424216 0.97471434
4.8448143 -4.0079784 -0.42743048 0.97510594
4.6033397 -4.0072751 -0.41488472 0.97582781
4.279326 -4.0185742 -0.39906013 0.97673905
4.228457 -4.0719724 -0.39905414 0.97673929
4.1768751 -4.1247168 -0.39904806 0.9767397
4.1246486 -4.176826 -0.39904198 0.97674
4.0182714 -4.2790332 -0.39902946 0.97674066
3.9093456 -4.3784862 -0.39901665 0.97674149
3.8539453 -4.4272165 -0.39901015 0.97674185
3.7979393 -4.475215 -0.39900357 0.97674227
3.7413476 -4.5225291 -0.39899689 0.97674257
3.6263964 -4.6149411 -0.39898339 0.9767434
3.5680566 -4.6600876 -0.3989765 0.97674376
3.3897166 -4.7909961 -0.39895552 0.97674495
3.2680957 -4.8744822 -0.39894119 0.9767459
3.206543 -4.9150877 -0.39893395 0.9767462
3.1444726 -4.9548926 -0.39892662 0.97674668
3.0188477 -5.0321679 -0.3989118 0.97674751
2.8913281 -5.1062403 -0.39889678 0.97674841
2.8268847 -5.1420798 -0.39888918 0.97674882
2.7619727 -5.1771193 -0.39888152 0.97674918
2.6966698 -5.2112989 -0.39887381 0.97674966
2.4981835 -5.3089256 -0.39885038 0.97675103
2.4312401 -5.3398046 -0.39884254 0.97675139
2.3638866 -5.3698144 -0.39883456 0.97675192
2.2961817 -5.3989649 -0.3988266 0.97675246
2.159668 -5.4547653 -0.39881045 0.97675335
1.9524413 -5.5319433 -0.39878601 0.97675472
1.6010644 -5.6430368 -0.39874446 0.97675717
1.4587011 -5.6812501 -0.39872763 0.97675812
1.1713085 -5.7468653 -0.39869365 0.97676009
1.0989746 -5.7610254 -0.3986851 0.97676051
1.0264648 -5.7742577 -0.39867651 0.97676098
0.95381832 -5.7865524 -0.39866793 0.97676158
0.51514649 -5.8412008 -0.39861602 0.97676456
0.36818358 -5.8520603 -0.39859861 0.97676551
0.14734374 -5.8613868 -0.39857244 0.97676706
0.07366211 -5.8626561 -0.39856371 0.97676754
-0.07367187 -5.8624024 -0.39854625 0.97676849
-0.22095703 -5.8584471 -0.39852881 0.97676951
-0.294541 -5.8550682 -0.39852008 0.97677004
-0.36808592 -5.8507714 -0.39851135 0.97677058
-0.66154295 -5.8243651 -0.39847654 0.97677267
-0.73465818 -5.8154883 -0.3984679 0.97677302
-0.88052732 -5.7949314 -0.39845058 0.9767741
-1.3143651 -5.7113962 -0.39839908 0.97677708
-1.4574219 -5.6762986 -0.3983821 0.97677815
-1.528623 -5.6574411 -0.39837363 0.97677851
-1.5995507 -5.6376657 -0.39836523 0.97677898
-1.6702148 -5.617002 -0.39835683 0.97677952
-1.8806152 -5.5496969 -0.39833182 0.97678101
-2.0194139 -5.5004783 -0.39831531 0.97678185
-2.2251563 -5.4201365 -0.39829084 0.97678322
-2.2930565 -5.3916306 -0.39828277 0.97678369
-2.4944725 -5.3010349 -0.39825881 0.97678518
-2.5608399 -5.2691894 -0.39825091 0.97678554
-2.6923242 -5.2029591 -0.39823523 0.97678649
-2.7574511 -5.168613 -0.39822754 0.97678691
-2.822119 -5.1334567 -0.39821982 0.97678739
-3.0134375 -5.0231543 -0.39819703 0.97678864
-3.0762596 -4.9847946 -0.39818954 0.97678912
-3.3225877 -4.8235841 -0.39816016 0.97679079
-3.3828709 -4.7813673 -0.39815298 0.9767912
-3.5604882 -4.6502147 -0.39813179 0.97679245
-3.6761034 -4.5591111 -0.39811802 0.97679323
-3.7893846 -4.4651365 -0.39810446 0.976794
-3.8451562 -4.4170995 -0.39809784 0.9767943
-4.0086913 -4.2688279 -0.39807829 0.97679549
-4.0619431 -4.2180371 -0.39807191 0.97679591
-4.1145506 -4.1666017 -0.39806563 0.97679627
-4.2178416 -4.0617676 -0.39805329 0.97679693
-1.0248828 -0.93850583 -0.09446758 0.99444401
-1.0250976 -0.91526365 -0.093419224 0.99450552
-1.0253028 -0.89255857 -0.092407912 0.99456477
-1.0255078 -0.87031245 -0.091432609 0.99462199
-1.0256737 -0.84852535 -0.090491407 0.99467725
-1.0258594 -0.82718748 -0.089583091 0.99473053
-1.0260156 -0.80625975 -0.08870659 0.99478203
-1.026377 -0.76560545 -0.087043762 0.99487948
-1.0306445 -0.70994139 -0.085076176 0.994995
-1.0589062 -0.70995116 -0.086664081 0.99490178
-1.0882128 -0.70995116 -0.088326566 0.99480426
-1.3307421 -0.70995116 -0.10252967 0.99397123
-1.4152637 -0.70994139 -0.10763374 0.99367207
-1.5592773 -0.70995116 -0.11646713 0.99315453
-1.7922266 -0.70958984 -0.13103588 0.99230164
-1.7921289 -0.68362302 -0.13038956 0.99233943
-1.7920409 -0.65792966 -0.12977065 0.99237561
-7.061533 -2.0997753 -0.50080407 0.97089547
-7.0873046 -2.0108593 -0.50080091 0.97089571
-7.1355467 -1.8321093 -0.50079501 0.97089595
-7.1792479 -1.6521875 -0.50078964 0.9708963
-7.1994138 -1.5618359 -0.50078714 0.97089636
-7.2530465 -1.2893652 -0.50078046 0.97089684
-7.2831249 -1.1066699 -0.50077671 0.97089696
-7.2963963 -1.0150585 -0.50077504 0.9708972
-7.3195896 -0.83136719 -0.50077212 0.97089726
-7.3294234 -0.73932618 -0.50077087 0.97089744
-7.3381152 -0.64716798 -0.50076973 0.9708975
-7.345654 -0.55489254 -0.50076872 0.97089756
-7.3612986 -0.27764648 -0.50076658 0.97089773
-7.3642282 -0.18512695 -0.50076616 0.97089767
-7.3659568 -0.09256836 -0.5007658 0.97089773
-7.0772362 -9.7656248e-06 -0.50079995 0.9720192
-7.0766697 0.088925779 -0.50079995 0.9720192
-7.0749998 0.17785156 -0.50080007 0.9720192
-7.0571485 0.53309572 -0.50080174 0.97201914
-7.0499315 0.62173826 -0.50080252 0.97201896
-7.0320797 0.79871094 -0.50080442 0.97201896
-7.021533 0.88702148 -0.50080562 0.97201878
-6.9681444 1.2387109 -0.50081158 0.9720186
-6.9166012 1.5004785 -0.50081742 0.97201824
-6.8972263 1.5872852 -0.50081956 0.97201812
-6.8325977 1.846123 -0.50082695 0.97201771
-6.8088965 1.9318554 -0.5008297 0.97201759
-6.7582812 2.1023924 -0.50083554 0.97201723
-6.7313671 2.1871581 -0.50083864 0.97201705
-6.6743751 2.3556445 -0.50084519 0.97201669
-1.7928905 0.65825194 -0.13514972 0.99237049
-1.7930077 0.68397462 -0.13579494 0.99233419
-1.7931151 0.70994139 -0.13646828 0.99229634
-1.7292968 0.70995116 -0.13228042 0.9925319
-1.6692871 0.70994139 -0.12836166 0.99275231
-1.612705 0.70994139 -0.12468757 0.99295908
-1.5086914 0.70994139 -0.1179895 0.99333608
-1.4152539 0.70995116 -0.11204132 0.99367088
-1.3719727 0.70995116 -0.10931163 0.9938246
-1.3307129 0.70995116 -0.10672809 0.99397016
-1.2178417 0.70995116 -0.099751778 0.99436319
-1.1833984 0.70996094 -0.097654261 0.99448138
-1.0882031 0.70994139 -0.091943204 0.99480331
-1.0259765 0.72590816 -0.088935852 0.99497288
-1.0253222 0.80569333 -0.092275083 0.99478459
-1.0251465 0.82660156 -0.093186453 0.99473321
-1.0247558 0.8696875 -0.095108755 0.99462485
-1.0245606 0.89190429 -0.096122816 0.99456769
-1.0243554 0.91460937 -0.097173803 0.99450839
-4.1155663 4.1676073 -0.41446963 0.97678626
-4.0147462 4.1690235 -0.4095591 0.97705805
-3.9147558 4.1687989 -0.40467253 0.97732872
-3.8159375 4.167295 -0.39984035 0.9775964
-3.6939549 4.2434082 -0.39810649 0.97769231
-3.6403809 4.2895408 -0.39811277 0.97769207
-3.5315526 4.3798046 -0.39812475 0.97769135
-3.4204297 4.4672751 -0.39813399 0.97769094
-3.3640623 4.5099607 -0.39813876 0.97769064
-3.1918066 4.6337204 -0.3981536 0.9776898
-3.1333885 4.6735153 -0.3981587 0.9776895
-3.0744433 4.7125878 -0.39816394 0.97768927
-3.015039 4.7509179 -0.39816925 0.97768891
-2.8947558 4.8253222 -0.39818013 0.97768831
-2.8339257 4.8613768 -0.39818573 0.97768801
-2.7109571 4.931211 -0.39819708 0.97768736
-2.6488085 4.9649706 -0.39820293 0.977687
-2.5862498 4.9979296 -0.39820883 0.9776867
-2.4599121 5.0614843 -0.3982209 0.97768605
-2.3320019 5.1218748 -0.39823332 0.97768533
-2.2674999 5.1508594 -0.39823967 0.97768497
-2.1374023 5.2063866 -0.39825264 0.97768426
-2.0059764 5.2586327 -0.39826584 0.97768348
-1.8732421 5.307539 -0.39827937 0.97768283
-1.4528906 4.4715915 -0.33270249 0.98132277
-1.6719531 5.3746676 -0.3983002 0.97768164
-1.6043359 5.3953514 -0.39830726 0.97768122
-1.4682909 5.4341502 -0.3983216 0.97768044
-1.3999023 5.4522753 -0.3983289 0.97768009
-1.3313086 5.4695411 -0.39833626 0.97767961
-1.1934863 5.5014648 -0.3983511 0.97767884
-0.98533201 5.542861 -0.39837387 0.97767758
-0.91562498 5.5549021 -0.39838156 0.97767717
-0.77575195 5.5763865 -0.39839712 0.97767627
-0.63541991 5.594336 -0.39841288 0.97767544
-0.49462891 5.6087594 -0.39842886 0.97767454
-0.4241406 5.6146483 -0.39843693 0.97767407
-0.35355467 5.619668 -0.39844504 0.97767359
-0.28291014 5.6237597 -0.39845321 0.97767323
0 5.6313477 -0.3984862 0.97767133
0.14154297 5.6298046 -0.39850295 0.97767043
0.35363281 5.62082 -0.39852837 0.97766906
0.56528318 5.6038866 -0.39855406 0.97766751
0.77612305 5.5789452 -0.39858001 0.97766614
0.98591793 5.5460935 -0.39860618 0.97766471
1.0555469 5.5333886 -0.39861494 0.97766423
1.1250293 5.5198045 -0.39862373 0.97766376
1.1943164 5.5053611 -0.39863253 0.97766322
1.2634667 5.4900193 -0.39864135 0.9776628
1.3323535 5.4738379 -0.3986502 0.97766232
1.4695605 5.4388766 -0.39866787 0.97766125
1.5378222 5.4200878 -0.39867675 0.97766083
1.6058691 5.4004784 -0.3986856 0.97766024
1.741123 5.3586426 -0.39870337 0.97765934
1.8083692 5.3364649 -0.39871231 0.97765881
1.9420019 5.2895899 -0.39873007 0.97765774
2.1401269 5.2129688 -0.39875677 0.97765636
2.2055078 5.185781 -0.39876568 0.97765583
2.2705371 5.1577635 -0.39877456 0.97765541
2.3995702 5.0993161 -0.3987923 0.97765434
2.4635057 5.0688572 -0.39880118 0.97765392
2.5270507 5.0376172 -0.39881003 0.97765344
2.6529589 4.9727345 -0.3988277 0.97765249
2.7153125 4.9391208 -0.39883652 0.97765195
2.8997459 4.8336134 -0.39886284 0.97765034
2.9603026 4.796875 -0.39887157 0.97764999
3.1392186 4.6822071 -0.39889765 0.9776485
3.2560449 4.6020312 -0.3989149 0.97764754
3.3136523 4.5608497 -0.39892349 0.97764713
3.4273827 4.4763474 -0.39894056 0.97764611
3.6482518 4.2988281 -0.39897433 0.97764432
3.7020996 4.2527342 -0.39898267 0.97764379
3.7552831 4.2059474 -0.39898926 0.97764349
3.8079002 4.1585059 -0.39899552 0.97764307
3.8599119 4.1103806 -0.39900172 0.97764277
3.9113281 4.0616212 -0.39900786 0.97764242
3.9920018 4.0424609 -0.40202338 0.9774754
4.0910254 4.0399218 -0.40685055 0.97720802
4.2964063 4.0345898 -0.41705874 0.97664291
4.5124316 4.0289063 -0.42806125 0.9760341
4.7402439 4.0228515 -0.43993941 0.97537732
4.9822655 4.0172949 -0.45288599 0.97466201
5.2423048 4.0138378 -0.46720508 0.97387147
1.2537304 0.91086912 -0.10965801 0.99380505
1.2542871 0.8409375 -0.10685673 0.99396276
1.2549511 0.75285155 -0.10355518 0.99414873
1.3307323 0.70994139 -0.10672829 0.9939701
1.3719921 0.70995116 -0.10931137 0.99382454
1.5592968 0.70995116 -0.12123641 0.99315315
1.6127343 0.70996094 -0.12468742 0.9929589
1.7293359 0.70995116 -0.13228065 0.99253178
1.7931445 0.70994139 -0.13646843 0.99229628
1.8611327 0.70995116 -0.14095321 0.99204409
1.9337695 0.70994139 -0.14576656 0.99177355
2.0237305 0.71423829 -0.15185909 0.99143118
2.0237403 0.65753907 -0.15057227 0.99150348
6.7799315 2.1091015 -0.50243974 0.97192889
6.8308787 1.9380957 -0.50244594 0.97192854
6.8547559 1.8520995 -0.50244886 0.9719283
6.8992186 1.6792969 -0.50245428 0.97192794
6.919785 1.5924706 -0.50245678 0.97192788
6.9749999 1.3305566 -0.50246364 0.97192746
7.0202537 1.0667089 -0.5024693 0.97192723
7.0331149 0.97841793 -0.50247091 0.97192717
7.0448923 0.88996094 -0.5024724 0.97192705
7.0555367 0.80137694 -0.50247377 0.97192693
7.0650682 0.71264648 -0.50247496 0.97192687
7.0734959 0.62381834 -0.5024761 0.97192675
7.0807614 0.53488278 -0.50247705 0.97192681
7.0869431 0.44586912 -0.50247788 0.97192675
7.0959373 0.26764649 -0.50247914 0.97192663
7.0987496 0.1784375 -0.50247955 0.97192657
7.1004391 -0.089228511 -0.50247997 0.97192657
7.0869627 -0.44587889 -0.50247884 0.97192669
7.0735154 -0.62381834 -0.50247741 0.97192669
7.0650878 -0.71266598 -0.50247651 0.97192681
7.0555758 -0.80138671 -0.50247544 0.97192681
7.0202832 -1.0667382 -0.50247157 0.97192711
7.0063181 -1.1548632 -0.50247002 0.97192711
6.9912109 -1.2428125 -0.50246829 0.97192729
6.9577246 -1.4180957 -0.50246453 0.97192746
6.9198532 -1.5924804 -0.50246018 0.97192764
6.8309374 -1.938125 -0.50245005 0.97192824
6.8060055 -2.0237987 -0.50244719 0.97192842
6.7800193 -2.1091504 -0.50244421 0.97192848
2.0237305 -0.65754879 -0.15057246 0.99150354
2.0237501 -0.68577147 -0.15120113 0.99146807
2.023711 -0.71425778 -0.15185921 0.99143124
1.8611327 -0.70994139 -0.14095348 0.99204415
1.6693164 -0.70994139 -0.1283617 0.99275219
1.5592968 -0.70995116 -0.12123634 0.99315315
1.5087206 -0.70994139 -0.11798927 0.99333596
1.4152832 -0.70995116 -0.11204132 0.99367082
1.3307421 -0.70994139 -0.10672829 0.9939701
1.2913965 -0.70995116 -0.10428028 0.99410796
1.2552344 -0.71075195 -0.10207294 0.9942323
1.2550976 -0.73164064 -0.10280056 0.99419129
1.2549413 -0.75284177 -0.10355534 0.99414879
1.2546191 -0.79621094 -0.10514736 0.99405909
1.2544531 -0.81838864 -0.10598694 0.99401182
1.2541015 -0.8638379 -0.10775787 0.9939121
1.2535352 -0.93502927 -0.11065979 0.99374861
5.2415037 -4.0132422 -0.46713257 0.9738754
4.9727736 -4.0096679 -0.45202461 0.97470963
4.7207518 -4.0063281 -0.43813086 0.97547728
4.60042 -4.0047264 -0.43159834 0.97583842
4.2632227 -4.003418 -0.41383433 0.97682124
4.1593456 -4.0054393 -0.40860829 0.97711068
4.0580564 -4.0073829 -0.40357149 0.97738951
3.9622166 -4.0123048 -0.39902252 0.97764152
3.8599901 -4.1104884 -0.39901054 0.9776423
3.8079979 -4.1586032 -0.3990044 0.97764254
3.6483788 -4.298965 -0.39898565 0.97764361
3.5940039 -4.3444138 -0.39897925 0.97764397
3.4275584 -4.476572 -0.39895964 0.97764498
3.3709569 -4.5192089 -0.39895302 0.9776454
3.2562401 -4.6023436 -0.39893952 0.97764611
3.0802929 -4.7215428 -0.39891875 0.9776473
3.0206444 -4.7597947 -0.39891174 0.97764772
2.8999803 -4.834033 -0.39889756 0.9776485
2.8389549 -4.8700094 -0.39889035 0.97764885
2.527334 -5.0381837 -0.3988536 0.97765094
2.4637694 -5.0694532 -0.39884609 0.97765136
2.3998339 -5.0999217 -0.39883852 0.97765172
2.3355176 -5.12958 -0.39883095 0.97765213
2.2057812 -5.1864452 -0.39881563 0.97765303
1.8086327 -5.3372459 -0.39876872 0.97765559
1.6738769 -5.3807907 -0.39875281 0.97765648
1.606084 -5.401289 -0.39874479 0.97765696
1.4697851 -5.4397264 -0.3987287 0.97765785
1.1945312 -5.5062594 -0.39869612 0.97765958
0.98608398 -5.5470214 -0.39867148 0.97766101
0.70606446 -5.5890818 -0.39863837 0.97766286
0.63577145 -5.5974121 -0.39863005 0.97766328
0.49488279 -5.6113868 -0.39861336 0.97766423
0.42432615 -5.6170311 -0.39860502 0.97766471
0.35370117 -5.6218066 -0.39859664 0.97766519
0.14156249 -5.6307907 -0.39857149 0.97766656
0.070791014 -5.6320019 -0.39856315 0.97766703
9.7656248e-06 -5.6323438 -0.39855474 0.97766745
-0.63550782 -5.595293 -0.3984794 0.97767168
-0.7758984 -5.5773144 -0.39846274 0.97767258
-0.9157812 -5.55583 -0.39844614 0.97767347
-0.98549801 -5.5437694 -0.39843789 0.97767395
-1.0550586 -5.5308399 -0.39842963 0.97767437
-1.193662 -5.5023437 -0.39841315 0.97767532
-1.2626953 -5.4868064 -0.39840499 0.97767574
-1.4684961 -5.4349608 -0.39838055 0.97767717
-1.8066796 -5.3315134 -0.39834037 0.97767931
-1.8734961 -5.3082809 -0.39833239 0.97767979
-1.9400195 -5.2841992 -0.39832449 0.97768027
-2.0062304 -5.2593064 -0.39831665 0.97768068
-2.3322754 -5.1224704 -0.39827785 0.97768277
-2.3964159 -5.0926561 -0.39827022 0.97768325
-2.4601758 -5.0620408 -0.39826262 0.97768366
-2.5235448 -5.0306349 -0.39825508 0.97768408
-2.5865135 -4.9984374 -0.3982476 0.97768444
-2.8341699 -4.8618064 -0.3982181 0.97768611
-2.895 -4.8257127 -0.39821082 0.97768652
-2.955332 -4.7888575 -0.39820364 0.977687
-3.0152342 -4.7512498 -0.39819652 0.97768736
-3.1920116 -4.6340137 -0.39817545 0.97768843
-3.249912 -4.5934277 -0.39816856 0.97768897
-3.3073437 -4.5521579 -0.39816168 0.97768927
-3.3642285 -4.5101757 -0.39815488 0.97768956
-3.6404686 -4.2896776 -0.39812195 0.97769147
-3.7993846 -4.1492186 -0.39810294 0.97769248
-3.8614745 -4.1120605 -0.39916262 0.97763377
-3.9023242 -4.0523047 -0.39809066 0.9776932
-3.9528809 -4.0028906 -0.39808464 0.9776935
-4.0591502 -3.9089453 -0.39876476 0.97765589
-4.1579294 -3.9045703 -0.40361655 0.97738707
-1.0247656 -0.8696875 -0.095108986 0.99462479
-1.0253028 -0.8057031 -0.092275083 0.99478465
-1.0256543 -0.7650879 -0.090546571 0.99488205
-1.0258105 -0.74532223 -0.089727208 0.9949283
-1.0306445 -0.70995116 -0.088560142 0.99499404
-1.0882128 -0.70995116 -0.091943361 0.99480325
-1.3719629 -0.70993161 -0.10931156 0.99382466
-1.7931055 -0.70993161 -0.13646804 0.9922964
-1.7930175 -0.68396485 -0.13579506 0.99233419
-6.6744332 -2.3556738 -0.5008502 0.97201645
-6.7034373 -2.2716014 -0.50084668 0.97201669
-6.7314157 -2.1871679 -0.50084329 0.97201687
-6.7841797 -2.0172949 -0.50083679 0.97201717
-6.8089647 -1.931875 -0.50083381 0.97201729
-6.8326464 -1.8461621 -0.50083089 0.97201753
-6.8553028 -1.7601367 -0.50082815 0.97201753
-6.8972559 -1.5872949 -0.50082296 0.972018
-6.9681835 -1.2387207 -0.5008142 0.97201842
-7.0415626 -0.71028316 -0.5008049 0.97201896
-7.0499411 -0.62176758 -0.50080389 0.9720189
-7.0571775 -0.53310543 -0.50080293 0.97201902
-7.072197 -0.26673827 -0.50080085 0.97201926
-6.8096871 -9.7656248e-06 -0.50083166 0.97305727
-6.8091602 0.085566401 -0.5008316 0.97305727
-6.8048534 0.25665039 -0.50083196 0.97305727
-6.7903419 0.51295894 -0.50083339 0.97305727
-6.7834082 0.59823239 -0.50083417 0.97305709
-6.775332 0.68342769 -0.500835 0.97305721
-6.7662401 0.76851559 -0.50083596 0.97305709
-6.7448435 0.93833983 -0.50083834 0.97305685
-6.6551075 1.44375 -0.50084841 0.97305644
-6.5514646 1.8588183 -0.50086027 0.97305584
-6.5276561 1.9410058 -0.50086302 0.9730556
-1.5592675 0.70996094 -0.12600765 0.9931519
-1.5086914 0.70994139 -0.12263275 0.99333477
-1.4607714 0.70994139 -0.11945209 0.99350703
-1.4152539 0.70995116 -0.11645065 0.99366963
-1.3719727 0.70995116 -0.11361331 0.99382335
-1.2178417 0.70995116 -0.10367763 0.99436206
-1.1186913 0.70995116 -0.097446442 0.99469995
-1.0882128 0.70995116 -0.095561676 0.99480224
-1.0588769 0.70995116 -0.093762927 0.99489987
-1.0306445 0.70995116 -0.092045099 0.99499303
-1.0251367 0.74481446 -0.093195535 0.99493062
-1.0249609 0.76455075 -0.094046131 0.99488449
-1.0248047 0.78466797 -0.094927326 0.99483657
-1.0244434 0.82603514 -0.096786 0.99473572
-1.0242285 0.84732419 -0.097765766 0.99468267
-1.0240332 0.86907226 -0.098781317 0.99462754
-1.0238281 0.89126951 -0.099833637 0.99457043
-1.0233691 0.93710935 -0.10205547 0.99445003
-4.4320312 4.1619334 -0.4471527 0.97590983
-4.3139062 4.1542578 -0.44046989 0.97626567
-3.6216991 4.1604199 -0.4056834 0.97811949
-3.529619 4.1590137 -0.40118933 0.97835916
-3.4506054 4.1710448 -0.39813539 0.97852212
-3.3979492 4.2141504 -0.39814162 0.97852182
-3.3447752 4.2565818 -0.39814788 0.97852153
-3.1821387 4.3798242 -0.39816573 0.97852051
-3.1268651 4.4195213 -0.3981705 0.97852027
-3.0149024 4.4968162 -0.39818031 0.97851974
-2.9582031 4.5344043 -0.39818534 0.97851944
-2.9010253 4.5712891 -0.39819041 0.97851914
-2.6678123 4.7115135 -0.39821169 0.97851807
-2.4884472 4.8089161 -0.39822853 0.97851717
-2.4278612 4.8398829 -0.39823431 0.97851682
-2.2438183 4.9281735 -0.39825213 0.97851586
-2.1817284 4.9560447 -0.39825824 0.97851562
-2.0565722 5.0094724 -0.39827067 0.97851491
-1.9300976 5.0597167 -0.39828342 0.97851425
-1.8023925 5.1067967 -0.39829642 0.97851354
-1.5080858 4.4503808 -0.34559304 0.98132986
-1.6087207 5.1713572 -0.3983165 0.97851247
-1.5436523 5.1912498 -0.39832327 0.97851211
-1.4783202 5.2103319 -0.39833015 0.97851175
-1.4127442 5.2285938 -0.3983371 0.97851139
-1.2147363 5.2783985 -0.39835829 0.97851026
-1.1483399 5.2933493 -0.39836547 0.97850984
-1.0817382 5.3074608 -0.39837271 0.97850949
-0.94806641 5.3331637 -0.39838737 0.97850865
-0.74643552 5.3654199 -0.39840975 0.97850746
-0.6789453 5.3744726 -0.39841732 0.97850704
-0.54370117 5.390039 -0.39843258 0.97850627
-0.40809569 5.4022169 -0.39844805 0.97850543
-0.20419921 5.4140625 -0.39847156 0.97850424
-0.1361621 5.4163084 -0.39847949 0.97850382
-0.068066403 5.4177051 -0.39848748 0.97850335
0 5.418242 -0.39849547 0.97850293
0.068076171 5.4179196 -0.39850351 0.97850251
0.13617188 5.416748 -0.39851162 0.97850209
0.40818357 5.4035153 -0.39854422 0.97850031
0.5438965 5.391777 -0.39856079 0.97849941
0.67923826 5.3766308 -0.39857736 0.97849852
0.88144529 5.3475389 -0.39860249 0.97849721
1.3480371 5.250205 -0.39866176 0.97849405
1.4796094 5.2149024 -0.39867881 0.97849309
1.7399218 5.1343946 -0.39871299 0.97849137
1.8043262 5.1122556 -0.39872155 0.97849083
1.9323242 5.0655079 -0.39873865 0.97848994
1.9958594 5.0409374 -0.39874724 0.97848946
2.1220019 4.9893942 -0.39876434 0.97848856
2.1845605 4.962461 -0.39877287 0.97848809
2.3702049 4.876904 -0.39879853 0.97848672
2.4921288 4.8160157 -0.39881554 0.97848576
2.7311816 4.6851172 -0.3988494 0.97848397
2.8481836 4.6151953 -0.39886627 0.97848308
2.9060156 4.5791306 -0.39887467 0.97848266
2.9633789 4.5423436 -0.39888299 0.97848225
3.0203028 4.5048437 -0.39889133 0.97848177
3.1326756 4.4276953 -0.39890793 0.97848094
3.2975292 4.3067579 -0.39893264 0.97847956
3.4048533 4.2226954 -0.39894766 0.97847873
3.51 4.1359081 -0.39896026 0.97847813
3.5617578 4.0915427 -0.3989664 0.97847778
3.7048144 4.045908 -0.40346995 0.97823745
3.797158 4.0435352 -0.40795928 0.97799796
3.9881542 4.0385838 -0.4174417 0.97749233
4.0870314 4.0359864 -0.42244992 0.97722548
4.5077929 4.0247655 -0.44445118 0.97605371
4.7375193 4.0205469 -0.45699066 0.97538644
5.1102734 4.0155859 -0.47799578 0.97426975
1.2530664 0.88657224 -0.11289367 0.99386239
1.2534473 0.84038085 -0.1109893 0.99396557
1.2536328 0.81786132 -0.11008648 0.9940145
1.2539843 0.77386719 -0.10837391 0.99410731
1.2541406 0.75237304 -0.10756195 0.99415135
1.2913965 0.70995116 -0.10838398 0.99410677
1.3719921 0.70995116 -0.11361343 0.99382329
1.5592968 0.70995116 -0.12600762 0.99315178
1.6127343 0.70996094 -0.12959449 0.99295753
1.8611327 0.70995116 -0.14650047 0.99204254
2.0236523 0.68573242 -0.15714595 0.99146682
6.5478516 1.9470215 -0.50241238 0.97297335
6.571836 1.86458 -0.5024153 0.97297323
6.5947852 1.781875 -0.5024181 0.97297305
6.6166992 1.6988672 -0.50242078 0.97297287
6.637568 1.6155957 -0.50242335 0.97297269
6.6761227 1.4483007 -0.50242805 0.97297251
6.7104588 1.2800781 -0.50243235 0.97297233
6.7260447 1.1956543 -0.50243431 0.97297221
6.7540231 1.0262598 -0.50243777 0.97297198
6.7664256 0.94131833 -0.50243932 0.9729718
6.7777147 0.85622066 -0.50244081 0.97297186
6.7971287 0.68562496 -0.50244325 0.97297168
6.8122263 0.51458985 -0.50244522 0.97297162
6.8230371 0.34325194 -0.50244671 0.9729715
6.8268161 0.2574707 -0.50244725 0.9729715
6.8311424 -0.085859373 -0.50244808 0.97297144
6.8268261 -0.25749022 -0.50244778 0.97297144
6.8230662 -0.34325194 -0.50244743 0.97297138
6.8181934 -0.42896482 -0.50244695 0.9729715
6.8122458 -0.51459962 -0.50244629 0.97297156
6.8052344 -0.60016602 -0.50244558 0.97297156
6.7971582 -0.68563473 -0.50244468 0.97297156
6.7879782 -0.77099609 -0.50244373 0.97297168
6.7777734 -0.85623044 -0.5024426 0.97297162
6.7540622 -1.026289 -0.50243998 0.9729718
6.7405953 -1.1110742 -0.50243849 0.97297198
6.7260838 -1.1956738 -0.50243682 0.97297204
6.6761618 -1.44833 -0.50243115 0.97297233
6.6574121 -1.5320898 -0.50242907 0.97297245
6.6167579 -1.6988964 -0.50242442 0.97297263
2.0236328 -0.714248 -0.15782982 0.99142981
1.8611327 -0.70994139 -0.14650013 0.99204254
1.7293457 -0.70994139 -0.13748634 0.99253023
1.6127343 -0.70994139 -0.12959446 0.99295753
1.4153028 -0.70994139 -0.11645057 0.99366951
1.3720019 -0.70994139 -0.11361347 0.99382329
1.2544433 -0.71031249 -0.10602345 0.99423474
1.2541504 -0.75236326 -0.10756214 0.99415129
1.2539941 -0.77386719 -0.10837383 0.99410731
1.2538086 -0.79568356 -0.10921482 0.99406177
1.253457 -0.84038085 -0.11098934 0.99396557
1.2530859 -0.88655269 -0.11289352 0.99386239
1.2528808 -0.91026366 -0.11389698 0.99380797
1.2526953 -0.93438476 -0.11493694 0.99375153
5.2415037 -4.0132422 -0.48551643 0.97387022
4.60041 -4.0047169 -0.44858396 0.97583365
4.4836035 -4.0031834 -0.44206429 0.97618067
4.3701267 -4.0016699 -0.43579802 0.97651422
4.2597752 -4.000205 -0.429775 0.97683513
4.1524315 -3.9987695 -0.42398193 0.97714382
3.8533008 -4.0013766 -0.40855819 0.97796601
3.7592285 -4.0031638 -0.4038856 0.97821528
3.6672266 -4.0049024 -0.39937767 0.97845572
3.4763184 -4.202158 -0.40110156 0.97836375
3.4049413 -4.2228026 -0.39895672 0.97847819
3.3515234 -4.2651954 -0.39895043 0.97847855
3.2976465 -4.3069043 -0.39894408 0.97847885
3.2432032 -4.3479295 -0.39893767 0.97847921
3.188252 -4.3882713 -0.39893118 0.97847956
3.1328223 -4.4279099 -0.39892471 0.97847992
2.9061913 -4.5794239 -0.39889801 0.97848129
2.552705 -4.7848339 -0.39885634 0.9784835
2.3704004 -4.8773828 -0.39883482 0.97848469
2.3089063 -4.9066892 -0.39882758 0.97848505
2.2470214 -4.9352245 -0.39882025 0.97848547
2.0593066 -5.0161133 -0.39879811 0.97848672
1.6754199 -5.1564059 -0.39875275 0.9784891
1.5452441 -5.1966796 -0.39873737 0.97848994
1.4798046 -5.2155957 -0.39872962 0.97849029
1.3482128 -5.2509179 -0.3987141 0.97849119
1.2820898 -5.2673631 -0.39870629 0.97849149
1.215791 -5.2829394 -0.39869842 0.97849196
1.1492773 -5.2976952 -0.39869055 0.97849238
1.0825878 -5.3116016 -0.39868271 0.97849286
1.015752 -5.324697 -0.39867476 0.97849321
0.88157225 -5.34832 -0.3986589 0.97849411
0.74686521 -5.3685741 -0.39864296 0.97849494
0.47613281 -5.3988767 -0.39861092 0.97849667
0.40826172 -5.404336 -0.3986029 0.97849709
0.2042578 -5.4155469 -0.3985787 0.9784984
0.13618164 -5.4175782 -0.39857066 0.97849882
0.068105467 -5.4187598 -0.39856258 0.97849923
-0.068085939 -5.4185352 -0.39854643 0.97850007
-0.27224609 -5.411787 -0.39852226 0.97850138
-0.54376954 -5.39083 -0.39849007 0.97850317
-0.61145508 -5.3834667 -0.39848205 0.97850358
-0.67904294 -5.3752637 -0.39847401 0.97850394
-0.74654293 -5.3662009 -0.39846599 0.97850436
-0.81387693 -5.3562694 -0.398458 0.97850484
-0.94820309 -5.3339257 -0.39844206 0.97850561
-1.0151269 -5.3214841 -0.39843413 0.97850609
-1.2811133 -5.26333 -0.39840254 0.97850782
-1.3471386 -5.2467089 -0.3983947 0.97850823
-1.4784863 -5.2110157 -0.39837912 0.97850901
-1.5438281 -5.1919141 -0.39837134 0.97850943
-1.6089063 -5.1720018 -0.39836359 0.97850984
-1.6737499 -5.1512594 -0.3983559 0.97851032
-1.8025781 -5.1073828 -0.39834061 0.97851115
-1.8666015 -5.0842381 -0.39833298 0.97851151
-1.9303027 -5.0602927 -0.39832541 0.97851187
-1.9937011 -5.0355272 -0.39831787 0.97851235
-2.1195214 -4.9836521 -0.39830291 0.97851312
-2.2440233 -4.9286423 -0.39828807 0.97851384
-2.4886425 -4.8092966 -0.39825895 0.97851551
-2.5488281 -4.7775683 -0.3982518 0.97851586
-2.7269433 -4.6778612 -0.39823058 0.97851694
-2.8435547 -4.6076856 -0.39821669 0.97851771
-2.9583397 -4.5346289 -0.39820305 0.97851843
-3.015039 -4.4970117 -0.39819625 0.97851878
-3.1269727 -4.4196777 -0.39818293 0.9785195
-3.2369628 -4.3395605 -0.39816982 0.97852015
-3.344873 -4.2567091 -0.39815697 0.97852087
-3.4506934 -4.1711717 -0.3981443 0.97852153
-3.5027733 -4.1274219 -0.39813808 0.97852188
-3.6052732 -4.0379591 -0.39812583 0.9785226
-3.7673047 -3.9120703 -0.39943892 0.97845244
-3.859199 -3.9080076 -0.40394402 0.97821212
-4.0493164 -3.8994823 -0.4134542 0.97770494
-1.0238184 -0.89125973 -0.099833675 0.99457049
-1.0240234 -0.86906248 -0.098781317 0.99462759
-1.0246191 -0.80514646 -0.095840149 0.9947871
-1.0253028 -0.72543943 -0.092374302 0.99497515
-1.0306445 -0.70995116 -0.092045322 0.99499303
-1.0882226 -0.70995116 -0.095561825 0.99480218
-1.2178417 -0.70996094 -0.10367779 0.994362
-1.2913769 -0.70995116 -0.10838421 0.99410683
-1.3719629 -0.70993161 -0.11361355 0.99382341
-1.4607617 -0.70994139 -0.11945239 0.99350703
-1.5087011 -0.70994139 -0.12263298 0.99333471
-1.6692675 -0.70994139 -0.13341334 0.99275094
-6.4220896 -2.2666211 -0.50088 0.97305471
-6.4769235 -2.1044824 -0.50087333 0.97305512
-6.5028319 -2.0229199 -0.50087017 0.97305524
-6.5276852 -1.9410352 -0.50086713 0.97305542
-6.6168261 -1.6105664 -0.50085622 0.97305602
-6.6365333 -1.5272851 -0.50085378 0.97305602
-6.6727343 -1.3600194 -0.50084931 0.97305638
-6.6892872 -1.2760546 -0.50084728 0.97305644
-6.7191796 -1.1075391 -0.50084358 0.97305667
-6.7448535 -0.93833983 -0.50084031 0.97305679
-6.756084 -0.85349607 -0.50083894 0.97305691
-6.7834082 -0.59824216 -0.50083542 0.97305709
-6.79041 -0.51295894 -0.50083447 0.97305703
-6.796279 -0.42758787 -0.50083369 0.97305715
-6.8010936 -0.34214842 -0.50083303 0.97305727
-6.8048534 -0.25666016 -0.5008325 0.97305727
-6.8075485 -0.1711328 -0.50083208 0.97305727
-6.8091602 -0.085566401 -0.50083184 0.97305727
-6.5610156 0.082441404 -0.50086105 0.97402096
-6.5594821 0.16488281 -0.50086111 0.97402084
-6.5568848 0.24729492 -0.50086135 0.9740209
-6.5485935 0.41200194 -0.50086212 0.9740209
-6.5361915 0.57643551 -0.50086343 0.97402084
-6.5196776 0.74051756 -0.50086522 0.97402066
-6.4871678 0.98573238 -0.5008688 0.97402054
-6.4604101 1.1484375 -0.50087184 0.9740203
-6.4125977 1.3911328 -0.5008772 0.97402006
-6.3556933 1.6318555 -0.5008837 0.97401971
-6.3347263 1.711621 -0.50088608 0.97401953
-6.3127246 1.7910937 -0.50088865 0.97401953
-6.2897558 1.8702831 -0.50089127 0.97401935
-6.2658005 1.9491796 -0.50089401 0.97401917
-6.240859 2.0277636 -0.50089687 0.97401899
-6.2149119 2.1060448 -0.50089985 0.97401887
-1.7946386 0.65887696 -0.14593036 0.99236006
-1.7947363 0.68463868 -0.14662772 0.9923237
-1.7948534 0.71064454 -0.14735553 0.99228579
-1.7292968 0.70995116 -0.14269409 0.99252886
-1.6692675 0.70994139 -0.1384671 0.99274945
-1.5592675 0.70996094 -0.13078091 0.99315047
-1.4607714 0.70994139 -0.12397709 0.99350566
-1.3719727 0.70995116 -0.11791676 0.9938221
-1.1833984 0.70996094 -0.1053421 0.99447912
-1.1503906 0.70996094 -0.10318901 0.99459165
-1.0882128 0.70995116 -0.099181443 0.99480116
-1.0588866 0.70995116 -0.097314797 0.9948988
-1.0306543 0.70996094 -0.095531806 0.99499196
-1.0246289 0.72495115 -0.095809594 0.99497741
-1.0240917 0.7841211 -0.098455772 0.99483913
-1.0238965 0.80459958 -0.099401817 0.99478966
-1.0235156 0.84673828 -0.10139774 0.99468523
-1.0233105 0.86844724 -0.10245014 0.99463028
-1.023086 0.890625 -0.10354057 0.99457324
-1.0228516 0.91327149 -0.10467125 0.99451423
-4.1997852 4.1473436 -0.45054877 0.97659975
-3.9956055 4.1491504 -0.43969524 0.977157
-3.8977733 4.1506934 -0.4346348 0.97741693
-3.8021092 4.1521778 -0.42975253 0.97766775
-3.2619531 4.1511326 -0.40299278 0.9790436
-3.1773925 4.1498241 -0.39895815 0.97925127
-3.0128808 4.258379 -0.39818716 0.97929096
-2.9591796 4.2959962 -0.39819351 0.97929054
-2.7952635 4.4046483 -0.39821011 0.97928977
-2.7397461 4.4394922 -0.39821509 0.97928947
-2.570586 4.5397849 -0.39823058 0.97928858
-2.4557323 4.6030664 -0.39824131 0.9792881
-2.3977442 4.6336231 -0.39824679 0.9792878
-2.2806151 4.6925292 -0.39825806 0.97928727
-2.1620312 4.7485056 -0.39826959 0.97928667
-2.1022069 4.7753806 -0.39827549 0.97928637
-1.92083 4.8514357 -0.39829355 0.97928542
-1.8597265 4.8752537 -0.39829975 0.97928518
-1.4528906 4.4715915 -0.3588942 0.98131526
-1.4873632 5.0019727 -0.39833817 0.97928315
-1.4244043 5.0203614 -0.39834478 0.9792828
-1.3612207 5.0379491 -0.39835146 0.97928244
-1.2978418 5.0547462 -0.39835823 0.97928208
-0.97797847 5.126699 -0.3983928 0.97928035
-0.65417969 5.1784568 -0.39842871 0.9792785
-0.58907223 5.186377 -0.39843607 0.97927809
-0.45857421 5.1997266 -0.39845088 0.97927737
-0.39319336 5.2051759 -0.39845836 0.97927696
-0.32776368 5.2098045 -0.39846587 0.9792766
-0.26229492 5.2136035 -0.39847341 0.97927624
-0.19674805 5.2165918 -0.39848104 0.97927582
-0.13120116 5.21875 -0.39848867 0.97927541
-0.065605469 5.220088 -0.39849636 0.97927505
-9.7656248e-06 5.2205858 -0.39850405 0.97927469
0.39330077 5.2063966 -0.39855105 0.97927219
0.45870116 5.2011423 -0.398559 0.97927177
0.58927733 5.1881738 -0.39857498 0.97927099
0.65444332 5.180459 -0.39858299 0.97927058
0.71953124 5.1719337 -0.39859104 0.97927016
0.84927732 5.152422 -0.39860716 0.97926933
0.91398436 5.1414552 -0.3986153 0.97926891
0.97855467 5.1296778 -0.39862341 0.97926843
1.1072071 5.1036716 -0.39863971 0.9792676
1.1712793 5.0894532 -0.39864787 0.97926718
1.362334 5.0420117 -0.39867249 0.97926593
1.4886816 5.0063963 -0.39868891 0.97926503
1.614082 4.9675975 -0.39870539 0.97926426
1.6764063 4.9470215 -0.39871365 0.97926384
1.8617871 4.8806348 -0.39873838 0.97926253
2.1647851 4.7545896 -0.3987796 0.97926044
2.2244043 4.7271094 -0.39878783 0.97926003
2.342617 4.6699119 -0.39880425 0.97925913
2.4011621 4.6401954 -0.39881241 0.97925872
2.6880469 4.4807324 -0.39885318 0.97925663
2.7442186 4.4466991 -0.39886132 0.97925615
2.9100194 4.3403711 -0.39888546 0.97925496
2.964375 4.303535 -0.39889348 0.9792546
3.0183008 4.2660351 -0.39890146 0.97925413
3.0717285 4.2278514 -0.3989082 0.97925371
3.1246483 4.1889548 -0.39891452 0.97925353
3.1770995 4.1494431 -0.39892077 0.97925311
3.4362109 4.0489745 -0.4053688 0.97892141
3.5227635 4.0467577 -0.40954649 0.97870648
3.7013671 4.0421386 -0.41836303 0.97825301
3.7935741 4.0397167 -0.42301428 0.97801399
4.2878318 4.0265331 -0.44899213 0.97667956
4.3957028 4.0250778 -0.45495391 0.97637361
4.5065036 4.023613 -0.46115357 0.97605556
4.6203904 4.02209 -0.46759763 0.97572505
4.7375388 4.0205469 -0.47430044 0.97538131
4.9822655 4.0172849 -0.488538 0.97465181
5.224287 4.0000391 -0.50225335 0.97394961
1.2524414 0.86271483 -0.11608738 0.99391758
1.2528321 0.81731445 -0.11418201 0.99401712
1.2530175 0.79517579 -0.11327892 0.99406427
1.2531738 0.77335936 -0.11240681 0.99410993
1.2533593 0.75189453 -0.11156555 0.9941538
1.2534961 0.73072267 -0.11075382 0.9941963
1.2913965 0.70995116 -0.11248951 0.99410558
1.3307323 0.70994139 -0.11513031 0.99396765
1.415293 0.70995116 -0.12086155 0.9936682
1.5592968 0.70995116 -0.13078064 0.99315035
1.6127343 0.70996094 -0.13450347 0.99295604
1.6693164 0.70996094 -0.13846684 0.99274921
2.0235839 0.68572265 -0.16309306 0.99146533
2.0235839 0.65749019 -0.16241482 0.99150068
6.3316307 1.7964453 -0.50238693 0.97394276
6.3949313 1.5565526 -0.50239468 0.97394234
6.4491305 1.3144238 -0.50240135 0.97394204
6.4802051 1.1519531 -0.50240517 0.97394174
6.4941893 1.0704395 -0.50240695 0.97394168
6.5190821 0.90691406 -0.50241005 0.9739415
6.5299511 0.82492185 -0.50241143 0.97394156
6.5486813 0.66056639 -0.50241387 0.97394133
6.5564551 0.57822263 -0.50241482 0.97394133
6.5736327 0.33070311 -0.50241715 0.97394115
6.5772753 0.2480664 -0.50241768 0.97394115
6.5814452 0.082714841 -0.50241834 0.97394109
6.5819626 -0 -0.50241852 0.97394109
6.5814452 -0.082714841 -0.50241852 0.97394109
6.5772848 -0.24808593 -0.50241822 0.97394109
6.5736327 -0.33070311 -0.50241786 0.97394115
6.5689449 -0.41329101 -0.50241739 0.97394121
6.563252 -0.49580076 -0.50241679 0.97394115
6.5564938 -0.57823241 -0.50241607 0.97394121
6.5487008 -0.66057616 -0.50241524 0.97394121
6.5299997 -0.82492185 -0.50241321 0.97394139
6.5190821 -0.90691406 -0.50241202 0.9739415
6.4941993 -1.0704492 -0.50240922 0.97394162
6.4802051 -1.1519824 -0.50240767 0.97394174
6.4652243 -1.2333105 -0.50240594 0.97394174
6.4491992 -1.3144531 -0.50240415 0.9739418
6.395 -1.5565624 -0.50239795 0.9739421
6.3748922 -1.6368066 -0.50239569 0.97394222
6.3538084 -1.7167773 -0.50239331 0.97394228
6.3316894 -1.7964648 -0.50239074 0.97394246
6.3085742 -1.8758692 -0.50238812 0.97394264
2.0235937 -0.65750974 -0.16241489 0.99150062
1.9337401 -0.70996094 -0.15724182 0.99177027
1.7293457 -0.70994139 -0.1426944 0.99252868
1.5087206 -0.70994139 -0.12727784 0.99333328
1.4608008 -0.70995116 -0.12397709 0.99350554
1.3307421 -0.70994139 -0.11513031 0.99396759
1.2913965 -0.70995116 -0.11248989 0.99410558
1.253828 -0.70994139 -0.10998447 0.99423641
1.2535058 -0.73072267 -0.11075386 0.99419624
1.2530078 -0.79517579 -0.11327881 0.99406433
1.2528321 -0.81733394 -0.11418232 0.99401706
1.2524512 -0.86270505 -0.11608741 0.99391758
5.1049414 -4.0114255 -0.49558589 0.97429091
4.9727736 -4.0096679 -0.48761016 0.97469944
4.8448048 -4.0079589 -0.47996148 0.97509128
4.60041 -4.0047169 -0.4655765 0.97582871
4.3701172 -4.0016503 -0.45230553 0.97650951
4.2597656 -4.000195 -0.44605434 0.97683042
4.1524315 -3.9987793 -0.44004127 0.97713906
3.8468847 -3.9947166 -0.4233284 0.97799778
3.6586719 -3.995537 -0.41353777 0.97850108
3.481123 -3.9989257 -0.40470403 0.97895551
3.331455 -4.0270505 -0.39894783 0.97925168
3.2805469 -4.0685253 -0.39894179 0.97925198
3.2291112 -4.109365 -0.39893577 0.97925228
3.1316893 -4.1984277 -0.39981213 0.97920716
3.0717773 -4.2279587 -0.39891723 0.97925329
3.018369 -4.2661619 -0.39891094 0.97925359
2.9644921 -4.3036814 -0.39890459 0.97925389
2.9101171 -4.3405175 -0.39889818 0.97925425
2.855283 -4.3766794 -0.39889175 0.9792546
2.8000195 -4.4121385 -0.39888525 0.9792549
2.7443066 -4.4469042 -0.39887866 0.97925526
2.6881738 -4.4809666 -0.39887205 0.97925556
2.6316309 -4.5143065 -0.39886537 0.97925591
2.5746484 -4.5469532 -0.39885867 0.97925621
2.5172362 -4.578867 -0.39885193 0.97925663
2.4594824 -4.6100683 -0.39884505 0.97925693
2.2838573 -4.6992383 -0.39882436 0.979258
2.1649511 -4.7549706 -0.39881033 0.97925878
2.105 -4.7817283 -0.39880323 0.97925913
2.0447071 -4.8077049 -0.39879614 0.97925949
1.9841015 -4.8329492 -0.39878899 0.97925979
1.9231836 -4.8574023 -0.39878181 0.97926021
1.8619628 -4.8811035 -0.39877456 0.97926056
1.8004491 -4.9040136 -0.39876732 0.97926098
1.6765722 -4.9475293 -0.39875266 0.97926176
1.614248 -4.9681249 -0.3987453 0.97926205
1.4888378 -5.0069432 -0.39873049 0.97926283
1.4257715 -5.025156 -0.39872307 0.97926325
1.3624706 -5.0425782 -0.39871559 0.9792636
1.2989843 -5.0592089 -0.39870802 0.97926402
1.2353027 -5.0750389 -0.39870057 0.97926438
1.1073047 -5.1042676 -0.3986854 0.97926521
1.0430762 -5.1177049 -0.39867777 0.97926551
0.97866207 -5.1303024 -0.3986702 0.97926593
0.91411132 -5.1420898 -0.39866251 0.97926635
0.78455079 -5.1632323 -0.39864722 0.97926718
0.65454102 -5.1811328 -0.39863181 0.9792679
0.58937496 -5.1888475 -0.39862409 0.97926831
0.52410156 -5.1957321 -0.3986164 0.97926873
0.45876953 -5.2018261 -0.39860865 0.97926909
0.39334959 -5.2070704 -0.39860091 0.9792695
0.19680664 -5.2178907 -0.39857763 0.9792707
0.065615229 -5.2209764 -0.39856207 0.97927153
9.7656248e-06 -5.2212892 -0.3985543 0.97927195
-0.065595701 -5.2207713 -0.39854652 0.97927237
-0.19676757 -5.2172656 -0.39853099 0.97927314
-0.26232421 -5.2142968 -0.39852321 0.9792735
-0.52391601 -5.1941209 -0.39849219 0.97927511
-0.71927732 -5.1703711 -0.39846903 0.97927636
-0.91360348 -5.1392965 -0.39844596 0.97927749
-0.97807616 -5.1273146 -0.39843833 0.97927791
-1.1065918 -5.1009278 -0.39842308 0.97927862
-1.2343652 -5.0713181 -0.39840788 0.9792794
-1.2979687 -5.0553026 -0.39840034 0.97927988
-1.3613671 -5.038496 -0.3983928 0.97928023
-1.4875 -5.0025196 -0.39837784 0.97928095
-1.6126758 -4.9633594 -0.39836296 0.97928178
-1.7368456 -4.9210739 -0.39834818 0.97928256
-1.8599023 -4.8757029 -0.39833355 0.97928327
-1.9209765 -4.8518457 -0.39832631 0.97928369
-2.162168 -4.748877 -0.39829761 0.97928512
-2.3395116 -4.6637497 -0.39827651 0.97928619
-2.5134571 -4.5720115 -0.3982558 0.97928739
-2.6838574 -4.4738083 -0.39823547 0.9792884
-2.7953711 -4.4048047 -0.39822224 0.97928905
-2.8504589 -4.3692579 -0.39821562 0.97928935
-2.9050877 -4.3330173 -0.39820915 0.97928971
-2.9592578 -4.2961035 -0.39820266 0.97929007
-3.0129492 -4.2585154 -0.39819625 0.97929037
-3.118916 -4.1813278 -0.39818361 0.97929102
-3.324873 -4.0190821 -0.39815906 0.97929227
-3.3750584 -3.9769335 -0.39815307 0.97929257
-3.4246972 -3.9341404 -0.39814711 0.97929293
-3.6688573 -3.9069531 -0.40910932 0.97872889
-3.9471972 -3.8979394 -0.423453 0.9779914
-4.0464745 -3.8967285 -0.42881304 0.97771591
-1.0228614 -0.9132812 -0.10467117 0.99451417
-1.0230762 -0.890625 -0.10354073 0.9945733
-1.0235254 -0.84673828 -0.10139755 0.99468523
-1.0242773 -0.76404297 -0.097542457 0.99488682
-1.0246289 -0.72495115 -0.095809475 0.99497741
-1.0306543 -0.70994139 -0.095532112 0.99499202
-1.1503906 -0.70994139 -0.10318908 0.99459165
-1.1834081 -0.70995116 -0.10534233 0.99447912
-1.2913769 -0.70995116 -0.11248981 0.99410564
-1.3719629 -0.70993161 -0.11791721 0.99382216
-1.4152637 -0.70994139 -0.12086189 0.99366832
-1.4607617 -0.70994139 -0.12397716 0.99350572
-1.612705 -0.70995116 -0.13450356 0.99295616
-1.7293066 -0.70995116 -0.14269455 0.99252886
-1.7947363 -0.6846289 -0.14662789 0.9923237
-6.2408886 -2.0278027 -0.50090122 0.97401887
-6.2898045 -1.8703125 -0.50089526 0.97401917
-6.3347559 -1.711621 -0.50088978 0.97401941
-6.3946972 -1.4716406 -0.50088239 0.97401971
-6.4990625 -0.90413082 -0.50086945 0.97402048
-6.5196972 -0.74053711 -0.50086683 0.9740206
-6.5284863 -0.6585449 -0.5008657 0.9740206
-6.5486522 -0.41201171 -0.50086302 0.97402066
-6.5568943 -0.24730468 -0.50086188 0.97402084
-6.3307323 -0 -0.50088841 0.97491783
-6.3227539 0.31808594 -0.500889 0.97491777
-6.3128028 0.47688475 -0.50089002 0.97491765
-6.3063083 0.55617183 -0.50089073 0.97491765
-6.2987986 0.63536131 -0.50089151 0.97491771
-6.2903614 0.71447265 -0.50089246 0.97491753
-6.2704492 0.87231445 -0.50089461 0.97491747
-6.2465625 1.0296191 -0.50089729 0.97491741
-6.1870313 1.3421972 -0.50090402 0.97491705
-6.1697068 1.4198437 -0.50090599 0.97491688
-6.1513963 1.4972754 -0.50090808 0.97491682
-6.1320996 1.5744727 -0.50091022 0.97491682
-6.0906835 1.7280859 -0.50091499 0.97491646
-6.0453806 1.8806152 -0.50092024 0.97491628
-6.0213084 1.9564452 -0.50092298 0.9749161
-5.9962888 2.0319824 -0.5009259 0.97491592
-1.7957519 0.71097654 -0.15281044 0.9922803
-1.7292968 0.70995116 -0.14790413 0.99252725
-1.5592675 0.70996094 -0.13555576 0.99314898
-1.5086914 0.70994139 -0.13192512 0.99333197
-1.4607714 0.70994139 -0.12850361 0.99350429
-1.2537988 0.70996094 -0.11400005 0.99423528
-1.2178417 0.70995116 -0.11153385 0.99435967
-1.1833984 0.70996094 -0.10918846 0.99447793
-1.0882128 0.70995116 -0.10280266 0.99480003
-1.0588866 0.70995116 -0.10086796 0.99489766
-1.0239453 0.72445309 -0.099241637 0.99497974
-1.0237597 0.74381834 -0.10012276 0.99493527
-1.0235742 0.76351559 -0.10103527 0.99488926
-1.0233788 0.78359371 -0.10198063 0.99484152
-1.0231934 0.80402344 -0.10295994 0.99479216
-1.022998 0.82486326 -0.10397469 0.99474096
-1.0227832 0.84612304 -0.10502586 0.99468791
-1.0223438 0.88998044 -0.10724396 0.99457604
-1.021875 0.93574214 -0.10962715 0.99445575
-4.3087306 4.1492677 -0.47327602 0.97628391
-4.0936813 4.1454587 -0.46095863 0.97689402
-3.9902928 4.1436229 -0.45514244 0.97718215
-3.8894529 4.1418457 -0.4495419 0.97745973
-3.7932713 4.142539 -0.44440764 0.9777143
-3.6999707 4.144043 -0.43954635 0.9779554
-3.6086719 4.1454587 -0.43485388 0.97818822
-3.2589941 4.1473923 -0.41733024 0.97905785
-3.0917284 4.1448631 -0.40912509 0.97946537
-2.8550293 4.1447754 -0.39820603 0.98000795
-2.8027735 4.1804004 -0.39821216 0.98000753
-2.3693359 4.4411035 -0.39825851 0.98000526
-2.3133788 4.4705763 -0.39826381 0.98000503
-2.257041 4.4993553 -0.39826918 0.98000479
-2.0859375 4.5814257 -0.39828581 0.98000389
-2.0282226 4.6073532 -0.3982915 0.9800036
-1.8532226 4.6807227 -0.39830893 0.98000276
-1.7350585 4.7259474 -0.39832091 0.98000222
-1.6755663 4.7474508 -0.39832702 0.98000187
-1.4528906 4.4715915 -0.37199873 0.98131126
-1.4349999 4.8259473 -0.39835197 0.98000062
-1.3742578 4.8436718 -0.39835837 0.98000038
-1.3133203 4.8606348 -0.39836481 0.98000002
-1.1907812 4.8922753 -0.3983779 0.97999936
-1.0675293 4.9208298 -0.39839119 0.97999859
-0.94353515 4.9462595 -0.39840469 0.97999799
-0.7564941 4.9785547 -0.39842537 0.97999704
-0.69389647 4.9877634 -0.39843234 0.97999662
-0.63116211 4.9961815 -0.39843941 0.97999626
-0.56833982 5.0038085 -0.39844641 0.97999591
-0.37936524 5.0219431 -0.39846793 0.97999483
-0.3162207 5.0263963 -0.39847517 0.97999454
-0.18980469 5.032949 -0.39848983 0.97999376
-0.12655273 5.0350294 -0.39849719 0.9799934
-0.063281246 5.0363083 -0.39850459 0.97999305
0.12659179 5.0354004 -0.39852703 0.97999191
0.31631836 5.0273438 -0.39854977 0.97999078
