# .PCD v0.7 - Point Cloud Data file format
VERSION 0.7
FIELDS x y z intensity
SIZE 4 4 4 4
TYPE F F F F
COUNT 1 1 1 1
WIDTH 1081
HEIGHT 1
VIEWPOINT 0 0 0 1 0 0 0
POINTS 1081
DATA ascii
-0.40577146 -8.0648432 -0.34696174 0.96818703
-0.50736326 -8.0637207 -0.34715939 0.96816915
-0.60906249 -8.0625973 -0.34741402 0.96814626
-0.71099609 -8.0614548 -0.34772289 0.96811843
-0.81308591 -8.0603514 -0.34808642 0.96808547
-1.1208984 -8.0569334 -0.34951815 0.96795648
-1.3276855 -8.0546389 -0.35075638 0.9678449
-1.4316698 -8.0535059 -0.35146162 0.96778119
-1.536123 -8.0523634 -0.35222656 0.96771222
-1.6409961 -8.0511818 -0.35304955 0.96763802
-1.7463866 -8.0500193 -0.35393202 0.96755838
-2.1738183 -8.0453024 -0.35808051 0.96718448
-2.5016601 -8.0416698 -0.36186096 0.96684384
-2.724287 -8.0392189 -0.36471671 0.96658659
-3.1809764 -8.0341597 -0.37127814 0.96599585
-3.5351171 -8.0302639 -0.37699103 0.96548164
-3.6556444 -8.0289259 -0.3790547 0.96529597
-4.0256052 -8.0248337 -0.38575599 0.96469343
-4.2798047 -8.0220213 -0.3906697 0.96425194
-5.0671091 -9.2170553 -0.45192677 0.95876324
-5.1807618 -9.149497 -0.45177245 0.95877719
-5.2935839 -9.0807076 -0.45162642 0.95879036
-5.4055858 -9.0106831 -0.45148632 0.95880288
-4.9890623 -7.8615036 -0.4000634 0.96340805
-5.3791895 -7.6029491 -0.40017053 0.96339846
-5.4746485 -7.5352049 -0.40019676 0.96339625
-5.9388571 -7.1788769 -0.40032423 0.96338481
-6.2935934 -6.873076 -0.40042159 0.9633761
-6.3798633 -6.7938476 -0.40044525 0.9633739
-6.465127 -6.7135739 -0.40046868 0.96337163
-6.6325293 -6.5497165 -0.40051454 0.96336764
-6.7146969 -6.4662108 -0.4005371 0.96336561
-1.0318555 -0.9212988 -0.05943672 0.99447703
-1.0325781 -0.79060543 -0.055877991 0.99480677
-1.0327734 -0.75036132 -0.054850921 0.99490201
-1.0328808 -0.73079097 -0.054364316 0.99494708
-1.0589062 -0.70995116 -0.054777525 0.99490881
-1.1186719 -0.70995116 -0.056929283 0.99470943
-1.3719629 -0.70995116 -0.066374242 0.99383432
-1.4607519 -0.70995116 -0.06978523 0.99351853
-1.5086817 -0.70995116 -0.071643449 0.99334657
-1.5592675 -0.70995116 -0.073615111 0.993164
-1.6126952 -0.70996094 -0.075710565 0.99297011
-1.6692675 -0.70996094 -0.077941515 0.9927637
-1.7292968 -0.70995116 -0.080321237 0.99254358
-1.7843456 -0.68066406 -0.082057573 0.99238306
-1.7842773 -0.65508789 -0.081669688 0.99241894
-10.914297 -3.8521092 -0.49730659 0.95471799
-11.174667 -3.6308789 -0.50485206 0.95404702
-11.219716 -3.4902735 -0.50486428 0.95404577
-11.304356 -3.2073436 -0.50488728 0.95404392
-11.41793 -2.7791796 -0.5049181 0.95404106
-11.452158 -2.6355274 -0.5049274 0.95404029
-11.570829 -2.0569239 -0.50495946 0.95403749
-11.61918 -1.765537 -0.50497246 0.9540363
-11.640576 -1.6194043 -0.50497818 0.95403576
-11.677813 -1.3263965 -0.50498813 0.95403492
-11.693662 -1.1795605 -0.50499237 0.95403457
-11.74498 -0.4429785 -0.50500572 0.95403332
-11.752431 -0.1476953 -0.50500745 0.9540332
-11.03584 -9.7656248e-06 -0.50480992 0.95677263
-11.032314 0.27731445 -0.50480866 0.95677274
-11.021787 0.55447263 -0.50480551 0.95677304
-11.013877 0.69291991 -0.50480312 0.95677334
-10.979746 1.1075293 -0.50479329 0.95677406
-10.948233 1.3830664 -0.50478435 0.95677489
-10.929873 1.5205274 -0.50477916 0.95677531
-10.909795 1.6577344 -0.5047735 0.95677572
-10.783408 2.3393359 -0.50473797 0.95677876
-10.752978 2.4746192 -0.50472939 0.95677948
-10.651455 2.8779688 -0.50470102 0.95678192
-10.614228 3.011533 -0.50469065 0.95678276
-10.534736 3.2771678 -0.50466847 0.95678467
-10.49249 3.4092188 -0.50465673 0.95678556
-10.448554 3.5407128 -0.50464445 0.95678663
-1.7851367 0.6554004 -0.086987458 0.99241436
-1.6692871 0.70994139 -0.082977295 0.9927628
-1.6127245 0.70994139 -0.08060234 0.99296916
-1.4152734 0.70994139 -0.072427101 0.99368
-1.2913965 0.70996094 -0.067410506 0.99411649
-1.2537988 0.70994139 -0.065908961 0.9942472
-1.1834081 0.70996094 -0.063127175 0.99448931
-1.1187011 0.70995116 -0.060607564 0.99470866
-1.0882128 0.70995116 -0.059435386 0.99481076
-1.0321581 0.7302832 -0.057837598 0.99495
-1.0319629 0.76977539 -0.058891408 0.99485815
-1.0316211 0.83182615 -0.060619239 0.9947077
-1.0311035 0.92064452 -0.063230209 0.99448031
-1.030957 0.94406247 -0.063943826 0.9944182
-6.3802438 5.9914451 -0.40036178 0.96556073
-6.1487598 6.2265329 -0.40028757 0.96556687
-5.9895701 6.378252 -0.40023696 0.96557128
-5.7438278 6.5982127 -0.40015957 0.96557772
-5.4899902 6.8086524 -0.40008035 0.9655844
-5.4036231 6.8766503 -0.40005362 0.96558666
-5.049912 7.1375294 -0.39994469 0.96559584
-4.9594727 7.1999021 -0.39991698 0.96559829
-4.8682714 7.2611718 -0.39988917 0.96560055
-4.6835938 7.3801856 -0.39983305 0.96560532
-4.4011521 7.5498338 -0.39974776 0.96561259
-4.0151072 7.7591991 -0.39963213 0.96562231
-3.917002 7.8084664 -0.39960292 0.96562481
-3.8183007 7.8564939 -0.39957359 0.96562725
-3.1878514 8.0515814 -0.39611629 0.96591926
-3.0708885 8.050293 -0.39412397 0.96608782
-2.9550781 8.0490131 -0.39221206 0.96624953
-2.8403904 8.0477343 -0.39037862 0.9664045
-2.7267284 8.0464935 -0.38862637 0.96655285
-2.1724706 8.0403614 -0.3809751 0.9672004
-1.9564941 8.0379591 -0.37841183 0.96741748
-1.6375781 8.0344534 -0.37507233 0.9677003
-1.5324609 8.0333004 -0.37408903 0.96778351
-1.4278418 8.0321388 -0.37317058 0.96786141
-1.2201464 8.0298529 -0.37152132 0.96800107
-1.1169434 8.0287008 -0.37079012 0.96806312
-0.91166991 8.0264254 -0.36950964 0.9681716
-0.70769531 8.0241795 -0.36847079 0.96825963
-0.60609376 8.023056 -0.36804131 0.96829611
-0.30251953 8.0196972 -0.36710212 0.96837568
-0.20159179 8.0185843 -0.36690611 0.96839231
-0.10077148 8.0174799 -0.36676818 0.96840394
-1.953125e-05 8.016367 -0.36668825 0.96841073
0.20143554 8.0141306 -0.36670315 0.96840954
0.30220702 8.0130272 -0.36679617 0.96840155
0.50395507 8.0107908 -0.36715895 0.96837091
0.60503906 8.0096874 -0.36742637 0.96834815
0.80770504 8.007431 -0.36813888 0.96828783
1.0112792 8.0051851 -0.36908898 0.96820736
1.4222461 8.0006447 -0.37170669 0.96798539
1.6301757 7.9983497 -0.37338623 0.96784312
1.9459569 7.994863 -0.37638289 0.96758932
2.1595018 7.9924803 -0.37870681 0.9673925
2.4851756 7.9888964 -0.38270625 0.96705389
2.5953319 7.9876757 -0.38418013 0.96692914
2.8182812 7.9852047 -0.38734689 0.96666116
3.0450878 7.9827051 -0.39081463 0.96636772
3.393369 7.9788671 -0.39661068 0.96587759
3.5016308 7.9542871 -0.39754736 0.9657985
3.6010547 7.9091015 -0.39752007 0.96580088
3.8958006 7.7661619 -0.39743903 0.9658078
3.9928319 7.7160935 -0.39741236 0.96580994
4.0892186 7.6648145 -0.39738587 0.96581209
4.467988 7.4477148 -0.3972818 0.96582097
4.5609374 7.3905272 -0.39725628 0.96582299
4.6531739 7.3321481 -0.39723095 0.96582514
4.7445993 7.2726364 -0.3972058 0.96582741
4.8353224 7.2119823 -0.39718094 0.96582949
4.9252439 7.1502051 -0.39715621 0.96583164
5.0143943 7.0873046 -0.39713171 0.96583372
5.5320215 6.6870604 -0.39698961 0.96584576
5.9393258 6.3247266 -0.39687786 0.96585518
6.0957322 6.1728024 -0.39683494 0.96585882
6.1724997 6.0954003 -0.39681387 0.96586055
6.4696383 5.7763963 -0.39673239 0.9658674
6.681787 5.527627 -0.39667428 0.96587229
6.7503805 5.4429588 -0.39665541 0.96587396
1.2612207 0.94076169 -0.071973376 0.99371946
1.2613672 0.91642576 -0.071317941 0.99377638
1.2616113 0.86901367 -0.070074655 0.99388462
1.2616992 0.84590816 -0.069485091 0.993936
1.2620507 0.77884763 -0.067837216 0.99407929
1.2914159 0.70996094 -0.067410238 0.99411643
1.3307519 0.70995116 -0.068992846 0.99397874
1.415293 0.70995116 -0.072427176 0.99367994
1.4608105 0.70995116 -0.074294239 0.99351752
1.5087402 0.70995116 -0.076272428 0.99334556
1.5593066 0.70995116 -0.078371234 0.99316305
1.6127343 0.70995116 -0.080602489 0.9929691
1.7293359 0.70995116 -0.085510746 0.99254256
1.7931542 0.70995116 -0.08821781 0.99230736
1.8611621 0.70994139 -0.091117248 0.99205554
1.9337597 0.70996094 -0.094228551 0.99178541
2.0207813 0.656582 -0.097191997 0.99152809
10.414355 3.2397168 -0.49889976 0.95726776
10.492061 2.9768457 -0.49887863 0.95726943
10.596182 2.5791407 -0.49885041 0.95727187
10.685312 2.1778319 -0.49882624 0.95727402
10.759404 1.7734765 -0.4988063 0.95727557
10.800342 1.5025097 -0.4987953 0.95727646
10.882373 0.68464839 -0.4987736 0.95727825
10.890049 0.54785156 -0.49877161 0.95727855
10.900331 0.27400389 -0.49876907 0.95727873
10.9029 -0.13703124 -0.49876881 0.95727873
10.900322 -0.27401367 -0.49876967 0.95727873
10.896054 -0.4109863 -0.49877098 0.95727861
10.890098 -0.54786134 -0.49877277 0.95727831
10.882402 -0.68467772 -0.49877506 0.95727813
10.81832 -1.3666797 -0.49879339 0.95727664
10.711816 -2.0433984 -0.49882346 0.95727408
10.685439 -2.1778612 -0.49883085 0.95727354
10.657412 -2.3120019 -0.49883872 0.95727283
10.627676 -2.4457715 -0.49884707 0.95727217
10.563242 -2.7121875 -0.49886507 0.95727068
10.528535 -2.8447754 -0.49887475 0.95726985
2.0207715 -0.656582 -0.097191885 0.99152815
2.0209179 -0.68482423 -0.097605206 0.99149227
2.0210741 -0.71332031 -0.098037757 0.99145472
1.9337401 -0.70996094 -0.094227754 0.99178553
1.7293066 -0.70994139 -0.085510254 0.99254268
1.6693262 -0.70995116 -0.082977027 0.99276263
1.5592968 -0.70995116 -0.078370742 0.99316305
1.5087304 -0.70995116 -0.076271892 0.99334556
1.4608008 -0.70994139 -0.07429371 0.99351758
1.4152832 -0.70995116 -0.072426982 0.99367994
1.3720019 -0.70994139 -0.070662268 0.99383342
1.3307421 -0.70995116 -0.068992235 0.9939788
1.2913965 -0.70995116 -0.067409784 0.99411649
1.2623438 -0.71477538 -0.066356465 0.99420816
1.262246 -0.73582029 -0.066832617 0.99416673
1.2621386 -0.75715816 -0.067325667 0.99412388
1.2619531 -0.80083984 -0.068367116 0.99403316
1.2615039 -0.89250976 -0.070685424 0.9938314
6.8873825 -5.2734179 -0.39679024 0.96586245
6.7533398 -5.4453516 -0.39682731 0.96585923
6.6846676 -5.5300293 -0.39684629 0.9658578
6.5442185 -5.696826 -0.39688519 0.96585453
6.4724412 -5.7788963 -0.396905 0.96585286
6.32583 -5.9403319 -0.39694557 0.9658494
6.2510157 -6.0196872 -0.39696625 0.96584755
6.1752048 -6.0980663 -0.39698723 0.96584582
6.0984082 -6.1755271 -0.39700842 0.96584404
6.0206542 -6.2520213 -0.39702994 0.96584219
5.9419627 -6.3275194 -0.39705169 0.96584028
5.7817087 -6.4755368 -0.39709598 0.96583664
5.7002048 -6.5480762 -0.39711848 0.96583468
5.5344725 -6.6900196 -0.39716429 0.96583086
5.2793455 -6.8950977 -0.39723477 0.96582484
5.1925778 -6.961318 -0.3972587 0.96582288
5.1050096 -7.0264454 -0.3972829 0.96582079
5.0166111 -7.0904684 -0.39730731 0.96581876
4.837461 -7.2151952 -0.39735678 0.96581453
4.7467184 -7.2758689 -0.39738181 0.96581244
4.6551952 -7.3354101 -0.39740705 0.9658103
4.3762498 -7.5071092 -0.39748409 0.9658038
4.0910153 -7.6682224 -0.39756277 0.96579719
3.9945898 -7.7195215 -0.39758942 0.96579504
3.7998631 -7.8185544 -0.39764312 0.96579039
3.5031836 -7.9578414 -0.39772499 0.96578354
3.4031639 -8.0017967 -0.39775261 0.96578115
3.302578 -8.0444822 -0.3977803 0.96577883
2.8591602 -8.1009083 -0.3929632 0.96618629
2.7447166 -8.0996389 -0.39119834 0.96633571
2.6313183 -8.0983887 -0.3895095 0.96647853
2.5188866 -8.0971479 -0.38789633 0.96661496
2.4073339 -8.0959177 -0.38635722 0.9667452
2.2966895 -8.094697 -0.38489211 0.96686924
2.1868165 -8.0934858 -0.38349622 0.96698731
1.8617382 -8.0898829 -0.37972835 0.96730632
1.7547461 -8.0887012 -0.3786093 0.96740115
1.6483495 -8.0875387 -0.37755424 0.96749043
1.5425488 -8.0863667 -0.37656546 0.96757424
1.4372851 -8.0851955 -0.37563998 0.96765256
1.2281933 -8.082881 -0.37398037 0.96779323
1.1242969 -8.081728 -0.37324378 0.96785563
1.0208203 -8.0805855 -0.37256894 0.96791279
0.91765624 -8.0794525 -0.37195519 0.96796477
0.81486326 -8.0783205 -0.37140197 0.96801162
0.71231443 -8.077178 -0.37090987 0.9680534
0.50800782 -8.0749121 -0.37010178 0.96812183
0.10140625 -8.0704298 -0.3691951 0.9681986
-0.10139648 -8.0681934 -0.36909354 0.9682073
-0.30423826 -8.065937 -0.36922336 0.96819627
-0.40577146 -8.0648336 -0.36937621 0.96818322
-0.60906249 -8.0625877 -0.36985764 0.96814245
-0.91539061 -8.0591888 -0.37102294 0.9680438
-1.1208984 -8.0569239 -0.37209857 0.96795267
-1.2241015 -8.0557909 -0.37272665 0.96789938
-1.3276855 -8.0546284 -0.37341586 0.96784103
-1.4316698 -8.0534964 -0.37416777 0.96777731
-1.6409961 -8.0511818 -0.37585714 0.96763414
-1.7463866 -8.0500097 -0.37679794 0.96755451
-1.8523437 -8.0488472 -0.37780216 0.96746933
-1.9588574 -8.0476751 -0.37887368 0.96737874
-2.0660057 -8.0464935 -0.38001025 0.96728247
-2.1738086 -8.0452929 -0.38121325 0.96718061
-2.2823632 -8.0441017 -0.38248512 0.96707284
-2.3916211 -8.0429001 -0.38382629 0.96695924
-2.5016699 -8.0416794 -0.38523895 0.96683979
-2.6125391 -8.0404491 -0.38672218 0.96671426
-2.7242773 -8.0392189 -0.38827822 0.96658254
-2.8369725 -8.0379686 -0.38991073 0.96644455
-3.0652537 -8.035449 -0.39340121 0.96614927
-3.4158397 -8.0315723 -0.39923477 0.96565598
-3.9186327 -7.8117089 -0.39976859 0.96561074
-4.2111325 -7.6599998 -0.39984897 0.96560395
-4.3073435 -7.6070018 -0.3998754 0.96560162
-4.4028711 -7.5527635 -0.39990166 0.96559948
-4.4977341 -7.497334 -0.39992774 0.96559721
-4.6853318 -7.3828712 -0.39997923 0.96559292
-4.8699803 -7.2637205 -0.40002999 0.96558869
-5.2300782 -7.0115914 -0.40012884 0.96558034
-5.3180761 -6.9457421 -0.40015304 0.96557832
-5.4916015 -6.8107028 -0.40020064 0.96557432
-5.5770898 -6.7415524 -0.40022415 0.9655723
-5.6616993 -6.6713376 -0.40024734 0.96557027
-5.8282228 -6.5277047 -0.40029308 0.9655664
-5.9101171 -6.4542966 -0.40031555 0.96556455
-6.0711036 -6.3044238 -0.40035972 0.96556091
-6.1502051 -6.2279882 -0.40038139 0.96555895
-6.2283301 -6.1505566 -0.40040281 0.96555704
-6.3054295 -6.0721092 -0.400424 0.96555537
-1.0309668 -0.9440527 -0.063944012 0.9944182
-1.0312402 -0.89771485 -0.062541999 0.99454027
-1.0313672 -0.87529296 -0.061877821 0.99459809
-1.0314941 -0.85334957 -0.061237141 0.99465382
-1.0317383 -0.81073242 -0.060022812 0.99475962
-1.0318652 -0.79006833 -0.05944702 0.99480969
-1.0319629 -0.76976562 -0.058891524 0.99485815
-1.0321679 -0.7302832 -0.057837561 0.99494994
-1.0588866 -0.70994139 -0.058316421 0.99490827
-1.0882226 -0.70995116 -0.059435003 0.99481076
-1.1186913 -0.70996094 -0.060607184 0.99470866
-1.1503906 -0.70996094 -0.061836395 0.99460167
-1.2178417 -0.70994139 -0.064482532 0.99437135
-1.2537891 -0.70994139 -0.065908581 0.99424726
-1.3307226 -0.70994139 -0.068992309 0.99397886
-1.4152539 -0.70994139 -0.072426908 0.99368006
-1.5592675 -0.70995116 -0.078371048 0.99316317
-1.6126952 -0.70996094 -0.080601916 0.99296927
-1.6692675 -0.70996094 -0.082976833 0.99276286
-1.7292968 -0.70995116 -0.085510291 0.99254268
-1.7853026 -0.70685548 -0.087832294 0.99234086
-1.7852148 -0.68100584 -0.087400705 0.99237841
-1.7851367 -0.6554004 -0.086987607 0.99241436
-10.403154 -3.671699 -0.50463963 0.95678699
-10.575498 -3.1446581 -0.50468653 0.956783
-10.651582 -2.8780272 -0.50470722 0.95678139
-10.720966 -2.6095409 -0.50472599 0.95677972
-10.753115 -2.4746583 -0.50473469 0.95677894
-10.812236 -2.2037108 -0.50475073 0.95677763
-10.839238 -2.0677049 -0.504758 0.95677698
-10.888057 -1.7947069 -0.50477117 0.9567759
-10.92996 -1.5205566 -0.50478238 0.95677495
-10.979804 -1.1075391 -0.50479573 0.95677382
-11.004307 -0.83127928 -0.50480217 0.95677328
-11.013926 -0.69292969 -0.50480467 0.95677316
-11.021807 -0.55449218 -0.50480664 0.95677298
-11.027929 -0.41593748 -0.50480825 0.95677286
-11.032324 -0.27733397 -0.50480932 0.95677274
-11.034912 -0.13867188 -0.50480986 0.9567728
-10.400663 -0 -0.50463504 0.9592039
-10.399824 0.13070312 -0.50463468 0.95920396
-10.397373 0.26135743 -0.50463384 0.95920396
-10.393242 0.39199218 -0.50463259 0.95920402
-10.38747 0.52256835 -0.50463086 0.95920414
-10.370976 0.78342772 -0.50462604 0.95920444
-10.333847 1.1737305 -0.50461537 0.95920533
-10.300888 1.4330175 -0.50460607 0.9592061
-10.261415 1.691416 -0.50459492 0.95920694
-10.239209 1.8201953 -0.50458866 0.95920748
-10.189941 2.0768652 -0.50457478 0.95920861
-10.134199 2.332207 -0.50455922 0.95920992
-10.038565 2.7123828 -0.50453246 0.95921206
-9.8888178 3.2130663 -0.50449067 0.95921522
-9.8474607 3.3370018 -0.50447917 0.95921606
-1.7859961 0.65570313 -0.092311554 0.99240977
-1.7860742 0.68130857 -0.092750587 0.99237382
-1.786162 0.7071777 -0.093208693 0.99233621
-1.7293261 0.70994139 -0.090700798 0.99254161
-1.4607714 0.70994139 -0.078803711 0.99351686
-1.3719823 0.70995116 -0.074952006 0.99383271
-1.2913867 0.70995116 -0.071501769 0.99411577
-1.2537988 0.70994139 -0.069909438 0.99424648
-1.1503906 0.70994139 -0.065590322 0.99460101
-1.1187011 0.70995116 -0.064286307 0.994708
-1.0882128 0.70995116 -0.063042872 0.9948101
-1.0588964 0.70995116 -0.061856344 0.99490756
-1.0316015 0.71057618 -0.060777891 0.99499607
-1.0304785 0.89706051 -0.066289976 0.99454355
-6.0138474 5.6473827 -0.40027541 0.96750176
-5.8693848 5.7960544 -0.40022907 0.96750534
-5.7211719 5.9410157 -0.40018183 0.96750921
-5.5693946 6.0821581 -0.40013385 0.96751314
-5.4141016 6.2194529 -0.40008506 0.96751708
-5.2554393 6.3527637 -0.40003547 0.96752101
-5.174912 6.4179101 -0.40001041 0.96752292
-5.0934958 6.4820309 -0.39998519 0.96752495
-5.0113282 6.5450878 -0.39995974 0.96752703
-4.9283786 6.6071191 -0.39993414 0.96752906
-4.8446579 6.6681151 -0.39990845 0.96753109
-4.6749606 6.7868848 -0.39985645 0.9675352
-4.589004 6.8446383 -0.39983019 0.96753728
-4.5023341 6.9013085 -0.39980385 0.96753937
-4.4149413 6.9568653 -0.39977729 0.96754164
-4.3269138 7.0113473 -0.39975065 0.9675436
-4.2381835 7.0646973 -0.39972386 0.96754575
-4.1487694 7.1168747 -0.39969692 0.96754807
-3.8767869 7.266748 -0.39961535 0.96755445
-3.7849121 7.3143454 -0.39958793 0.96755677
-3.5994236 7.4061618 -0.39953277 0.96756101
-3.50583 7.450273 -0.39950505 0.96756333
-3.0300488 7.6530371 -0.39936492 0.96757442
-2.5426171 7.8254004 -0.39922294 0.9675858
-2.3448143 7.8857031 -0.39916575 0.96759039
-2.2453809 7.9139547 -0.39913711 0.96759272
-2.1456151 7.9409957 -0.39910838 0.96759492
-2.0454979 7.9667382 -0.39907965 0.96759731
-1.6375684 8.0344534 -0.39783928 0.96769613
-1.5324512 8.0332813 -0.39679527 0.96777946
-1.1169531 8.0286913 -0.39329696 0.96805906
-1.0141406 8.0275679 -0.39258537 0.96811581
-0.91166991 8.0264254 -0.39193976 0.96816754
-9.7656248e-06 8.0163574 -0.38894713 0.96840668
0.20144531 8.0141306 -0.38896117 0.96840549
0.3022168 8.0130177 -0.38906142 0.96839756
0.60504884 8.0096779 -0.38972914 0.96834409
0.7062695 8.0085545 -0.39007491 0.96831638
0.80771482 8.0074215 -0.39048406 0.96828377
1.1134765 8.0040627 -0.39208901 0.96815544
1.2160254 8.0029202 -0.39275137 0.96810257
1.3189257 8.0017872 -0.39347744 0.96804452
1.5259668 7.9995017 -0.39512748 0.96791279
1.7348828 7.9971871 -0.39704105 0.96775985
2.1392674 7.91749 -0.39792705 0.96768928
2.238457 7.8894529 -0.39790091 0.96769142
2.5337207 7.7979488 -0.39782339 0.96769762
2.6312792 7.7648144 -0.39778724 0.96770042
2.7284472 7.7305956 -0.39776054 0.96770269
2.9214842 7.6585937 -0.39770743 0.96770674
3.0172949 7.6207519 -0.39768112 0.96770895
3.1126072 7.581738 -0.39765492 0.96771103
3.3017383 7.5001559 -0.39760292 0.96771514
3.4886913 7.4138474 -0.39755154 0.96771932
3.6734471 7.3229003 -0.39750075 0.96772331
3.7649314 7.2756934 -0.39747563 0.9677254
3.85583 7.2273631 -0.39745063 0.9677273
4.1247363 7.0756054 -0.39737675 0.96773314
4.3876853 6.9138474 -0.39730448 0.96773893
4.4739356 6.8577538 -0.39728081 0.96774089
4.5595117 6.8005857 -0.3972573 0.96774274
4.7284079 6.6830859 -0.39721093 0.96774644
4.8942966 6.5613961 -0.39716536 0.96775007
4.9760547 6.4990039 -0.39714295 0.96775192
5.0570898 6.4356055 -0.39712065 0.96775359
5.1372461 6.3711915 -0.39709869 0.96775544
5.2951756 6.2394042 -0.3970553 0.96775883
5.449707 6.1037107 -0.39701289 0.96776229
5.8207226 5.7480078 -0.39691111 0.96777034
5.9627442 5.5993552 -0.39687216 0.9677735
6.0323434 5.5237303 -0.39685309 0.96777499
6.3010645 5.2126756 -0.39677939 0.96778101
1.2605078 0.91580075 -0.075595737 0.99377984
1.2607715 0.86842769 -0.074278675 0.9938879
1.2610351 0.82265621 -0.073051527 0.99398845
1.2613477 0.75668943 -0.071366921 0.99412674
1.3307617 0.70995116 -0.07318069 0.9939779
1.4608105 0.70995116 -0.078803897 0.99351668
1.5087402 0.70995116 -0.080901869 0.99334466
1.5593066 0.70995116 -0.083128393 0.99316216
1.6127343 0.70995116 -0.085494839 0.9929682
1.7293359 0.70995116 -0.090701021 0.99254155
1.7931542 0.70995116 -0.093572654 0.99230635
1.9337597 0.70996094 -0.099948078 0.99178439
2.0228906 0.65725583 -0.10320034 0.9915182
9.8215818 3.0553222 -0.49906316 0.95964509
9.8590231 2.9316015 -0.499053 0.95964581
9.8948927 2.8074219 -0.49904326 0.95964658
9.9292183 2.6828125 -0.49903393 0.95964724
9.9619722 2.5577929 -0.49902502 0.95964795
9.993144 2.4323633 -0.49901661 0.95964867
10.022763 2.3065526 -0.49900854 0.95964932
10.077236 2.0538867 -0.49899381 0.95965058
10.102129 1.9270703 -0.49898711 0.95965105
10.147109 1.6725488 -0.49897501 0.95965207
10.167207 1.5448828 -0.49896961 0.95965254
10.185742 1.4170117 -0.49896464 0.95965278
10.23163 1.0320703 -0.49895239 0.95965391
10.243779 0.90341794 -0.4989492 0.95965391
10.280087 0.25840819 -0.49893987 0.95965469
10.28331 -9.7656248e-06 -0.49893928 0.95965481
10.270381 -0.51668942 -0.49894339 0.95965457
10.263124 -0.64571285 -0.49894553 0.95965439
10.254316 -0.77462888 -0.4989481 0.95965397
10.202685 -1.288916 -0.49896285 0.95965302
10.185781 -1.4170312 -0.49896765 0.95965266
10.125488 -1.7999804 -0.49898466 0.95965129
10.102236 -1.9270996 -0.49899119 0.95965064
9.9932613 -2.4324121 -0.49902174 0.95964819
9.9292965 -2.6828516 -0.49903959 0.95964694
2.023037 -0.68556637 -0.10363957 0.99148226
1.7931249 -0.70994139 -0.093571849 0.99230647
1.7293066 -0.70994139 -0.090700299 0.99254173
1.6693066 -0.70996094 -0.088013418 0.99276173
1.6127245 -0.70996094 -0.085494153 0.9929682
1.4608008 -0.70994139 -0.078803286 0.99351674
1.3720019 -0.70994139 -0.07495144 0.99383265
1.2615625 -0.71432614 -0.070340119 0.99421096
1.2614551 -0.73535156 -0.070844576 0.99416965
1.2613379 -0.7566992 -0.071366958 0.99412674
1.26125 -0.7783398 -0.071908683 0.99408227
1.2611231 -0.80034178 -0.072470054 0.99403626
1.2610351 -0.82266599 -0.073051602 0.99398845
1.2608984 -0.84537107 -0.073654324 0.99393904
1.2606542 -0.89191407 -0.074925609 0.99383473
1.2605176 -0.9158203 -0.075595781 0.99377978
6.4950094 -4.9729881 -0.39689794 0.96777147
6.4322948 -5.0544333 -0.39691532 0.96777004
6.3685741 -5.1350975 -0.39693293 0.96776855
6.3037891 -5.2149611 -0.39695087 0.96776724
6.1713476 -5.3722067 -0.39698753 0.96776426
6.1036229 -5.4495897 -0.39700621 0.96776283
5.965332 -5.6017966 -0.39704448 0.96775973
5.8232422 -5.7505274 -0.39708376 0.96775657
5.7508006 -5.8235154 -0.39710379 0.96775508
5.6774802 -5.8956151 -0.39712405 0.96775341
5.3752341 -6.174746 -0.39720759 0.96774662
5.2188964 -6.3085546 -0.39725077 0.96774328
5.1395116 -6.3739939 -0.39727271 0.96774149
5.0592966 -6.4384375 -0.39729488 0.9677397
4.8138185 -6.6256933 -0.39736265 0.96773434
4.6463771 -6.7453318 -0.3974089 0.96773058
4.3896189 -6.916904 -0.39747977 0.96772492
4.3026171 -6.9719434 -0.39750379 0.96772301
4.2149024 -7.0258789 -0.39752799 0.9677211
4.126543 -7.0787206 -0.3975524 0.9677192
4.0375195 -7.1304393 -0.39757696 0.96771729
3.8575389 -7.2305856 -0.39762664 0.96771318
3.6750586 -7.3261423 -0.397677 0.9677093
3.5829589 -7.3722458 -0.3977024 0.96770716
3.4902344 -7.4171386 -0.39772797 0.96770525
3.3031933 -7.5034862 -0.39777958 0.96770102
3.0186131 -7.6241698 -0.39785808 0.96769476
2.8264649 -7.6986227 -0.39791107 0.96769059
2.7296875 -7.7340722 -0.39793777 0.96768832
2.6324511 -7.768281 -0.39796454 0.96768624
2.4367187 -7.8330274 -0.39801851 0.967682
2.239414 -7.8928809 -0.39807293 0.96767759
2.1402147 -7.9209571 -0.39810029 0.96767533
1.9407421 -7.97332 -0.39815524 0.96767104
1.8405273 -7.9976172 -0.3981829 0.96766889
1.74 -8.0206928 -0.39821059 0.96766663
1.6483495 -8.0875387 -0.40047181 0.96748626
1.5425488 -8.0863667 -0.39942187 0.96757007
1.4372851 -8.0851955 -0.39844024 0.96764845
1.3325195 -8.084033 -0.39752626 0.9677214
1.2281835 -8.0828905 -0.39667994 0.96778905
0.50800782 -8.0749311 -0.39256683 0.96811765
0.40616211 -8.0738087 -0.39223307 0.9681443
0.20289062 -8.0715523 -0.39175242 0.96818274
0.10140625 -8.0704393 -0.39160517 0.96819448
-0.30425781 -8.0659475 -0.39163512 0.96819216
-0.50735348 -8.0637112 -0.39202157 0.96816123
-0.81308591 -8.0603418 -0.39306837 0.96807754
-0.91540039 -8.0591993 -0.39354309 0.96803963
-1.4316796 -8.0534964 -0.39687964 0.9677732
-1.6410155 -8.0511913 -0.39867157 0.96762991
-1.7464062 -8.0500193 -0.39966854 0.96755028
-1.9588574 -8.0476751 -0.40186915 0.9673745
-2.1465528 -7.9444137 -0.39928073 0.96758121
-2.3458202 -7.8890624 -0.39933553 0.9675768
-2.4449217 -7.8594823 -0.39936283 0.96757466
-2.7399805 -7.7633395 -0.39944395 0.96756816
-2.8375096 -7.7288084 -0.39947078 0.96756601
-3.1274219 -7.6179004 -0.3995505 0.96755958
-3.2231152 -7.578486 -0.39957678 0.96755755
-3.5071483 -7.4530954 -0.39965487 0.96755123
-3.6007519 -7.408916 -0.39968061 0.9675492
-3.6937988 -7.3635254 -0.39970618 0.96754724
-3.7863085 -7.3170114 -0.39973158 0.96754509
-3.8781738 -7.2692966 -0.39975688 0.96754318
-4.0601563 -7.1704588 -0.39980689 0.96753907
-4.1501756 -7.1193261 -0.39983162 0.96753711
-4.3283005 -7.0136132 -0.39988056 0.96753329
-4.4163866 -6.9591112 -0.39990473 0.96753126
-4.5904102 -6.8467283 -0.39995253 0.96752751
-4.6763477 -6.7889061 -0.39997616 0.96752566
-4.7615819 -6.7300096 -0.39999953 0.96752375
-4.9297462 -6.608984 -0.40004572 0.96752012
-5.0948825 -6.4837499 -0.40009108 0.96751642
-5.3365135 -6.2881737 -0.40015739 0.96751112
-5.4153709 -6.2209277 -0.40017906 0.96750951
-5.4934373 -6.1527438 -0.40020049 0.96750766
-5.646904 -6.0133495 -0.4002426 0.96750444
-5.7223239 -5.9422364 -0.40026328 0.96750271
-5.7968359 -5.8701563 -0.40028372 0.9675011
-5.8704395 -5.7971387 -0.4003039 0.96749949
-1.030332 -0.91994137 -0.067019001 0.99448371
-1.030498 -0.89707029 -0.066290013 0.99454349
-1.0306348 -0.87465817 -0.065586925 0.99460125
-1.0312793 -0.76925778 -0.062423553 0.99486089
-1.0313867 -0.74933594 -0.061855696 0.99490756
-1.0314844 -0.72979492 -0.061307143 0.99495262
-1.0882226 -0.70995116 -0.063042566 0.9948101
-1.1503906 -0.70996094 -0.065589905 0.99460095
-1.2178417 -0.70994139 -0.068396568 0.99437064
-1.2913672 -0.70995116 -0.071501613 0.99411583
-1.3307226 -0.70995116 -0.073179968 0.99397808
-1.4152539 -0.70994139 -0.076823041 0.99367929
-1.4607519 -0.70995116 -0.078803174 0.99351692
-1.5592675 -0.70995116 -0.083127975 0.99316227
-1.6692675 -0.70996094 -0.088013455 0.99276191
-1.7860742 -0.68133789 -0.092750356 0.99237376
-9.9287395 -3.0886621 -0.50450838 0.95921391
-9.9670019 -2.9637303 -0.50451881 0.95921296
-10.038701 -2.7124317 -0.50453824 0.95921147
-10.072187 -2.5861132 -0.50454736 0.95921069
-10.104053 -2.4593749 -0.504556 0.9592101
-10.134326 -2.3322558 -0.50456423 0.95920944
-10.162988 -2.2047558 -0.50457191 0.95920879
-10.190039 -2.0769141 -0.50457925 0.95920825
-10.261475 -1.6914355 -0.50459856 0.9592067
-10.34788 -1.0438086 -0.50462162 0.95920497
-10.370976 -0.78344727 -0.5046277 0.95920444
-10.380058 -0.65304685 -0.50463009 0.95920426
-10.393232 -0.39199218 -0.50463343 0.95920408
-10.397363 -0.26137695 -0.50463444 0.95920396
-9.8345509 -0 -0.50447917 0.96137577
-9.8274994 0.37066406 -0.50447679 0.96137601
-9.8150196 0.61750001 -0.50447309 0.96137625
-9.7963181 0.86395508 -0.50446767 0.96137655
-9.7845993 0.98698241 -0.50446433 0.96137691
-9.7401857 1.3550292 -0.50445175 0.96137792
-9.7028608 1.5993457 -0.5044412 0.96137869
-9.6818848 1.7211132 -0.50443524 0.96137917
-9.6353321 1.9638281 -0.50442219 0.96138012
-9.6097555 2.0847363 -0.50441504 0.96138066
-9.5540524 2.3254883 -0.50439942 0.96138173
-9.5239162 2.4453125 -0.50439101 0.96138239
-9.4244337 2.8023729 -0.50436324 0.96138459
-9.3115425 3.1554101 -0.50433177 0.96138692
-1.7868457 0.65601563 -0.097642519 0.99240512
-1.7869922 0.70752931 -0.098591685 0.99233162
-1.6127245 0.70994139 -0.090388335 0.99296731
-1.3307129 0.70994139 -0.077369459 0.99397731
-1.2537891 0.70994139 -0.073911287 0.99424571
-1.1834081 0.70996094 -0.070791662 0.99448782
-1.0882324 0.70994139 -0.066651575 0.99480933
-1.0301856 0.83066404 -0.067883946 0.9947136
-1.0300293 0.85214841 -0.068575092 0.99465996
-1.0299023 0.87404293 -0.069291301 0.99460435
-1.0297363 0.89641601 -0.070033953 0.99454671
-5.5505466 5.4812107 -0.40015474 0.96923888
-5.4809179 5.5502343 -0.40013254 0.96924055
-5.3390818 5.685576 -0.40008754 0.969244
-5.1939549 5.8172851 -0.40004176 0.9692474
-5.0455465 5.9452829 -0.39999527 0.96925092
-4.9701266 6.0078712 -0.39997172 0.96925271
-4.8939548 6.0694823 -0.39994803 0.96925455
-4.5817184 6.3061814 -0.39985159 0.96926183
-4.5018358 6.3628907 -0.39982706 0.96926361
-4.4212599 6.4185643 -0.39980242 0.96926546
-4.0921288 6.6309376 -0.3997024 0.96927309
-3.923701 6.7308102 -0.39965156 0.96927696
-3.5796483 6.917666 -0.39954853 0.96928477
-3.3157129 7.0462985 -0.39947012 0.96929067
-3.1371973 7.1264744 -0.39941737 0.96929461
-3.0471971 7.164834 -0.39939085 0.96929669
-2.9567285 7.2020602 -0.39936432 0.96929872
-2.8657908 7.2381735 -0.39933762 0.96930075
-2.3114746 7.4304786 -0.39917633 0.96931297
-2.2177734 7.4584274 -0.39914924 0.96931505
-1.8397363 7.5583887 -0.39904061 0.96932322
-1.7444726 7.58041 -0.39901337 0.96932524
-1.6489745 7.6012106 -0.39898613 0.96932727
-1.5532129 7.6208005 -0.3989588 0.96932942
-0.58545899 7.7500877 -0.39868617 0.96934998
-0.39046875 7.7612891 -0.3986319 0.96935409
-0.29286131 7.7650585 -0.39860481 0.96935618
-0.19526367 7.7676072 -0.39857772 0.96935815
0.097626954 7.7678709 -0.39849693 0.96936429
0.29276368 7.7619042 -0.39844334 0.9693684
0.39027342 7.7571092 -0.39841664 0.96937037
0.58500975 7.7438278 -0.3983635 0.96937436
0.77929688 7.725625 -0.39831066 0.96937847
0.87624997 7.714736 -0.39828438 0.96938038
0.97309566 7.7025976 -0.39825815 0.96938241
1.2624609 7.6589746 -0.39818022 0.96938819
1.3585058 7.6419921 -0.39815444 0.96939021
1.4543359 7.6238184 -0.39812881 0.96939218
1.5499414 7.6044626 -0.39810324 0.96939409
1.6452637 7.5838962 -0.39807785 0.96939605
1.7403222 7.5621481 -0.3980526 0.9693979
1.9295605 7.5150681 -0.39800239 0.96940178
2.023711 7.4897656 -0.3979775 0.96940362
2.1175389 7.4632711 -0.3979528 0.96940553
2.2110059 7.4356346 -0.39792818 0.96940732
2.3041503 7.4067869 -0.39790374 0.96940923
2.580996 7.3128028 -0.39780158 0.96941698
2.6725097 7.2793455 -0.3977764 0.96941888
2.9444139 7.1720996 -0.39770165 0.96942449
3.034121 7.1340818 -0.397677 0.96942639
3.123369 7.0949707 -0.39765248 0.96942818
3.3002636 7.0133691 -0.39760384 0.96943188
3.4750488 6.9273925 -0.3975558 0.96943551
3.5616014 6.8827538 -0.39753199 0.96943736
3.6475878 6.8370605 -0.39750838 0.96943909
3.7329979 6.7902732 -0.3974849 0.96944094
3.8178124 6.7424316 -0.39746162 0.96944267
3.9855957 6.6436033 -0.39741549 0.96944612
4.1508102 6.5405955 -0.39737013 0.96944958
4.2324314 6.4875584 -0.39734772 0.96945125
4.3936329 6.3784375 -0.39730343 0.96945459
4.552031 6.2653122 -0.39725992 0.96945798
4.6301465 6.2072949 -0.39723846 0.96945953
4.7841697 6.0883398 -0.3971962 0.96946269
4.8600292 6.0274024 -0.39717537 0.96946436
4.9351463 5.9655466 -0.39715475 0.96946591
5.0094628 5.9027634 -0.39713436 0.9694674
5.0830078 5.8390722 -0.39711419 0.96946883
5.1556931 5.7744336 -0.39709422 0.96947044
5.2275977 5.7088962 -0.39707449 0.96947193
5.4382715 5.5070114 -0.3970167 0.96947628
5.5067773 5.4379883 -0.3969979 0.96947771
5.7070312 5.2258396 -0.39694297 0.96948189
5.8360353 5.0803223 -0.3969076 0.96948457
5.8991599 5.0063767 -0.39689031 0.96948588
5.9613476 4.9316306 -0.39687324 0.96948719
1.2596387 0.91517574 -0.079868808 0.99378324
1.259795 0.89129883 -0.079161301 0.99383813
1.2599413 0.86786133 -0.078478433 0.99389106
1.260205 0.82212889 -0.07718277 0.99399155
1.2603027 0.79980469 -0.076568753 0.9940393
1.2604198 0.77783203 -0.075975992 0.99408531
1.260752 0.71385741 -0.074319877 0.99421388
1.2914257 0.70995116 -0.075594746 0.99411482
1.3719823 0.70994139 -0.079242095 0.99383187
1.415293 0.70994139 -0.081220813 0.99367827
1.4608105 0.70995116 -0.083314553 0.99351579
1.5087402 0.70995116 -0.085532911 0.99334377
1.5593066 0.70995116 -0.087886848 0.9931612
1.7293359 0.70995116 -0.095893055 0.99254054
1.7931542 0.70995116 -0.09892872 0.99230528
1.8611621 0.70994139 -0.10217987 0.99205339
2.0242188 0.71443355 -0.11011264 0.99143916
2.0242383 0.68594724 -0.10963523 0.99147606
9.2926073 2.8907518 -0.49920902 0.96177131
9.3619232 2.6562304 -0.49919018 0.96177286
9.3944044 2.5383203 -0.49918136 0.96177346
9.4549217 2.301367 -0.49916494 0.96177471
9.4829292 2.1823242 -0.49915737 0.96177536
9.5094919 2.0629687 -0.49915019 0.96177578
9.5801172 1.7030078 -0.49913111 0.96177727
9.6371975 1.3406934 -0.49911579 0.9617784
9.6531734 1.2194824 -0.4991115 0.96177882
9.680644 0.97648436 -0.49910417 0.9617793
9.6921186 0.85476559 -0.49910116 0.96177948
9.7020311 0.73288083 -0.49909857 0.96177971
9.7287884 -0.12226562 -0.49909213 0.96178013
9.7226658 -0.36671874 -0.49909407 0.96178007
9.7173433 -0.48887694 -0.49909568 0.96177983
9.7104397 -0.6109277 -0.49909768 0.96177983
9.7020502 -0.73291993 -0.49910009 0.96177959
9.6806927 -0.97651362 -0.49910629 0.96177912
9.5581446 -1.8233105 -0.49914092 0.96177649
9.5346088 -1.9433105 -0.4991475 0.96177602
9.5095701 -2.0629981 -0.49915454 0.96177548
9.4550295 -2.3013964 -0.49916983 0.96177423
9.3945112 -2.5383496 -0.49918672 0.96177304
9.2926855 -2.8908007 -0.49921516 0.96177095
2.024209 -0.71444333 -0.1101125 0.99143922
1.861123 -0.70995116 -0.10217888 0.99205351
1.7931249 -0.70994139 -0.09892799 0.9923054
1.6693066 -0.70996094 -0.09305118 0.99276078
1.6127245 -0.70996094 -0.090387799 0.99296725
1.5087304 -0.70995116 -0.085531995 0.99334377
1.4608008 -0.70994139 -0.083313785 0.99351585
1.3720019 -0.70994139 -0.079241522 0.99383175
1.3307519 -0.70996094 -0.077368848 0.99397713
1.260664 -0.73488277 -0.074852213 0.99417251
1.2604394 -0.77784181 -0.075975835 0.99408525
1.260205 -0.82211912 -0.077182844 0.99399155
1.2600683 -0.84481442 -0.077819139 0.9939422
1.2598046 -0.89131832 -0.079161376 0.99383801
1.2596582 -0.91518551 -0.079869002 0.99378318
1.2595215 -0.93950194 -0.080602035 0.99372619
6.0855174 -4.7819238 -0.39701054 0.9694767
6.0251951 -4.8582325 -0.39702719 0.96947545
5.9638963 -4.9337692 -0.39704412 0.96947426
5.8385544 -5.0825391 -0.39707884 0.96947157
5.7094922 -5.2281151 -0.39711455 0.96946889
5.6436133 -5.2996874 -0.39713275 0.96946752
5.5768065 -5.3704491 -0.3971512 0.96946615
5.5091696 -5.4403515 -0.39716992 0.96946466
5.4406152 -5.5094042 -0.39718887 0.96946329
5.3009667 -5.6449509 -0.39722747 0.96946031
5.0852146 -5.8416014 -0.3972871 0.96945578
5.0116405 -5.9053321 -0.39730743 0.96945435
4.8621678 -6.0300684 -0.3973487 0.96945113
4.7095995 -6.1509957 -0.39739084 0.96944791
4.6321678 -6.21 -0.39741224 0.96944642
4.5540233 -6.2680759 -0.39743382 0.96944475
4.4751658 -6.3251562 -0.3974556 0.96944302
4.3152637 -6.4363184 -0.39749977 0.96943974
4.2342772 -6.4904199 -0.39752212 0.96943802
4.1526365 -6.5434861 -0.39754462 0.96943629
3.9873242 -6.646533 -0.39759025 0.96943289
3.8194921 -6.74542 -0.39763659 0.96942937
3.7346485 -6.7932811 -0.39765999 0.96942759
3.6491992 -6.8400683 -0.39768359 0.96942586
3.5631835 -6.8858008 -0.39770731 0.96942401
3.3894043 -6.9740233 -0.39775527 0.96942037
2.8555176 -7.2121873 -0.39790252 0.96940923
2.5821288 -7.3160543 -0.39797795 0.96940362
2.4901659 -7.3483982 -0.39800331 0.96940166
2.3977928 -7.3796091 -0.39802879 0.96939963
2.2118554 -7.4384766 -0.39808005 0.96939582
2.024492 -7.4926953 -0.39813167 0.96939188
1.930293 -7.5180273 -0.39815766 0.96938992
1.8358008 -7.5421972 -0.3981837 0.96938789
1.7409766 -7.5651464 -0.39820984 0.96938604
1.2629688 -7.6620798 -0.39834157 0.96937597
1.0701562 -7.6924219 -0.3983947 0.96937197
0.97346675 -7.705781 -0.39842132 0.96936995
0.77962887 -7.7288475 -0.39847472 0.96936589
0.48785156 -7.7542868 -0.3985551 0.96935987
0.39041016 -7.7603416 -0.39858195 0.96935779
0.29290038 -7.7651658 -0.3986088 0.96935576
0.09765625 -7.7711229 -0.39866257 0.96935165
1.953125e-05 -7.7722559 -0.39868948 0.96934962
-0.09765625 -7.7721581 -0.39871636 0.96934766
-0.29298827 -7.7683201 -0.39877012 0.96934348
-0.39060545 -7.7645211 -0.39879704 0.96934158
-0.68312496 -7.7458496 -0.39887753 0.96933544
-0.78046876 -7.7371578 -0.39890432 0.96933347
-0.87765622 -7.7272654 -0.39893112 0.96933144
-0.9747656 -7.7161422 -0.39895782 0.96932942
-1.1685351 -7.6902537 -0.39901114 0.9693253
-1.457832 -7.6422653 -0.39909077 0.96931928
-1.5538671 -7.6238279 -0.3991172 0.96931738
-1.649668 -7.6042089 -0.39914355 0.96931535
-1.7451855 -7.5833592 -0.39916983 0.96931344
-1.840459 -7.561357 -0.39919609 0.96931136
-2.0301464 -7.513701 -0.39924824 0.96930742
-2.1245606 -7.4880662 -0.3992742 0.96930552
-2.2186327 -7.4612889 -0.39930007 0.96930343
-2.49875 -7.3737888 -0.39937714 0.96929759
-2.5913768 -7.3422656 -0.39940262 0.96929574
-2.8668065 -7.2407517 -0.39947835 0.96928996
-3.3168457 -7.0486622 -0.39960206 0.96928048
-3.5807812 -6.9198532 -0.39967459 0.96927524
-3.6676562 -6.8747363 -0.39969847 0.96927339
-3.7539744 -6.8285055 -0.39972222 0.9692716
-3.8397264 -6.7812109 -0.39974579 0.96926975
-3.9248631 -6.7328124 -0.39976913 0.96926802
-4.7404199 -6.1912694 -0.39999315 0.96925104
-4.8180957 -6.1315427 -0.40001449 0.96924943
-5.1949511 -5.818418 -0.40011793 0.96924156
-5.2679005 -5.7529588 -0.40013793 0.96924013
-5.3400488 -5.6865821 -0.40015772 0.96923864
-5.4113474 -5.6193161 -0.4001773 0.96923709
-5.4818068 -5.5511422 -0.40019661 0.9692356
-5.6200976 -5.4121189 -0.40023455 0.96923286
-1.0294336 -0.94264644 -0.071601793 0.994425
-1.0297558 -0.89641601 -0.070034027 0.99454665
-1.0298926 -0.87404293 -0.069291495 0.99460435
-1.0301758 -0.83066404 -0.067883946 0.99471366
-1.0304297 -0.78898436 -0.06657318 0.99481547
-1.0305566 -0.76873046 -0.065951802 0.99486375
-1.0308007 -0.72931641 -0.064773023 0.99495524
-1.0309082 -0.71010739 -0.064214282 0.99499875
-1.0588866 -0.70993161 -0.065396801 0.9949069
-1.0882226 -0.70995116 -0.066651188 0.99480939
-1.1186913 -0.70996094 -0.067965582 0.99470723
-1.1503906 -0.70996094 -0.069344252 0.99460018
-1.1834179 -0.70994139 -0.070791245 0.99448788
-1.2537793 -0.70994139 -0.073910676 0.99424571
-1.2913672 -0.70995116 -0.075594328 0.994115
-1.3719531 -0.70995116 -0.079241678 0.99383193
-1.4152539 -0.70994139 -0.081220396 0.99367839
-1.4607519 -0.70995116 -0.083313905 0.99351603
-1.5592675 -0.70995116 -0.087886274 0.99316132
-1.6692675 -0.70996094 -0.093051448 0.9927609
-1.7292968 -0.70995116 -0.095892295 0.99254072
-1.786875 -0.65602535 -0.097642705 0.992405
-9.3116693 -3.1554687 -0.5043385 0.96138638
-9.350771 -3.0382617 -0.50434917 0.96138567
-9.4923725 -2.5648143 -0.50438768 0.96138263
-9.523984 -2.4453614 -0.50439626 0.96138209
-9.5541306 -2.3255174 -0.50440443 0.96138144
-9.5827732 -2.2053125 -0.50441217 0.96138078
-9.659482 -1.8426465 -0.50443292 0.96137917
-9.6819916 -1.7211523 -0.50443894 0.96137869
-9.7029295 -1.5993652 -0.5044446 0.96137846
-9.7402735 -1.355039 -0.50445461 0.96137762
-9.7963181 -0.86395508 -0.50446957 0.96137655
-9.827529 -0.37066406 -0.50447762 0.96137589
-9.8337889 -0.12358398 -0.50447905 0.96137571
-9.3266993 -0 -0.50433934 0.963328
-9.32374 0.234375 -0.50433826 0.96332806
-9.3200483 0.35152343 -0.50433713 0.96332812
-9.3148537 0.46860349 -0.50433552 0.96332824
-9.2904396 0.81932616 -0.50432843 0.96332878
-9.279355 0.93600583 -0.50432527 0.96332902
-9.2668066 1.0525292 -0.50432169 0.9633292
-9.2372847 1.2850683 -0.50431329 0.96332979
-9.2018843 1.5167577 -0.50430334 0.96333051
-9.1819916 1.6322558 -0.50429767 0.96333092
-9.1378517 1.8624414 -0.50428528 0.96333182
-9.0879002 2.0914257 -0.50427133 0.96333283
-9.060771 2.2054198 -0.50426376 0.96333337
-9.032197 2.3190625 -0.50425571 0.96333396
-9.0021877 2.4323535 -0.50424737 0.96333456
-8.9707813 2.5452342 -0.50423855 0.9633351
-8.9378901 2.6577246 -0.50422943 0.96333587
-8.9036522 2.7697656 -0.50421983 0.96333647
-8.8679495 2.881377 -0.50420994 0.96333724
-1.7877148 0.65634763 -0.10298 0.99240035
-1.7877929 0.68196285 -0.10347015 0.99236435
-1.7293261 0.70994139 -0.10108608 0.99253953
-1.6693066 0.70994139 -0.098091431 0.9927597
-1.5087206 0.70994139 -0.090164907 0.99334288
-1.4607714 0.70995116 -0.08782661 0.99351501
-1.4152734 0.70994139 -0.085619621 0.99367738
-1.3719823 0.70995116 -0.083533473 0.99383092
-1.3307129 0.70994139 -0.081559598 0.99397641
-1.2537891 0.70994139 -0.077913813 0.99424487
-1.2178515 0.70994139 -0.076228365 0.99436897
-1.1186913 0.70994139 -0.071646921 0.99470651
-1.0882324 0.70994139 -0.070261344 0.99480861
-1.058916 0.70994139 -0.068938904 0.99490607
-1.0300976 0.72883785 -0.06823536 0.99495792
-1.0299804 0.74834961 -0.068844832 0.99491298
-1.029873 0.76820308 -0.069476314 0.99486643
-1.0297363 0.78842771 -0.070130348 0.99481827
-1.0294434 0.8300879 -0.071510315 0.99471658
-1.0291504 0.87339842 -0.072991826 0.99460751
-5.394033 5.065361 -0.40012962 0.97079355
-5.3297071 5.1324606 -0.40010896 0.97079498
-5.1316504 5.3288574 -0.40004575 0.97079957
-5.0640235 5.3926268 -0.40002432 0.97080106
-4.9263573 5.5175977 -0.39998093 0.97080421
-4.7141013 5.6983981 -0.39991453 0.97080904
-4.4952345 5.8710351 -0.39984664 0.97081381
-4.3457713 5.9814649 -0.39980057 0.97081715
-4.193584 6.0880661 -0.39975396 0.97082055
-4.1165233 6.1399217 -0.39973044 0.97082222
-3.8019238 6.3374901 -0.39963508 0.97082901
-3.5597069 6.4750876 -0.39956227 0.97083431
-3.3954492 6.5617089 -0.39951316 0.97083777
-3.3125293 6.6034374 -0.39948845 0.97083962
-3.1451561 6.6837692 -0.39943877 0.97084314
-3.060703 6.7223535 -0.39941382 0.97084492
-2.975791 6.7598534 -0.39938876 0.97084677
-2.4572167 6.9621778 -0.39923686 0.97085762
-2.3693848 6.9920311 -0.39921135 0.97085953
-2.0145702 7.1004295 -0.39910874 0.97086692
-1.8352734 7.1478906 -0.39905718 0.97087061
-1.7451855 7.1699219 -0.39903137 0.97087246
-1.564248 7.2105761 -0.39897966 0.97087622
-1.4734277 7.2291894 -0.39895383 0.97087806
-1.3823828 7.2466793 -0.39892796 0.97087985
-1.2911035 7.2630172 -0.39890206 0.9708817
-1.1996875 7.2781734 -0.39887613 0.97088367
-1.01625 7.305078 -0.39882436 0.97088736
-0.92431641 7.3168063 -0.39879853 0.97088921
-0.83223629 7.3273535 -0.39877263 0.97089112
-0.64778316 7.3450098 -0.39872095 0.97089481
-0.55537111 7.3520603 -0.39869514 0.97089678
-0.46291992 7.3580174 -0.39866939 0.97089851
-0.18521483 7.3688183 -0.39859229 0.97090399
-0.092597656 7.3700681 -0.39856669 0.97090596
0 7.3702145 -0.39854112 0.97090763
0.092607416 7.3691406 -0.39851561 0.97090954
0.46264648 7.3533106 -0.39841422 0.97091681
0.55496091 7.3464451 -0.39838901 0.97091866
0.6472168 7.3384275 -0.39836392 0.9709205
0.8313086 7.3189354 -0.39831397 0.97092408
1.197705 7.2661328 -0.39821517 0.97093111
1.2888281 7.2500486 -0.39819071 0.9709329
1.4704394 7.2144823 -0.39814216 0.97093648
1.8306347 7.1297851 -0.39804643 0.97094327
2.0089843 7.0806832 -0.39799935 0.97094673
2.448916 6.9385643 -0.39788413 0.97095495
2.5357616 6.9068456 -0.39786154 0.97095662
2.7934668 6.8043652 -0.39774361 0.97096503
2.8785546 6.7683105 -0.39772022 0.97096682
3.2142577 6.6136036 -0.39762795 0.97097337
3.2969141 6.5723047 -0.39760521 0.97097504
3.3790331 6.5299902 -0.39758265 0.97097671
3.5416796 6.4422851 -0.39753795 0.97097993
3.6221678 6.3969336 -0.39751586 0.97098142
3.7020507 6.3505273 -0.3974939 0.97098315
3.7813475 6.3031735 -0.39747211 0.97098464
3.8600781 6.2548337 -0.39745048 0.97098607
4.1685743 6.0516891 -0.39736575 0.97099221
4.3930173 5.8893652 -0.39730412 0.97099668
4.5391698 5.7765231 -0.397264 0.97099954
4.6111522 5.71875 -0.39724424 0.97100103
4.6824512 5.6600585 -0.39722463 0.9710024
4.8227344 5.5400782 -0.39718616 0.97100514
4.8917284 5.4787889 -0.39716724 0.97100645
4.9599705 5.4166112 -0.39714852 0.97100782
5.027422 5.3536134 -0.39712995 0.97100914
5.0940332 5.2897558 -0.39711174 0.97101057
5.1598535 5.2251072 -0.39709365 0.97101188
5.2248926 5.1596289 -0.3970758 0.97101307
5.2890821 5.0933204 -0.39705822 0.97101438
5.3524313 5.0262594 -0.39704084 0.97101557
5.4765916 4.8897362 -0.39700678 0.97101802
5.5972753 4.7501659 -0.39697373 0.9710204
5.6562696 4.6792674 -0.39695755 0.97102165
5.7144237 4.6076465 -0.3969416 0.97102267
5.8279295 4.4622169 -0.39691052 0.97102499
1.2586523 0.93884766 -0.08490932 0.99372965
1.2589452 0.89071286 -0.083392672 0.99384129
1.2596289 0.77734375 -0.080039248 0.99408817
1.2598535 0.73442382 -0.078856237 0.99417537
1.2599902 0.71341795 -0.078295819 0.99421656
1.2914257 0.70995116 -0.079688683 0.99411398
1.3719823 0.70994139 -0.083533704 0.99383098
1.415293 0.70994139 -0.085619621 0.99367732
1.4608105 0.70995116 -0.087826423 0.99351484
1.5087402 0.70995116 -0.090165101 0.99334282
2.0241406 0.68591797 -0.11556873 0.99147522
8.8511038 2.6318848 -0.49933085 0.96368539
8.9141407 2.4085546 -0.49931371 0.96368659
8.9435444 2.2963085 -0.49930575 0.96368724
8.9981441 2.0707715 -0.499291 0.96368831
9.0233498 1.9575 -0.49928415 0.96368873
9.0471382 1.8439453 -0.49927771 0.96368915
9.0694628 1.7300879 -0.49927169 0.96368963
9.0903807 1.6159668 -0.49926603 0.96369004
9.1098928 1.5015918 -0.49926081 0.9636904
9.1279593 1.3869921 -0.49925599 0.9636907
9.1597652 1.1571387 -0.49924743 0.96369135
9.1966696 0.81106442 -0.49923766 0.96369213
9.2206154 0.46386719 -0.49923143 0.96369249
9.2293358 0.23201172 -0.49922928 0.96369255
9.231513 -0.11602539 -0.49922904 0.96369261
9.2140913 -0.57969725 -0.49923429 0.96369231
9.1446381 -1.2721777 -0.49925423 0.96369082
9.1279879 -1.3870019 -0.49925891 0.96369058
9.109931 -1.501621 -0.49926397 0.96369022
9.069541 -1.7301074 -0.49927536 0.96368933
8.9436426 -2.2963476 -0.49931064 0.96368682
8.9142284 -2.4085937 -0.49931884 0.96368623
8.8833885 -2.5204492 -0.49932745 0.96368569
2.0241601 -0.68591797 -0.11556865 0.99147516
1.9337401 -0.70995116 -0.11139118 0.99178213
1.861123 -0.70995116 -0.10771286 0.99205238
1.6693066 -0.70996094 -0.098090552 0.9927597
1.6127245 -0.70996094 -0.095282823 0.99296623
1.5592968 -0.70995116 -0.092645794 0.99316025
1.5087304 -0.70995116 -0.090164259 0.99334282
1.4608008 -0.70994139 -0.087826043 0.9935149
1.4152832 -0.70994139 -0.085619047 0.99367738
1.3307519 -0.70996094 -0.081559218 0.99397624
1.2914063 -0.70996094 -0.079688296 0.99411398
1.2599707 -0.71342772 -0.078295819 0.99421662
1.2597363 -0.75572264 -0.079436988 0.99413258
1.2596289 -0.77735353 -0.080039099 0.99408817
1.2593848 -0.82160157 -0.081309892 0.99399459
1.2592382 -0.84425777 -0.081979826 0.9939453
1.2591113 -0.86729491 -0.082673907 0.99389416
1.258955 -0.89073241 -0.083392829 0.99384123
1.2588184 -0.91458005 -0.084137797 0.99378633
1.2586621 -0.93884766 -0.084909283 0.99372959
5.8304491 -4.46417 -0.39708042 0.97101259
5.5397458 -4.822402 -0.39716083 0.97100693
5.2913671 -5.0955567 -0.39722952 0.97100192
5.2271681 -5.1618652 -0.39724725 0.97100067
5.0962596 -5.2920799 -0.39728346 0.97099805
4.8938575 -5.4811521 -0.3973394 0.97099411
4.8248243 -5.54249 -0.39735848 0.97099274
4.6131639 -5.7212501 -0.39741695 0.97098851
4.5411425 -5.7790623 -0.39743686 0.97098702
4.4684081 -5.8359571 -0.39745691 0.97098559
4.3949313 -5.8919334 -0.39747721 0.97098422
4.2459083 -6.0011425 -0.39751837 0.97098124
4.0173631 -6.1578708 -0.39758149 0.97097671
3.9398828 -6.2082324 -0.39760283 0.97097504
3.8617382 -6.2575684 -0.39762443 0.97097367
3.7830076 -6.3059568 -0.39764616 0.97097206
3.6237695 -6.3997459 -0.39769012 0.97096884
3.462168 -6.489502 -0.3977347 0.97096568
3.1324511 -6.6567774 -0.39782569 0.97095919
3.0487401 -6.6960154 -0.39784881 0.97095746
2.6230371 -6.8762598 -0.39796624 0.97094905
2.536582 -6.9090915 -0.39799002 0.97094733
2.4497168 -6.9408493 -0.39801398 0.97094554
2.3624511 -6.9715037 -0.39803806 0.97094381
2.2747948 -7.0010548 -0.39806223 0.97094214
2.1867774 -7.029541 -0.39808649 0.97094029
2.0096679 -7.0831151 -0.39813533 0.97093689
1.8312695 -7.1322751 -0.39818451 0.97093332
1.6516503 -7.1769333 -0.39823401 0.97092974
1.470957 -7.2170801 -0.39828381 0.97092617
1.2893066 -7.252666 -0.39833388 0.97092259
1.1981348 -7.2687497 -0.39835897 0.9709208
0.64744139 -7.3411422 -0.39851072 0.97090989
0.46281248 -7.3560252 -0.3985616 0.97090626
