# .PCD v0.7 - Point Cloud Data file format
VERSION 0.7
FIELDS x y z intensity
SIZE 4 4 4 4
TYPE F F F F
COUNT 1 1 1 1
WIDTH 1063
HEIGHT 1
VIEWPOINT 0 0 0 1 0 0 0
POINTS 1063
DATA ascii
-4.4161425 -8.0328026 0.012697868 0.9639973
-4.5476756 -8.0313568 0.012785453 0.96375507
-4.9536915 -8.026865 0.013065415 0.96297336
-5.2346873 -8.0237598 0.013270073 0.9624036
-11.461699 -16.199902 0.027487257 0.92369032
-6.5692577 -7.9408102 0.014276847 0.95961452
-7.4391599 -7.9218359 0.015053444 0.95746231
-11.395391 -11.833281 0.02275875 0.93640018
-8.2236423 -7.9192576 0.015816994 0.95535988
-1.044082 -0.90887696 0.0019177627 0.99447829
-1.0440625 -0.88605469 0.0018967438 0.99453753
-1.0440625 -0.82041013 0.001839447 0.99470276
-1.0440625 -0.79938477 0.0018215179 0.99475402
-1.0440527 -0.75854492 0.0017877197 0.99485123
-1.0440429 -0.73867184 0.0017717743 0.99489737
-1.2178613 -0.70994139 0.0019530486 0.99437714
-1.2914063 -0.70995116 0.0020414733 0.99412256
-1.3307421 -0.70994139 0.0020893097 0.99398506
-1.4608008 -0.70994139 0.0022500609 0.99352431
-1.5593066 -0.70995116 0.0023733519 0.99317014
-1.6693066 -0.70994139 0.0025127411 0.99277025
-1.7707422 -0.72694331 0.0026514817 0.99237263
-1.7707324 -0.67544919 0.0026253508 0.99244791
-1.7707324 -0.65009767 0.0026130294 0.9924832
-15.873183 -4.0755372 0.022701187 0.93655014
-17.379698 -3.9996288 0.024703903 0.93114895
-20.460234 -3.9029882 0.028852195 0.92005962
-1.7715918 0.67579103 -0.0026263427 0.99244422
-1.771582 0.70143551 -0.0026391982 0.99240738
-1.7293261 0.70996094 -0.0025890351 0.99255031
-1.5087011 0.70996094 -0.002309494 0.99335259
-1.4607714 0.70995116 -0.0022493743 0.99352443
-1.4152734 0.70995116 -0.0021931839 0.99368656
-1.2913965 0.70997071 -0.0020412062 0.99412256
-1.2538183 0.70996094 -0.0019958115 0.9942531
-1.0433301 0.71869141 -0.0017545319 0.99494517
-1.0433301 0.75802732 -0.0017861938 0.99485475
-1.0433301 0.79885739 -0.001819992 0.99475759
-1.0433398 0.81985348 -0.0018379211 0.99470639
-1.0433203 0.88542968 -0.0018952942 0.99454135
-1.0433301 0.90822262 -0.0019159317 0.99448222
-8.4466009 8.1340132 -0.016249886 0.95417762
-7.836123 8.1372557 -0.015647888 0.95581812
-7.2445798 8.1140232 -0.015068054 0.95742273
-5.1154099 8.0605955 -0.013222923 0.96253288
-4.8337793 8.0574799 -0.013015442 0.96311271
-4.6962109 8.0559759 -0.012916565 0.96338755
-4.2955275 8.0515432 -0.012640915 0.96415526
-4.1656642 8.050107 -0.012555351 0.96439314
-3.6627049 8.0445509 -0.012243499 0.96526116
-3.4201953 8.0418749 -0.012105141 0.965648
-3.3009667 8.0405464 -0.012039947 0.96583033
-3.1829882 8.039238 -0.011976814 0.9660055
-2.7225487 8.0341501 -0.011750069 0.96663755
-2.6100683 8.0329103 -0.011698837 0.96677911
-2.278125 8.0292578 -0.011561317 0.96716636
-2.1691699 8.0280466 -0.011519432 0.96728337
-1.9535059 8.0256538 -0.011441345 0.96749991
-1.8467187 8.0244722 -0.011405983 0.96759957
-1.7405761 8.0233202 -0.011372909 0.96769357
-1.4256933 8.019824 -0.01128273 0.96794283
-1.3217676 8.0186815 -0.011257667 0.96801513
-1.1152344 8.0163965 -0.011211586 0.968144
-0.80830073 8.0130072 -0.011155815 0.96829867
-0.50396484 8.0096388 -0.011115684 0.96840787
-0.10063476 8.0051947 -0.011089058 0.96848398
-3.9062499e-05 8.0040817 -0.011087112 0.96849072
0.10053711 8.0029783 -0.011085929 0.96849257
0.30171874 8.000742 -0.011089744 0.96848166
0.50319332 7.9985156 -0.011100616 0.96845102
0.90794921 7.9940429 -0.011143951 0.9683305
1.2141407 7.990664 -0.011195449 0.96818745
1.4200391 7.9883785 -0.011238632 0.96806651
1.5236034 7.987236 -0.011263008 0.96799821
1.7321973 7.9849315 -0.011317787 0.96784562
2.2638085 7.9790525 -0.011488265 0.9673683
2.9266601 7.9717383 -0.011762847 0.96660244
3.0403905 7.9704785 -0.011816368 0.96645284
3.2710741 7.9679294 -0.011930198 0.96613377
3.5064158 7.965332 -0.012055244 0.96578711
3.6259961 7.9640136 -0.012121239 0.96560299
4.1182423 7.9585738 -0.012412834 0.96479088
4.2451072 7.9571676 -0.012492904 0.96456802
4.5039258 7.9542966 -0.012662277 0.96409672
4.636035 7.9528418 -0.012750968 0.96384782
4.7700391 7.9513669 -0.012843627 0.96358973
4.906045 7.949873 -0.012939491 0.96332216
5.0441208 7.9483495 -0.013039855 0.96304494
5.1843457 7.9467869 -0.01314228 0.96275777
5.4716992 7.9436131 -0.013361015 0.96215183
5.9215331 7.9386425 -0.013717841 0.96115893
6.0769434 7.9369235 -0.013846397 0.96080399
6.235332 7.9351659 -0.013979301 0.96043634
6.3967967 7.9333982 -0.01411644 0.96005541
6.5614843 7.931572 -0.014259796 0.95966083
6.7295704 7.9297166 -0.014406242 0.959252
6.9011912 7.9278121 -0.014560889 0.95882839
7.0765233 7.925869 -0.014717521 0.95838934
7.2557712 7.9239058 -0.014882545 0.95793414
7.4390817 7.9218845 -0.015052872 0.95746237
7.6266403 7.9197946 -0.015230942 0.95697325
7.8187203 7.9176755 -0.015415039 0.9564659
8.0155077 7.9155078 -0.015605736 0.95593953
8.2172947 7.9132714 -0.015803108 0.9553932
8.85499 7.9062204 -0.016442642 0.95362592
9.3100777 7.9011912 -0.016913643 0.95232999
9.547636 7.8985839 -0.017165527 0.95164299
9.7923727 7.8958788 -0.017424049 0.95092821
10.044648 7.893086 -0.017694892 0.95018435
10.304951 7.8902144 -0.017977638 0.9494096
1.2750878 0.9021582 -0.0021635818 0.99377161
1.2751074 0.87833983 -0.0021445083 0.99382573
1.2751074 0.83188474 -0.0021085739 0.99392861
1.2751465 0.72203124 -0.0020294951 0.99415565
1.3307226 0.70996094 -0.0020890045 0.99398512
1.3719823 0.70996094 -0.0021396256 0.99383986
1.4152637 0.70995116 -0.0021928025 0.99368662
1.4607812 0.70995116 -0.0022496795 0.99352437
1.5592871 0.70997071 -0.0023728178 0.9931702
1.6127343 0.70996094 -0.0024407576 0.99297643
1.6692969 0.70997071 -0.0025123595 0.99277025
1.7292968 0.70996094 -0.002589073 0.99255043
1.8611034 0.70996094 -0.0027588652 0.99206394
1.9872851 -0.6734277 -0.0029063795 0.991642
1.9872949 -0.70138669 -0.0029190825 0.9916057
1.8611132 -0.70994139 -0.0027591323 0.99206394
1.7931249 -0.70995116 -0.0026711654 0.99231547
1.6693066 -0.70993161 -0.0025125884 0.99277025
1.6127245 -0.70992184 -0.0024406051 0.99297655
1.5087304 -0.70994139 -0.0023093796 0.99335253
1.4607812 -0.70995116 -0.0022496795 0.99352437
1.4152637 -0.70994139 -0.0021930693 0.99368662
1.2913965 -0.70994139 -0.0020410155 0.99412262
1.2751172 -0.72201169 -0.0020293426 0.99415576
1.2751269 -0.74331051 -0.0020444107 0.99411356
1.2751172 -0.76494139 -0.0020596313 0.99406981
1.2751172 -0.7868945 -0.0020752335 0.9940244
1.2751074 -0.8318457 -0.0021086121 0.99392867
1.2751074 -0.85488278 -0.0021263121 0.99387819
1.2750976 -0.87830079 -0.0021446228 0.99382585
1.2750781 -0.9264062 -0.0021827698 0.99371547
10.709648 -8.1999416 -0.018683394 0.94747621
10.162119 -8.1938868 -0.018082695 0.94912356
9.9013081 -8.1910057 -0.017798882 0.94989771
9.6484375 -8.1882124 -0.017530555 0.95064127
9.1649609 -8.1828613 -0.017019538 0.95204246
8.4896193 -8.1753998 -0.016326027 0.95394981
8.0687885 -8.1707516 -0.015906295 0.95510566
7.6687303 -8.166338 -0.015517845 0.95617867
7.4759178 -8.1642189 -0.015332985 0.9566862
7.2875781 -8.1621094 -0.01515686 0.95717567
6.9234958 -8.1581049 -0.014821204 0.95810306
6.7474022 -8.1561518 -0.014663505 0.95854235
6.2406249 -8.1505566 -0.014219399 0.95977026
6.0783591 -8.1487598 -0.014081573 0.96015143
5.6095505 -8.1435738 -0.013697281 0.96121752
5.4587889 -8.1419239 -0.013578529 0.96154869
5.3106446 -8.1402826 -0.013462448 0.96186829
5.0216794 -8.1370993 -0.013244782 0.96247464
4.2060056 -8.1280756 -0.012677307 0.96405458
4.0766211 -8.1266403 -0.012593918 0.96428603
3.6982031 -8.1224508 -0.012361869 0.96493071
3.45333 -8.1197557 -0.012222671 0.96532112
2.9791014 -8.114521 -0.011972389 0.9660145
2.7489061 -8.1119623 -0.011863556 0.96631992
2.4110155 -8.1082325 -0.011716117 0.96672958
2.1901367 -8.1058006 -0.011630592 0.96697181
2.080879 -8.104599 -0.011590157 0.96708399
1.9723926 -8.1033983 -0.011551933 0.96719033
1.86458 -8.1021967 -0.011516495 0.96729094
1.7574219 -8.1010151 -0.011483078 0.96738589
1.6508789 -8.0998335 -0.011450386 0.96747524
1.5448828 -8.0986624 -0.011419906 0.96755904
1.3345214 -8.0963478 -0.011365929 0.96771038
0.71341795 -8.0894823 -0.011248817 0.96803838
0.50876951 -8.0872164 -0.011223678 0.96810681
0.30491209 -8.0849705 -0.011206665 0.96815515
0.1015625 -8.0827045 -0.011196517 0.96818376
-0.20314452 -8.0793552 -0.011195068 0.9681893
-0.30472654 -8.0782318 -0.011197586 0.96818125
-0.40636718 -8.0770998 -0.011202812 0.96816832
-0.50811523 -8.0759764 -0.011208762 0.96815044
-0.61001951 -8.0748529 -0.011217575 0.96812749
-0.71207029 -8.07374 -0.011226234 0.96809953
-1.0195702 -8.0703316 -0.011268234 0.96798569
-1.3297266 -8.0669041 -0.011325149 0.96782589
-1.7490722 -8.0622749 -0.01142765 0.96753925
-1.9618554 -8.0599117 -0.011489677 0.96736342
-2.2858398 -8.0563478 -0.011599617 0.96705741
-2.3952734 -8.0551271 -0.011640434 0.9669438
-2.6165428 -8.0526857 -0.011727829 0.96669865
-2.9550977 -8.0489349 -0.011876259 0.96628439
-3.4210546 -8.0437984 -0.012107429 0.96563989
-3.5404882 -8.0424709 -0.012172241 0.96546137
-3.7832811 -8.0397949 -0.012308197 0.96508229
-4.1582127 -8.0356541 -0.012532921 0.9644559
-4.4161329 -8.0328026 -0.01269783 0.9639973
-4.5476952 -8.0313568 -0.012784309 0.96375501
-4.6810546 -8.0298729 -0.012874336 0.9635039
-4.8163867 -8.0283785 -0.012969055 0.96324337
-4.9536719 -8.0268555 -0.013065185 0.96297342
-5.2346778 -8.0237494 -0.013269272 0.96240366
-6.0958786 -7.9615035 -0.013895454 0.96068478
-11.416836 -13.452724 -0.024430618 0.93185586
-1.043291 -0.93149412 -0.0019372177 0.99442112
-1.0433105 -0.90819335 -0.0019161224 0.9944824
-1.0433203 -0.88540035 -0.0018953704 0.99454147
-1.0433203 -0.84124023 -0.0018562698 0.99465346
-1.0433398 -0.81982422 -0.0018378829 0.99470645
-1.0433496 -0.77822262 -0.0018027496 0.99480706
-1.0433692 -0.71866208 -0.0017547607 0.99494511
-1.058916 -0.70993161 -0.0017658615 0.99491346
-1.0882324 -0.70995116 -0.0017996979 0.99481612
-1.1504102 -0.70994139 -0.0018723296 0.99460727
-1.2538183 -0.70994139 -0.0019958115 0.99425316
-1.2914159 -0.70994139 -0.0020410919 0.99412256
-1.3307519 -0.70993161 -0.0020890045 0.99398506
-1.3719921 -0.70993161 -0.0021397017 0.99383992
-1.7293457 -0.70995116 -0.0025892258 0.99255025
-15.765791 -4.0479589 -0.022546805 0.93696558
-17.379745 -3.9996483 -0.024703827 0.93114877
-21.915752 -3.8958788 -0.030831374 0.91481131
-1.7724414 0.70177734 -0.0079215616 0.99240369
-1.7293261 0.70996094 -0.0077682491 0.99255025
-1.5592871 0.70996094 -0.0071195983 0.99317014
-1.5087011 0.70996094 -0.0069286344 0.99335253
-1.3307323 0.70995116 -0.0062675858 0.99398506
-1.2913965 0.70997071 -0.0061239242 0.99412251
-1.2178711 0.70996094 -0.0058580018 0.99437702
-1.1834179 0.70997071 -0.0057347105 0.99449497
-1.0882324 0.70996094 -0.0053993603 0.99481606
-1.0426368 0.7182129 -0.0052610398 0.99494851
-1.0426464 0.73770505 -0.0053072739 0.99490404
-1.0426368 0.75751954 -0.0053552627 0.99485815
-1.0426172 0.77771485 -0.0054049301 0.99481058
-1.0425879 0.81927735 -0.0055098343 0.99471009
-1.0425781 0.86249024 -0.0056225965 0.9946022
-1.0425683 0.88480467 -0.0056821438 0.99454522
-1.0425488 0.90756834 -0.005743904 0.99448627
-1.0425488 0.93084961 -0.0058078766 0.994425
-1.0425195 0.95464844 -0.0058738324 0.99436158
-8.4543066 8.1414843 -0.048762169 0.95413631
-7.2445898 8.1140232 -0.045202214 0.95742238
-6.5487986 8.1217775 -0.043358076 0.959126
-10.905449 14.243114 -0.074543722 0.93075871
-5.1154099 8.0605955 -0.039671555 0.96253258
-4.6962204 8.0559759 -0.03875038 0.96338725
-4.295537 8.0515432 -0.03792198 0.96415496
-4.1656737 8.050107 -0.037665479 0.96439284
-3.7861328 8.0458984 -0.036951482 0.965056
-3.6627245 8.0445309 -0.036731642 0.96526098
-3.5407715 8.0431929 -0.03651844 0.9654581
-2.9505663 8.0366602 -0.035575371 0.9663347
-2.7225487 8.0341406 -0.035250358 0.96663731
-2.4985352 8.0316696 -0.034954034 0.96691412
-2.278125 8.0292482 -0.034682732 0.96716613
-2.1691699 8.0280371 -0.034557153 0.96728319
-2.0609765 8.0268259 -0.034436837 0.96739435
-1.9535059 8.0256443 -0.034325026 0.96749967
-1.8467187 8.0244627 -0.034217414 0.96759933
-1.6350683 8.0221291 -0.034021415 0.9677819
-1.5301074 8.0209761 -0.03393295 0.96786493
-1.4256933 8.0198145 -0.033848457 0.9679426
-1.3217676 8.018672 -0.03377163 0.9680149
-0.60518551 8.0107517 -0.033382986 0.96837622
-0.50396484 8.0096283 -0.033349685 0.96840763
-0.10063476 8.0051756 -0.033267669 0.96848381
-3.9062499e-05 8.0040627 -0.033260915 0.9684906
0.10051758 8.0029488 -0.033258285 0.96849245
0.20112304 8.0018454 -0.0332621 0.96848935
0.50319332 7.9985056 -0.033303678 0.96845084
0.70516598 7.9962692 -0.03335743 0.96840054
0.80642575 7.9951563 -0.033392675 0.96836793
0.90792966 7.9940233 -0.033432271 0.96833038
1.1117578 7.9917769 -0.033529434 0.96824008
1.3168652 7.9895115 -0.033649255 0.9681294
1.5236034 7.9872265 -0.03378994 0.96799797
1.7321973 7.9849219 -0.033953056 0.96784544
1.9429492 7.9825974 -0.034140129 0.96767122
2.3721776 7.9778514 -0.034586027 0.96725559
2.4813378 7.9766402 -0.034712907 0.96713716
2.9266405 7.9717188 -0.035289228 0.96660227
3.0403709 7.9704685 -0.035449944 0.96645266
3.1551659 7.9691992 -0.035616722 0.96629649
3.3881249 7.9666209 -0.035974618 0.96596378
3.5064158 7.9653125 -0.036165085 0.96578693
4.1182227 7.9585547 -0.037237432 0.96479076
4.2450876 7.9571481 -0.03747654 0.96456784
4.3736424 7.9557419 -0.037727393 0.9643364
4.636035 7.9528418 -0.038254164 0.96384752
5.0441012 7.9483199 -0.039118957 0.96304482
5.1843457 7.9467773 -0.039430313 0.96275753
5.6190133 7.9419723 -0.040429343 0.96183223
5.7689257 7.9403219 -0.040786896 0.96150136
6.0769434 7.9369235 -0.041539039 0.96080369
6.235322 7.9351559 -0.041935805 0.96043611
7.0765328 7.925869 -0.04415432 0.95838898
7.4390621 7.921875 -0.045160253 0.95746213
7.8187108 7.9176755 -0.046240501 0.95646554
8.2172852 7.9132714 -0.047405738 0.9553929
8.4242477 7.9109764 -0.048024178 0.95482594
9.3100681 7.9011817 -0.050742988 0.95232964
9.7923632 7.8958688 -0.052272756 0.95092785
10.304951 7.8901954 -0.05393444 0.94940925
1.2742089 0.95047849 -0.0066057965 0.99366146
1.2742285 0.92578125 -0.0065448759 0.99371964
1.274248 0.8543359 -0.0063750455 0.99388218
1.2742578 0.83132809 -0.0063223266 0.9939326
1.2742871 0.80869138 -0.0062715909 0.99398118
1.2742676 0.78641599 -0.0062223054 0.99402827
1.2742969 0.76448238 -0.0061750412 0.99407351
1.2743067 0.74288082 -0.0061294553 0.9941172
1.2742969 0.72157222 -0.0060852813 0.9941594
1.2913965 0.70996094 -0.006123886 0.99412256
1.3307226 0.70996094 -0.0062675476 0.99398506
1.4152637 0.70995116 -0.0065794755 0.99368656
1.4607812 0.70995116 -0.00674942 0.99352431
1.6127343 0.70996094 -0.0073221968 0.99297637
1.7931445 0.70996094 -0.0080138016 0.99231529
1.861123 0.70996094 -0.0082775876 0.99206382
1.9337401 0.70996094 -0.0085602188 0.99179399
1.9893848 0.70213866 -0.0087664416 0.99159682
1.9893652 0.67415035 -0.0087282946 0.99163318
1.9337499 -0.70992184 -0.0085602188 0.99179399
1.8611327 -0.70994139 -0.0082773203 0.99206382
1.7931249 -0.70995116 -0.0080141062 0.99231541
1.6693066 -0.70993161 -0.0075379941 0.9927702
1.6127245 -0.70992184 -0.0073221205 0.99297649
1.5087304 -0.70994139 -0.0069289017 0.99335247
1.4607812 -0.70995116 -0.006749115 0.99352431
1.3719823 -0.70994139 -0.0064194105 0.99383986
1.3307323 -0.70995116 -0.0062674331 0.99398506
1.2913867 -0.70993161 -0.0061237332 0.99412262
1.2743067 -0.72155273 -0.006085434 0.99415946
1.2743067 -0.78639644 -0.0062223813 0.99402815
1.2742871 -0.80867183 -0.0062714764 0.99398124
1.2742773 -0.83129883 -0.0063224412 0.9939326
1.2742285 -0.90153319 -0.0064863968 0.99377578
1.2742285 -0.9257617 -0.0065448377 0.99371964
10.709639 -8.1999416 -0.056050796 0.94747585
10.162109 -8.1938963 -0.054246709 0.9491232
9.9013081 -8.1910152 -0.053399846 0.94989729
9.648428 -8.1882324 -0.052588079 0.95064092
9.4031248 -8.1855173 -0.051806714 0.95135528
9.1649513 -8.1828709 -0.051058576 0.9520421
8.9335546 -8.1803217 -0.050336074 0.95270246
8.7085257 -8.1778517 -0.049643744 0.95333791
8.2764645 -8.1730471 -0.048337173 0.95453823
8.0687599 -8.1707716 -0.047720298 0.95510536
7.8662696 -8.1685152 -0.047125891 0.95565176
7.4758983 -8.1642084 -0.046001852 0.95668596
7.1034861 -8.1600971 -0.044957466 0.95764738
6.7473927 -8.1561623 -0.043987501 0.95854199
6.2406249 -8.1505566 -0.042658042 0.95976996
5.7629199 -8.1452827 -0.041463088 0.96087438
4.8806152 -8.1355467 -0.039424628 0.96276182
4.3371286 -8.1295404 -0.038290672 0.96381414
4.2060056 -8.1280861 -0.038030967 0.96405429
4.0766015 -8.1266603 -0.037781332 0.96428573
3.9488964 -8.1252537 -0.037541922 0.96450871
3.6981835 -8.1224804 -0.037087515 0.96493036
3.45333 -8.1197653 -0.036667097 0.96532083
3.3329296 -8.1184378 -0.036468733 0.96550488
3.2137792 -8.1171284 -0.03627884 0.96568167
3.0958788 -8.1158199 -0.036095656 0.96585137
2.979121 -8.114521 -0.035921667 0.96601421
2.7489061 -8.1119919 -0.03559288 0.96631956
2.6353319 -8.1107321 -0.035439871 0.96646249
2.5226855 -8.1094923 -0.03529251 0.96659905
2.4110155 -8.108242 -0.035152815 0.96672934
2.080879 -8.1046095 -0.034770928 0.96708369
1.9723926 -8.1034079 -0.034657516 0.96719003
1.86458 -8.1022072 -0.034549102 0.96729064
1.6508594 -8.0998535 -0.034351159 0.96747494
1.4394531 -8.0975189 -0.034176443 0.96763712
1.3345214 -8.0963573 -0.034099389 0.96771014
1.1259961 -8.0940523 -0.03395851 0.96784019
1.0223633 -8.0929003 -0.033898123 0.96789742
0.9190625 -8.0917578 -0.033842202 0.96794945
0.61097658 -8.0883589 -0.033706781 0.96807486
0.20318359 -8.083847 -0.033604279 0.96817166
-3.9062499e-05 -8.0816212 -0.033583451 0.96819013
-0.30472654 -8.0782423 -0.033592988 0.96818101
-0.40636718 -8.0771284 -0.033608437 0.96816802
-0.61001951 -8.074873 -0.033652458 0.96812719
-0.71207029 -8.0737495 -0.033681106 0.9680993
-0.91681641 -8.0714846 -0.033757515 0.96802843
-1.0195702 -8.0703421 -0.033803597 0.96798545
-1.1226171 -8.0692091 -0.033855055 0.96793729
-1.3297266 -8.0669136 -0.033974912 0.96782559
-1.4338671 -8.0657616 -0.034043387 0.96776193
-1.5384473 -8.064599 -0.034118574 0.96769297
-2.3952734 -8.0551367 -0.034921721 0.9669435
-2.7284374 -8.051465 -0.035327796 0.96656656
-2.841289 -8.0502148 -0.035475731 0.96642852
-2.9550977 -8.0489454 -0.035632055 0.9662841
-3.3028808 -8.0451174 -0.036139257 0.96581095
-3.6612303 -8.041152 -0.036715925 0.96527523
-3.9067771 -8.0384474 -0.037140615 0.96488106
-4.0317383 -8.0370607 -0.037364997 0.96467233
-4.2863474 -8.0342379 -0.037840728 0.96423054
-4.4161425 -8.032793 -0.038092535 0.96399707
-4.6810937 -8.0298824 -0.038624916 0.96350348
-4.8163867 -8.0283785 -0.03890682 0.96324307
-5.0931053 -8.025322 -0.039498519 0.96269327
-5.2347069 -8.0237694 -0.039811172 0.9624033
-11.458936 -16.635439 -0.083941646 0.92237705
-6.0840039 -7.9459667 -0.041587371 0.96075964
-14.969179 -15.544394 -0.089678384 0.91729927
-8.0220118 -7.9217577 -0.046850316 0.95590466
-1.0425488 -0.90753907 -0.0057438277 0.99448633
-1.0425683 -0.88476562 -0.0056822202 0.99454534
-1.0425879 -0.84065425 -0.0055655288 0.99465716
-1.0426074 -0.79827148 -0.005456619 0.99476129
-1.0426368 -0.77768552 -0.0054050065 0.99481058
-1.0882324 -0.70995116 -0.0053992462 0.99481606
-1.1834179 -0.70993161 -0.0057346341 0.99449503
-1.4152637 -0.70992184 -0.0065797041 0.99368662
-1.4608008 -0.70993161 -0.0067493436 0.99352431
-1.5592968 -0.70994139 -0.007119522 0.99317014
-1.6127148 -0.70993161 -0.0073222732 0.99297649
-1.7724218 -0.65070313 -0.007845955 0.99247599
-14.37287 -4.0779395 -0.062083852 0.94198942
-17.379726 -3.9996386 -0.074109912 0.93114835
-20.460234 -3.9029784 -0.086557046 0.92005908
-21.915762 -3.8958886 -0.092499651 0.91481066
-1.7732812 0.70209962 -0.013209152 0.99239999
-1.6126952 0.70997071 -0.01220375 0.99297637
-1.5592871 0.70996094 -0.011866302 0.99317002
-1.4607714 0.70995116 -0.011249008 0.99352425
-1.3307323 0.70995116 -0.010446281 0.99398494
-1.2913965 0.70997071 -0.010206413 0.99412245
-1.2537988 0.70996094 -0.0099792862 0.99425304
-1.058916 0.70996094 -0.0088295741 0.99491328
-1.0419433 0.71774411 -0.0087627405 0.99495173
-1.041914 0.75702149 -0.0089196777 0.99486154
-1.0418457 0.84006834 -0.009269218 0.99466079
-1.0418457 0.861875 -0.0093647381 0.9946059
-1.0418164 0.88416988 -0.0094635393 0.99454904
-1.041787 0.90690428 -0.0095662307 0.99449021
-1.0417578 0.93015623 -0.009672584 0.99442911
-1.0417383 0.95392579 -0.0097830202 0.99436575
-10.946845 11.085273 -0.10790119 0.93958312
-7.2445993 8.1140137 -0.07533741 0.95742172
-10.895605 14.996504 -0.12838329 0.92853373
-4.2954979 8.0515327 -0.063203581 0.96415454
-4.1656737 8.0500975 -0.062777326 0.96439236
-3.7861133 8.045908 -0.061587255 0.96505553
-3.6627147 8.0445309 -0.061219368 0.96526045
-3.3009374 8.0405569 -0.060198173 0.96582955
-3.0661817 8.0379591 -0.059584197 0.96617287
-2.4985352 8.0316696 -0.058256455 0.96691364
-2.2781348 8.0292482 -0.057804678 0.96716565
-2.1691699 8.0280371 -0.057596281 0.96728265
-2.0609667 8.0268259 -0.057397459 0.96739388
-1.8467089 8.0244722 -0.057029303 0.96759886
-1.7405859 8.0233002 -0.056861382 0.96769285
-1.6350781 8.0221386 -0.056702651 0.96778136
-1.5301074 8.0209761 -0.056555748 0.96786445
-1.3217773 8.0186815 -0.056286011 0.96801436
-1.1152442 8.0163965 -0.056055602 0.96814328
-1.0125977 8.015254 -0.055954359 0.96819997
-0.9103027 8.0141306 -0.055862386 0.96825147
-0.60516602 8.0107517 -0.055641022 0.96837574
-0.2012793 8.0063086 -0.055468176 0.96847159
-0.10064453 8.0051756 -0.055447768 0.96848333
0.20111328 8.0018549 -0.055437163 0.96848887
0.30171874 8.0007229 -0.055452764 0.968481
0.40238279 7.9996285 -0.05547424 0.96846807
0.5031836 7.9985251 -0.055506364 0.96845031
0.70515621 7.9962792 -0.055597037 0.96840006
1.0096972 7.9929199 -0.055798452 0.96828723
1.1117675 7.991787 -0.055883903 0.96823955
1.4200293 7.988369 -0.056194648 0.96806586
1.6276367 7.986084 -0.056447983 0.96792388
2.5913184 7.9754195 -0.058080252 0.96701223
2.7021582 7.9742184 -0.058313482 0.96688157
2.9266698 7.9717283 -0.05881523 0.96660167
3.0403807 7.9704785 -0.05908329 0.96645212
3.1551561 7.9691892 -0.059362907 0.96629602
3.2710643 7.9679198 -0.0596545 0.96613306
3.3881347 7.9666209 -0.059959259 0.96596324
3.5064158 7.9653125 -0.060276564 0.9657864
3.6259863 7.9640036 -0.060605697 0.96560228
3.7468944 7.962666 -0.060949933 0.96541077
3.86917 7.9613085 -0.061306648 0.96521181
3.9929297 7.9599414 -0.061678123 0.96500498
4.1182323 7.9585547 -0.062062606 0.96479017
4.2450976 7.9571481 -0.062462807 0.9645673
4.6360254 7.9528513 -0.063755795 0.96384698
5.0441208 7.9483299 -0.065199815 0.96304417
5.3268261 7.9451852 -0.066251904 0.96245939
5.4716892 7.9436131 -0.066806369 0.96215099
5.6190329 7.9419723 -0.067381702 0.96183157
5.7689257 7.9403124 -0.067977481 0.96150076
6.0769629 7.9369235 -0.069232367 0.96080309
6.235322 7.9351659 -0.069896773 0.96043545
6.3968067 7.9333787 -0.070583612 0.96005452
6.5614743 7.9315624 -0.071295738 0.95965999
6.7295704 7.929697 -0.072032772 0.95925111
7.4390817 7.921865 -0.075266153 0.95746148
7.6266308 7.919785 -0.076152034 0.95697236
7.8187108 7.9176755 -0.077069394 0.95646489
8.2172756 7.9132614 -0.079011798 0.9553923
8.4242773 7.910996 -0.080040127 0.95482516
8.6367188 7.9086328 -0.081107974 0.95423651
8.8549709 7.9062204 -0.082218781 0.95362496
9.0793161 7.9037499 -0.083371885 0.95298946
9.7923536 7.8958788 -0.087123066 0.95092714
10.044658 7.8930759 -0.088477932 0.95018321
10.304941 7.8901954 -0.089890629 0.94940853
1.2733691 0.92516601 -0.010901146 0.99372375
1.2733886 0.87716794 -0.010709266 0.9938339
1.2734082 0.85377926 -0.010618439 0.99388605
1.2734473 0.80816406 -0.010445824 0.99398506
1.2734863 0.7639941 -0.010285454 0.99407715
1.2735058 0.74238282 -0.010209236 0.99412084
1.5592871 0.70997071 -0.011866149 0.99317002
1.6127343 0.70996094 -0.012203788 0.99297625
1.7292968 0.70995116 -0.012946968 0.99255025
1.861123 0.70996094 -0.013795776 0.9920637
1.9337401 0.70996094 -0.014267006 0.99179387
1.9914355 0.6748535 -0.014562683 0.99162436
1.9913964 0.64705074 -0.014502067 0.99165928
1.991416 -0.64703125 -0.014501991 0.99165922
1.9914258 -0.67482418 -0.014562988 0.99162441
1.7931249 -0.70994139 -0.013357086 0.99231529
1.7293261 -0.70993161 -0.012947121 0.99255019
1.6693066 -0.70993161 -0.012563629 0.99277008
1.5592968 -0.70994139 -0.01186634 0.99317002
1.5087304 -0.70994139 -0.011548423 0.99335235
1.4608008 -0.70994139 -0.011248931 0.99352419
1.3719823 -0.70994139 -0.010699043 0.9938398
1.3307519 -0.70994139 -0.010446434 0.99398488
1.2913867 -0.70993161 -0.010206603 0.99412256
1.2735156 -0.72109371 -0.01013607 0.99416298
1.2734863 -0.74236327 -0.010209274 0.99412096
1.2734473 -0.80815428 -0.010445824 0.99398506
1.2734375 -0.83075196 -0.010530434 0.99393648
1.2734277 -0.85374999 -0.010618553 0.99388605
1.2734082 -0.8771289 -0.010709304 0.9938339
1.2733691 -0.90092772 -0.010803452 0.99377984
10.709629 -8.1999416 -0.093420446 0.94747508
10.162128 -8.1938868 -0.090411872 0.94912237
9.9012985 -8.1910057 -0.089001618 0.94989663
8.9335451 -8.1803217 -0.083895564 0.95270181
8.4896088 -8.1754103 -0.081630819 0.9539488
8.0687494 -8.1707611 -0.079533651 0.95510471
7.8662887 -8.1685247 -0.078543238 0.95565104
7.6687598 -8.1663475 -0.077590138 0.95617759
7.2875681 -8.1621189 -0.075784341 0.95717472
6.9235153 -8.1581154 -0.07410831 0.95810205
6.7473927 -8.1561623 -0.073315769 0.95854139
6.4061131 -8.1523924 -0.071811028 0.95937443
5.9191794 -8.1470213 -0.069747277 0.96051842
5.762959 -8.1452732 -0.069107018 0.96087372
5.6095114 -8.1435843 -0.068489991 0.96121675
4.8806248 -8.1355276 -0.065709189 0.96276128
4.3371091 -8.1295214 -0.063816413 0.96381366
4.205996 -8.1280756 -0.063386343 0.96405375
3.9488866 -8.1252441 -0.062571026 0.96450824
3.8227735 -8.1238375 -0.062184639 0.96472311
3.5750585 -8.1211033 -0.061455686 0.9651289
3.4533203 -8.1197557 -0.06111202 0.96532035
3.3329198 -8.1184177 -0.060782623 0.96550441
2.8634863 -8.1132421 -0.059589613 0.96616971
2.7488964 -8.1119728 -0.059321709 0.96631914
2.6353221 -8.1107225 -0.059065171 0.96646202
2.5227149 -8.1094723 -0.05882103 0.96659857
2.410996 -8.108242 -0.058588028 0.96672881
2.3001561 -8.1070213 -0.058364827 0.96685296
2.1901367 -8.1058006 -0.05815544 0.9669711
2.0808983 -8.104599 -0.057953376 0.96708322
1.9723828 -8.1033983 -0.057762831 0.96718961
1.7574121 -8.1010256 -0.057412948 0.96738511
1.4394531 -8.0974998 -0.056962661 0.9676367
1.2300586 -8.0951948 -0.056711003 0.96777731
1.1260059 -8.0940332 -0.056599349 0.96783978
1.0223438 -8.0929003 -0.056497 0.96789694
0.81608397 -8.0906153 -0.056319654 0.96799588
0.71340817 -8.0894918 -0.056244735 0.96803761
0.61099607 -8.0883493 -0.056179658 0.96807438
0.50876951 -8.0872259 -0.056123618 0.96810603
0.20320313 -8.083847 -0.056005936 0.96817118
0.10154296 -8.0827246 -0.055986442 0.96818292
-3.9062499e-05 -8.0816011 -0.055972822 0.96818978
-0.10158203 -8.0804787 -0.055970915 0.96819162
-0.40637696 -8.0771093 -0.056012724 0.9681676
-0.61002928 -8.0748634 -0.056086883 0.96812671
-0.91681641 -8.0714741 -0.056262627 0.96802801
-1.0195508 -8.0703316 -0.056339417 0.96798497
-1.1226171 -8.0691891 -0.056425322 0.96793687
-1.2259766 -8.0680466 -0.056521568 0.96788359
-1.4338769 -8.065752 -0.05674015 0.96776146
-1.5384375 -8.0645895 -0.056862678 0.96769255
-1.643496 -8.063447 -0.056995887 0.96761817
-1.7490624 -8.062295 -0.057138823 0.96753842
-2.1771581 -8.0575485 -0.057807997 0.9671644
-2.2858398 -8.0563478 -0.058000792 0.96705663
-2.5054979 -8.0539255 -0.058418617 0.96682346
-2.6165233 -8.0526857 -0.058643036 0.96669787
-2.841289 -8.0501947 -0.059126548 0.9664281
-2.9551172 -8.0489454 -0.059385106 0.96628356
-3.0699608 -8.0476856 -0.059655722 0.96613252
-3.302871 -8.0451069 -0.060233649 0.96581048
-3.4210644 -8.043808 -0.060541533 0.96563905
-3.6612401 -8.041152 -0.061194494 0.96527469
-3.7832909 -8.0398045 -0.061541326 0.96508145
-4.0317383 -8.0370607 -0.062276572 0.96467179
-4.1582227 -8.0356636 -0.062665366 0.96445501
-4.4161425 -8.0328026 -0.063488044 0.96399647
-4.5476756 -8.0313473 -0.063923836 0.96375424
-4.6810546 -8.0298729 -0.064374924 0.96350306
-4.8163867 -8.0283785 -0.064842947 0.96324253
-4.9536915 -8.026865 -0.065327488 0.96297252
-5.0930858 -8.025322 -0.065832406 0.96269274
-5.3785543 -8.0221682 -0.066895366 0.96210241
-11.396328 -12.445605 -0.11687591 0.93472576
-7.4391403 -7.9218259 -0.075265653 0.95746142
-11.387685 -11.245463 -0.11084507 0.93798715
-1.0417578 -0.95389646 -0.0097828675 0.99436575
-1.0418164 -0.88412106 -0.0094635766 0.99454916
-1.0418261 -0.86185545 -0.0093648145 0.99460602
-1.0418555 -0.84004879 -0.0092691416 0.99466085
-1.041875 -0.8186816 -0.0091770934 0.99471372
-1.0418848 -0.7977246 -0.0090883253 0.9947648
-1.041914 -0.77716798 -0.0090023801 0.99481404
-1.041914 -0.75698239 -0.0089197541 0.99486166
-1.0419531 -0.73717773 -0.0088398363 0.99490744
-1.0419433 -0.7176953 -0.0087628169 0.99495184
-1.058916 -0.70993161 -0.0088298414 0.99491334
-1.0882324 -0.70995116 -0.0089988708 0.99481601
-1.1187011 -0.70993161 -0.0091765206 0.99471408
-1.1504102 -0.70994139 -0.0093625635 0.99460709
-1.2178711 -0.70994139 -0.0097632594 0.99437696
-1.3307519 -0.70993161 -0.010446014 0.99398488
-1.4152637 -0.70992184 -0.010966148 0.9936865
-1.5592968 -0.70994139 -0.011866302 0.99317002
-1.6127148 -0.70994139 -0.012204247 0.99297637
-1.6693164 -0.70994139 -0.012563705 0.99277008
-1.7732812 -0.70208007 -0.01320919 0.99239999
-1.7732812 -0.67643553 -0.013144721 0.99243689
-1.7732812 -0.65101564 -0.013082962 0.99247229
-15.001864 -4.0534472 -0.10762791 0.93973178
-15.873261 -4.0755568 -0.11350456 0.93654841
-16.565058 -4.032002 -0.1180804 0.93407696
-17.379755 -3.9996386 -0.1235194 0.93114722
-18.474707 -4.0078712 -0.13093168 0.92716885
-20.460224 -3.9029686 -0.14427692 0.92005795
-21.915771 -3.895869 -0.15416686 0.91480941
-1.774121 0.67676759 -0.018411826 0.99243313
-1.7741308 0.70244139 -0.018501967 0.99239618
-1.729287 0.70996094 -0.018126372 0.99255013
-1.6692969 0.70996094 -0.01758953 0.9927699
-1.6126952 0.70997071 -0.017085494 0.99297625
-1.4607714 0.70995116 -0.015748519 0.99352413
-1.4152734 0.70996094 -0.015352897 0.99368626
-1.3307323 0.70995116 -0.014625053 0.99398482
-1.2913965 0.70997071 -0.014289665 0.99412233
-1.2538183 0.70996094 -0.013971138 0.9942528
-1.1834179 0.70997071 -0.0133815 0.99449474
-1.1187011 0.70996094 -0.012847328 0.9947139
-1.0588964 0.70996094 -0.012361679 0.99491322
-1.0411719 0.79718751 -0.012715034 0.9947682
-1.0410937 0.83949214 -0.012968025 0.99466443
-8.6778316 8.1490431 -0.11543415 0.95349669
-11.000684 10.593603 -0.14808725 0.94073707
-7.6256833 8.1205177 -0.10801701 0.9564172
-7.2445993 8.1140041 -0.10548248 0.95742077
-6.7185645 8.1213379 -0.10220157 0.95871383
-10.873759 16.66754 -0.19297147 0.9234789
-4.9734669 8.0590334 -0.091827236 0.96282625
-4.8337693 8.0574903 -0.091110952 0.96311104
-4.5607028 8.0544624 -0.08975105 0.96365118
-4.2955079 8.0515432 -0.088486172 0.96415365
-3.9110351 8.0472755 -0.086756855 0.9648419
-3.6627147 8.0445509 -0.085709035 0.96525961
-3.5407617 8.0432034 -0.085212782 0.96545678
-3.0661817 8.0379591 -0.083417319 0.9661721
-2.8360252 8.0354195 -0.082625009 0.96648794
-2.278125 8.0292578 -0.080927618 0.96716487
-1.9535059 8.0256739 -0.080092236 0.96749836
-1.5301172 8.0209761 -0.079177432 0.96786368
-1.3217871 8.018672 -0.078802489 0.9680137
-1.2183007 8.017539 -0.078633495 0.9680807
-0.9103027 8.0141211 -0.078208081 0.96825081
-0.70662105 8.0118847 -0.077988662 0.96833861
-0.30205077 8.0074215 -0.077698477 0.9684543
-0.10061523 8.0051947 -0.077627562 0.96848255
-1.953125e-05 8.0040913 -0.077611238 0.96848929
0.20110351 8.0018454 -0.077614054 0.96848822
0.40242186 7.9996285 -0.077665024 0.96846735
0.50317383 7.9985251 -0.077710837 0.96844959
0.60409176 7.9974022 -0.077767983 0.96842694
0.70516598 7.9962988 -0.077836528 0.96839923
0.80645508 7.9951563 -0.077918358 0.96836674
1.5236034 7.987236 -0.078845099 0.96799678
1.7321875 7.9849315 -0.079226494 0.96784419
1.8372852 7.983789 -0.079437368 0.96775979
1.9429394 7.9825974 -0.079663806 0.96767002
2.1561718 7.9802537 -0.080155447 0.96747357
2.2638085 7.9790626 -0.080422819 0.96736681
2.702168 7.9742088 -0.081639864 0.96688086
2.8139453 7.9729781 -0.081983104 0.96674407
3.0403807 7.9704685 -0.082718238 0.96645141
3.3881347 7.9666305 -0.083944894 0.96596247
3.9929492 7.9599509 -0.086350061 0.96500415
4.2450976 7.9571676 -0.08744999 0.96456641
4.5039353 7.9543066 -0.088634223 0.96409506
5.0441113 7.9483395 -0.091280594 0.96304333
5.1843457 7.9467869 -0.092004009 0.9627561
5.3268552 7.9452047 -0.092753485 0.96245843
5.4717188 7.9436131 -0.093529776 0.96215004
5.7689157 7.9403319 -0.095169142 0.96149987
6.0769529 7.9369235 -0.096928023 0.9608022
6.235322 7.9351659 -0.097856179 0.96043456
6.3967967 7.9333887 -0.098817557 0.96005362
6.5614648 7.9315524 -0.099813648 0.9596591
6.9011912 7.927793 -0.1019178 0.95882654
7.0765233 7.925869 -0.10302875 0.95838749
7.4390721 7.9218554 -0.1053738 0.95746052
7.6266308 7.919785 -0.10661346 0.95697141
7.8187008 7.9176559 -0.10789947 0.95646399
8.2172756 7.9132519 -0.1106192 0.95539129
8.4242382 7.9109664 -0.11205856 0.95482433
8.6366987 7.9086132 -0.1135535 0.95423555
8.8549709 7.9062109 -0.11510731 0.95362389
9.0793066 7.9037399 -0.11672195 0.95298845
9.3100977 7.9011912 -0.11840526 0.95232779
9.547636 7.8985643 -0.12015235 0.95164084
10.304932 7.8901954 -0.12584804 0.9494074
1.2724999 0.924541 -0.015251388 0.99372786
1.2725195 0.90034175 -0.015115051 0.99378383
1.2725683 0.85321289 -0.014856109 0.99388999
1.2725977 0.83023435 -0.014733466 0.99394023
1.2726074 0.80763668 -0.014615135 0.99398887
1.2726464 0.78540039 -0.014500884 0.9940356
1.2726758 0.74193358 -0.01428421 0.99412447
1.2913965 0.70996094 -0.014289398 0.99412233
1.3307226 0.70996094 -0.014624862 0.99398482
1.3719823 0.70996094 -0.014978828 0.99383962
1.4152637 0.70995116 -0.015352821 0.99368632
1.5087011 0.70996094 -0.016167983 0.99335229
1.6127343 0.70995116 -0.017085837 0.99297613
1.7931445 0.70996094 -0.018700371 0.99231499
1.861123 0.70996094 -0.01931488 0.99206352
1.9935254 0.70361328 -0.020498961 0.99157906
1.9934667 -0.64770508 -0.020324439 0.99165046
1.9935449 -0.70358396 -0.020498808 0.991579
1.8611327 -0.70994139 -0.019314766 0.99206352
1.7931249 -0.70994139 -0.018700331 0.99231511
1.6693066 -0.70993161 -0.017589264 0.99276996
1.6127245 -0.70992184 -0.017085837 0.99297619
1.5087304 -0.70994139 -0.016167793 0.99335223
1.4608008 -0.70994139 -0.015748749 0.99352401
1.4152637 -0.70994139 -0.015353088 0.99368632
1.3307519 -0.70994139 -0.014624824 0.99398476
1.2913867 -0.70993161 -0.014289474 0.99412239
1.2727051 -0.72063476 -0.014181709 0.99416655
1.2726562 -0.76347655 -0.014390525 0.9940809
1.2726464 -0.78538084 -0.014500808 0.99403566
1.2725977 -0.83022457 -0.014733391 0.99394029
1.2725879 -0.85317379 -0.0148563 0.99388999
1.2725488 -0.87654293 -0.014983177 0.99383789
1.2724999 -0.92451167 -0.015251426 0.99372792
1.2724707 -0.94914061 -0.015392799 0.99366993
10.709629 -8.1999512 -0.13079156 0.94747388
10.162119 -8.1938963 -0.12657823 0.94912124
9.901289 -8.1910152 -0.12460319 0.9498955
9.4031248 -8.1855078 -0.12088722 0.95135349
8.7085352 -8.1778517 -0.11583897 0.95333612
8.0687695 -8.1707811 -0.11134967 0.95510364
7.6687498 -8.1663475 -0.10862705 0.95617664
7.4759178 -8.1642189 -0.10734078 0.95668423
7.2875586 -8.1621389 -0.10610088 0.95717376
7.1035156 -8.1601076 -0.10490631 0.95764571
6.7473826 -8.1561718 -0.10264163 0.95854044
6.2406149 -8.1505661 -0.099538609 0.95976841
6.0783591 -8.1487694 -0.098576769 0.96014959
5.762949 -8.1452827 -0.096749529 0.96087283
5.4588184 -8.1419134 -0.095050998 0.9615469
5.3106642 -8.1402826 -0.094245486 0.96186656
5.165 -8.1386719 -0.093467861 0.96217507
5.021699 -8.1370897 -0.092717171 0.96247292
4.7417188 -8.1339846 -0.09129528 0.96303791
4.3371286 -8.1295214 -0.089345396 0.96381283
3.9489062 -8.1252346 -0.087598681 0.96450746
3.8227735 -8.123847 -0.087060243 0.96472228
3.6982031 -8.1224508 -0.086539954 0.9649291
3.5750585 -8.1210938 -0.086039998 0.96512818
3.4533398 -8.1197557 -0.085559078 0.96531957
2.979121 -8.1145115 -0.083818056 0.96601295
2.8634765 -8.1132326 -0.083427429 0.966169
2.7489061 -8.1119728 -0.083052404 0.96631837
2.6353126 -8.1107225 -0.08269348 0.9664613
2.1901171 -8.1058006 -0.081417963 0.96697038
2.0808885 -8.104599 -0.081136629 0.9670825
1.9723828 -8.1034079 -0.080869943 0.96718884
1.7574023 -8.1010256 -0.080378987 0.96738434
1.4394531 -8.0974998 -0.079748727 0.96763599
1.3345116 -8.0963373 -0.079565771 0.967709
1.0223438 -8.0929003 -0.079096794 0.96789622
0.81607419 -8.0906248 -0.078849636 0.96799511
0.4067871 -8.0860939 -0.078507423 0.96813202
0.20318359 -8.0838375 -0.078410454 0.96817046
0.10155273 -8.082715 -0.078381464 0.96818227
-9.7656248e-06 -8.0816011 -0.07836403 0.96818906
-0.203125 -8.0793362 -0.078367077 0.96818793
-0.4063867 -8.0770998 -0.07841976 0.96816689
-0.50812501 -8.0759859 -0.078464203 0.96814895
-0.91682613 -8.071455 -0.07876949 0.96802735
-1.0195606 -8.0703421 -0.078877106 0.9679842
-1.1225879 -8.0691795 -0.078997537 0.96793622
-1.7490624 -8.0622854 -0.079995036 0.9675377
-2.1771483 -8.057539 -0.080932997 0.96716368
-2.2858398 -8.0563478 -0.081203081 0.96705586
-2.3952539 -8.0551167 -0.081487842 0.96694237
-2.5054686 -8.053916 -0.081787758 0.96682274
-2.728457 -8.051445 -0.08243221 0.96656537
-3.0699413 -8.0476856 -0.083519168 0.96613181
-3.302871 -8.0450974 -0.084327884 0.96580976
-3.4210742 -8.0437889 -0.084758721 0.96563834
-3.540498 -8.0424709 -0.085206755 0.96545982
-3.6612303 -8.0411425 -0.085672073 0.96527398
-3.7833006 -8.0398045 -0.086158678 0.96508068
-4.0317187 -8.0370502 -0.087187879 0.96467108
-4.2863278 -8.0342283 -0.088297993 0.96422929
-4.6810641 -8.0298824 -0.090125844 0.96350217
-4.8163962 -8.0283785 -0.090782434 0.9632417
-4.953711 -8.026865 -0.091461025 0.96297169
-5.3785448 -8.0221682 -0.093653984 0.96210158
-5.9285545 -7.9479098 -0.096145816 0.96111244
-6.9081836 -7.9356833 -0.10201919 0.95878613
-11.396347 -12.445615 -0.16363057 0.93472427
-7.8253121 -7.9242282 -0.10798816 0.95642835
-11.380293 -10.686772 -0.15137489 0.93946111
-1.0410156 -0.92944336 -0.013531875 0.99443305
-1.0410742 -0.88350582 -0.013239708 0.99455291
-1.0410742 -0.86124998 -0.013101463 0.99460977
-1.0411328 -0.81811523 -0.012839165 0.9947173
-1.0412011 -0.77664059 -0.012595177 0.99481744
-1.04125 -0.71722656 -0.012259674 0.99495506
-1.058916 -0.70993161 -0.012361717 0.99491322
-1.2178711 -0.70994139 -0.013668899 0.99437684
-1.2538183 -0.70994139 -0.013971291 0.99425286
-1.5087402 -0.70994139 -0.016167983 0.99335217
-1.5592968 -0.70994139 -0.01661293 0.9931699
-1.6127148 -0.70994139 -0.017085837 0.99297619
-1.774121 -0.70241207 -0.018502312 0.99239624
-1.7741308 -0.67673826 -0.018411826 0.99243313
-1.7740917 -0.65132809 -0.018325347 0.99246866
-14.37289 -4.0779395 -0.14486779 0.94198716
-15.873271 -4.0755663 -0.15890785 0.93654692
-17.379765 -3.9996483 -0.17292875 0.93114567
-1.7749804 0.67708004 -0.02368431 0.99242926
-1.775 0.70277339 -0.023800353 0.99239224
-1.6126952 0.70997071 -0.021968001 0.99297601
-1.5087011 0.70996094 -0.020787811 0.99335206
-1.3719823 0.70996094 -0.019258881 0.99383938
-1.2537988 0.70996094 -0.017963294 0.99425274
-1.2178515 0.70997071 -0.017574806 0.99437666
-1.1834179 0.70996094 -0.017205046 0.99449462
-1.1187011 0.70996094 -0.016518516 0.99471372
-1.0882128 0.70997071 -0.016198844 0.99481577
-1.0405371 0.73621094 -0.015891036 0.994914
-1.0405176 0.75598633 -0.016034355 0.99486822
-1.0404785 0.77612305 -0.016183052 0.99482083
-1.0404395 0.79665035 -0.016336937 0.99477166
-1.0403711 0.83889645 -0.016661834 0.99466801
-1.040332 0.86067379 -0.016833037 0.99461335
-1.0402343 0.92878902 -0.017385826 0.99443692
-8.6940041 8.1642189 -0.14869478 0.95341069
-10.910205 13.884345 -0.22014572 0.93179935
-5.1154294 8.060586 -0.11902031 0.96253002
-4.9734669 8.0590229 -0.11806537 0.96282518
-4.5607128 8.0544624 -0.11539726 0.96365005
-3.9110448 8.0472755 -0.11154778 0.96484083
-3.786123 8.0458889 -0.11085987 0.96505368
-3.5407617 8.0432034 -0.10956241 0.96545577
-3.4202147 8.0418549 -0.10894993 0.96564543
-3.3009472 8.0405369 -0.10836212 0.96582782
-2.9505761 8.0366602 -0.10673351 0.96633244
-2.8360448 8.0354004 -0.106235 0.96648699
-2.7225585 8.0341406 -0.10575695 0.96663505
-2.6100781 8.0328999 -0.10530098 0.96677661
-2.3879101 8.0304298 -0.10444931 0.96704102
-2.278125 8.0292482 -0.10405277 0.96716392
-2.1691406 8.0280466 -0.10367565 0.96728092
-2.0609667 8.0268354 -0.10331772 0.96739209
-1.8467187 8.0244627 -0.10265698 0.96759719
-1.6350781 8.0221186 -0.10207008 0.96777976
-1.5301172 8.0209665 -0.1018013 0.96786278
-1.3217871 8.0186615 -0.10131897 0.96801275
-1.1152539 8.0163765 -0.10090404 0.96814167
-1.0125879 8.0152636 -0.10072166 0.96819824
-0.50397462 8.0096283 -0.10005424 0.96840549
-0.40294921 8.0085058 -0.099970512 0.96843195
-0.30205077 8.007412 -0.099900663 0.96845341
-0.1006543 8.0051661 -0.099809796 0.96848172
0.30172852 8.0007324 -0.099817194 0.96847928
0.40242186 7.999619 -0.099858932 0.96846646
0.50317383 7.9984961 -0.099916533 0.96844876
0.80641598 7.9951463 -0.10018234 0.96836585
1.0096778 7.9929004 -0.10044098 0.96828562
1.1117382 7.9917674 -0.10059463 0.96823794
1.316875 7.989502 -0.10095085 0.96812725
1.523584 7.9872165 -0.10137375 0.96799588
1.7321875 7.9849119 -0.10186543 0.96784329
1.8372656 7.9837594 -0.10213653 0.96775889
1.9429394 7.9825878 -0.10242637 0.96766907
2.0492284 7.9814157 -0.10273288 0.96757364
2.1561718 7.9802442 -0.10305759 0.96747261
2.2638085 7.979043 -0.10340244 0.96736592
2.3721874 7.9778419 -0.10376499 0.96725339
2.4813573 7.9766402 -0.1041465 0.96713489
2.702168 7.9741988 -0.10496849 0.9668799
2.8139453 7.9729686 -0.10540981 0.96674305
3.1551855 7.9691992 -0.10685726 0.96629417
3.3881347 7.9666209 -0.10793079 0.96596146
3.5064061 7.9653125 -0.10850178 0.96578461
3.6259863 7.963994 -0.10909607 0.96560049
3.8691893 7.9612985 -0.11035629 0.96520996
3.9929492 7.9599414 -0.11102356 0.96500313
4.3736329 7.9557323 -0.11318623 0.96433407
4.7700195 7.9513574 -0.11560001 0.96358705
4.9060254 7.9498534 -0.11646633 0.96331954
5.1843457 7.9467773 -0.11829273 0.96275496
5.3268456 7.9452047 -0.11925747 0.9624573
5.7689157 7.9403319 -0.12236347 0.96149874
5.9215331 7.9386325 -0.12347309 0.96115601
6.0769434 7.9369235 -0.12462631 0.96080106
6.2353125 7.9351659 -0.12581798 0.96043336
6.3967967 7.9333787 -0.12705369 0.96005243
6.5615039 7.931572 -0.12833527 0.95965773
6.7295508 7.929697 -0.12966368 0.95924902
7.2557516 7.9238963 -0.13394712 0.9579311
7.4390621 7.921865 -0.13548294 0.95745927
7.6266403 7.9197946 -0.13707653 0.95697004
8.2172947 7.9132519 -0.14222533 0.95538992
8.4242773 7.9109859 -0.14407738 0.95482278
8.8549709 7.9062109 -0.14799751 0.95362252
9.0793066 7.9037399 -0.15007532 0.95298702
9.3100977 7.9011912 -0.15223618 0.95232636
9.5476465 7.8985739 -0.15448578 0.95163935
10.044648 7.893086 -0.15926619 0.95018059
10.304971 7.8902049 -0.16180906 0.94940579
1.2716016 0.94852537 -0.019777717 0.99367398
1.2717383 0.85265625 -0.01908863 0.99389374
1.2717968 0.80711913 -0.018778954 0.99399251
1.2718261 0.78489256 -0.018632278 0.9940393
1.2718652 0.74145508 -0.018354187 0.99412799
1.2718945 0.72021484 -0.018222693 0.99417001
1.3719823 0.70995116 -0.019258918 0.99383944
1.4607812 0.70995116 -0.020248489 0.9935239
1.5087011 0.70996094 -0.020787735 0.99335206
1.5592871 0.70996094 -0.021359786 0.99316967
1.6127343 0.70995116 -0.021967888 0.99297589
1.7292968 0.70995116 -0.023305548 0.9925499
1.7931445 0.70996094 -0.024043465 0.99231476
1.8611034 0.70995116 -0.024833679 0.99206334
1.9956152 0.70433593 -0.026383819 0.99157
1.9955761 0.67624021 -0.026268883 0.99160659
1.9955468 0.6483984 -0.026159095 0.99164152
1.9955468 -0.64837891 -0.026159057 0.99164152
1.9956152 -0.7043457 -0.026384048 0.99157
1.9337499 -0.70993161 -0.025681876 0.99179339
1.7293261 -0.70993161 -0.023306007 0.99254978
1.6693066 -0.70994139 -0.022615585 0.99276972
1.6127245 -0.70993161 -0.021968041 0.99297595
1.5087304 -0.70994139 -0.020788154 0.993352
1.2914063 -0.70993161 -0.01837242 0.99412215
1.271875 -0.74142575 -0.018354148 0.99412805
1.2718555 -0.76297849 -0.018490868 0.99408448
1.2718164 -0.78487301 -0.018632354 0.99403936
1.2716405 -0.89971679 -0.019420929 0.99378794
10.709648 -8.1999311 -0.16816303 0.94747233
10.431406 -8.1968651 -0.1654003 0.94831312
10.162148 -8.1938772 -0.16274807 0.94911969
9.9013081 -8.1910057 -0.16020696 0.94989395
9.648447 -8.1882229 -0.15776929 0.95063752
9.4031248 -8.1855078 -0.15542693 0.95135206
9.1649704 -8.1828613 -0.1531779 0.95203882
8.9335346 -8.1803217 -0.15101591 0.9526993
8.7085352 -8.1778412 -0.14893961 0.95333475
8.2764645 -8.1730566 -0.1450184 0.95453513
8.0687695 -8.1707716 -0.14316602 0.95510226
7.1035056 -8.1600971 -0.13488121 0.95764446
6.9235153 -8.1581049 -0.13340005 0.95809984
6.7473826 -8.1561718 -0.13197081 0.95853919
6.2406054 -8.1505661 -0.12798153 0.95976722
6.0783396 -8.1487694 -0.12674347 0.96014845
5.762949 -8.1452827 -0.12439712 0.96087164
5.6095309 -8.1435843 -0.12328453 0.9612146
5.4588084 -8.1419239 -0.12221168 0.96154571
5.0216599 -8.1370897 -0.119211 0.96247184
4.6048732 -8.1324902 -0.11651531 0.96330446
4.4700489 -8.1309958 -0.11568081 0.96356273
4.0766015 -8.1266603 -0.11335105 0.96428329
3.9489062 -8.1252441 -0.11262993 0.96450633
3.6982031 -8.1224604 -0.11126743 0.96492803
3.5750389 -8.1211233 -0.11062466 0.96512705
3.4533203 -8.1197653 -0.11000633 0.9653185
2.979121 -8.1145315 -0.10776905 0.96601188
2.7489061 -8.1119823 -0.10678436 0.9663173
2.3001561 -8.1070309 -0.10506245 0.96685117
2.1901171 -8.1058102 -0.10468166 0.96696931
1.9723828 -8.1034174 -0.10397712 0.96718776
1.7574023 -8.1010351 -0.10334732 0.96738333
1.6508594 -8.0998535 -0.10305889 0.96747267
1.3345116 -8.0963573 -0.1023019 0.96770793
1.1259961 -8.0940428 -0.1018829 0.96783805
1.0223438 -8.0929098 -0.10169857 0.96789521
0.91904294 -8.0917578 -0.10153095 0.9679473
0.7133984 -8.0895119 -0.10124592 0.96803588
0.50875974 -8.0872259 -0.10102596 0.96810436
0.40674803 -8.086113 -0.10093971 0.96813101
-4.8828122e-05 -8.0816212 -0.10075638 0.96818799
-0.20314452 -8.0793648 -0.10075924 0.96818686
-0.30473632 -8.0782518 -0.10078571 0.96817881
-0.4063867 -8.0771093 -0.10082699 0.96816587
-0.81433594 -8.0726271 -0.10115474 0.96806419
-0.91682613 -8.0714645 -0.10127667 0.96802634
-1.2259862 -8.0680666 -0.10174221 0.96788186
-1.4338866 -8.0657616 -0.10213462 0.96775973
-1.538457 -8.0646095 -0.10235695 0.96769077
-1.7490624 -8.062295 -0.10285255 0.96753669
-1.8551855 -8.0611029 -0.10312729 0.96745163
-1.9618652 -8.0599318 -0.10341907 0.96736091
-2.0691991 -8.0587397 -0.10372909 0.96726459
-2.2858593 -8.0563574 -0.10440548 0.96705484
-2.395293 -8.0551367 -0.10477176 0.96694124
-2.728457 -8.051465 -0.10598716 0.9665643
-2.8412988 -8.0502052 -0.10643207 0.96642625
-3.1858494 -8.0463963 -0.10789352 0.96597314
-3.302871 -8.0451069 -0.10842354 0.96580869
-3.540498 -8.0424805 -0.10955337 0.96545875
-4.2863574 -8.0342379 -0.11352912 0.96422809
-4.5476952 -8.0313568 -0.11506595 0.96375227
-4.8164062 -8.0283785 -0.11672199 0.96324056
-4.9536815 -8.0268555 -0.11759602 0.96297061
-5.3785739 -8.0221777 -0.12041283 0.96210033
-14.628418 -19.105503 -0.2999942 0.90822959
-15.551767 -18.325043 -0.29964775 0.90833127
-15.776386 -18.12306 -0.29956344 0.90835589
-15.998515 -17.918505 -0.29948008 0.90837967
-7.4391599 -7.9218359 -0.13548517 0.95745909
-17.275137 -16.63579 -0.29900086 0.90851933
-1.0402343 -0.92876953 -0.017385826 0.99443698
-1.0402734 -0.90556639 -0.017194901 0.9944979
-1.0403125 -0.88286132 -0.017010842 0.99455667
-1.0403417 -0.86062497 -0.01683319 0.99461341
-1.0404882 -0.7761035 -0.016183013 0.99482083
-1.0405078 -0.75595701 -0.016034545 0.99486828
-1.0405273 -0.73618162 -0.015891036 0.99491411
-1.058916 -0.70993161 -0.015894126 0.9949131
-1.1187011 -0.70993161 -0.016518364 0.99471378
-1.1504102 -0.70994139 -0.016853638 0.99460685
-1.3307323 -0.70992184 -0.018803939 0.9939847
-1.3719921 -0.70994139 -0.019259071 0.99383938
-1.4152637 -0.70992184 -0.019739952 0.9936862
-1.4607812 -0.70992184 -0.020248642 0.99352396
-1.6693164 -0.70994139 -0.022615356 0.99276966
-1.7293457 -0.70997071 -0.02330593 0.99254966
