# .PCD v0.7 - Point Cloud Data file format
VERSION 0.7
FIELDS x y z intensity
SIZE 4 4 4 4
TYPE F F F F
COUNT 1 1 1 1
WIDTH 1077
HEIGHT 1
VIEWPOINT 0 0 0 1 0 0 0
POINTS 1077
DATA ascii
1.6255566 7.975791 0.078927308 0.96796381
1.7299707 7.9746289 0.079124674 0.96788502
1.9404491 7.9723043 0.079561114 0.96771103
2.046582 7.9711227 0.079799801 0.96761578
2.2608984 7.9687595 0.080318488 0.96740824
2.3691504 7.9675779 0.080601007 0.96729577
2.478164 7.9663672 0.080897368 0.96717751
2.5879881 7.9651465 0.081208803 0.96705323
2.8102832 7.9626856 0.081878014 0.96678627
3.2668653 7.9576464 0.083410263 0.9661752
3.3837891 7.9563575 0.083836779 0.96600556
3.5019042 7.9550486 0.084280051 0.96582896
3.6213183 7.9537301 0.084741399 0.96564507
3.7420604 7.9524021 0.085220486 0.9654538
3.9877734 7.9496775 0.08623939 0.96504855
4.1129298 7.9482908 0.086778142 0.96483397
4.3680272 7.945488 0.087917171 0.96438015
4.6300683 7.9425778 0.089145884 0.96389192
4.8997169 7.9395995 0.090465121 0.96336704
5.1776462 7.9365234 0.091885298 0.96280324
5.6117773 7.9317183 0.094212189 0.96187907
5.7614942 7.9300585 0.095046349 0.96154863
5.9139061 7.9283886 0.095909081 0.96120632
6.0691309 7.9266891 0.096803665 0.96085173
6.2272949 7.9249315 0.097730257 0.9604845
6.3885641 7.9231443 0.098689497 0.96010411
6.5530467 7.9213281 0.099685937 0.95970994
6.7208982 7.9194727 0.10071785 0.95930165
6.8923144 7.9175777 0.10178726 0.95887846
7.0674219 7.9156442 0.10289497 0.95843995
7.429492 7.9116406 0.10523899 0.95751417
7.8086424 7.9074411 0.10775921 0.95651889
8.843564 7.8960156 0.11495937 0.9536823
9.0676069 7.8935251 0.11657199 0.95304763
10.29167 7.8800097 0.12568633 0.94947094
10.560137 7.8770504 0.127746 0.94866455
1.2813281 0.90656251 0.015219727 0.99374098
1.2812304 0.88254881 0.015085792 0.99379593
1.2810448 0.83576173 0.014831771 0.99390012
1.2809863 0.81292969 0.01471138 0.99394947
1.2808985 0.79048824 0.014595184 0.9939971
1.28083 0.76837891 0.014483032 0.99404299
1.2807519 0.7466113 0.014375038 0.99408734
1.2806737 0.72517574 0.014270859 0.99413007
1.4152539 0.70994139 0.015353088 0.99368638
1.6127148 0.70996094 0.017086335 0.99297619
1.7293164 0.70996094 0.018126793 0.99255002
1.7931347 0.70994139 0.018700676 0.99231505
1.9337499 0.70995116 0.019974593 0.99179363
1.9790527 0.67064452 0.020262184 0.99167603
1.9790624 -0.6706543 0.020262526 0.99167603
1.9337401 -0.70994139 0.019974479 0.99179369
1.8611132 -0.70995116 0.019314919 0.99206358
1.7931249 -0.70995116 0.018700523 0.99231511
1.4152637 -0.70994139 0.015353279 0.99368632
1.3719629 -0.70995116 0.014979286 0.99383968
1.2807422 -0.7466113 0.014375038 0.9940874
1.28083 -0.76836914 0.014483223 0.99404305
1.2809765 -0.81292969 0.014711342 0.99394947
1.2810644 -0.83575195 0.014831771 0.99390006
1.2811328 -0.85894531 0.014956664 0.99384898
1.2812109 -0.88254881 0.015085792 0.99379599
11.011406 -8.2136135 0.13320431 0.94653064
10.72332 -8.2104101 0.13095623 0.94740862
10.175077 -8.2043753 0.12674205 0.949058
9.9139252 -8.2014742 0.12476173 0.94983315
9.4151459 -8.1959667 0.12104061 0.95129287
9.1766596 -8.1933393 0.11928821 0.95198047
8.5004492 -8.1858587 0.11442997 0.95389026
7.2968946 -8.1725683 0.10623661 0.95712012
7.1125779 -8.170537 0.10503967 0.95759279
6.9323435 -8.1685247 0.10388672 0.95804876
6.7560153 -8.1665916 0.10277378 0.95848858
6.5833883 -8.1646872 0.10169914 0.95891303
6.4143162 -8.1628122 0.10066506 0.95932263
6.2485743 -8.1609859 0.099665791 0.95971811
6.086123 -8.1591892 0.098703004 0.9600997
5.9267478 -8.1574221 0.09777271 0.96046811
5.6166797 -8.1539841 0.096007615 0.96116728
5.1715817 -8.1490917 0.093586922 0.96212769
5.0280662 -8.1475 0.092837028 0.96242595
4.6107616 -8.1428804 0.090738028 0.96325958
4.475781 -8.141387 0.090087429 0.96351808
4.2113671 -8.1384573 0.088854291 0.96400785
4.0818357 -8.1370306 0.088272668 0.9642396
3.9539354 -8.1356153 0.087711334 0.96446294
3.7029102 -8.1328516 0.086650468 0.96488506
3.5796094 -8.1314936 0.086148679 0.96508437
3.337168 -8.128808 0.085205533 0.9654603
3.2178905 -8.1274805 0.084761009 0.96563733
3.0998242 -8.1261721 0.084334642 0.96580726
2.8671288 -8.1236134 0.08353363 0.9661265
2.525918 -8.1198244 0.082455747 0.96655589
2.4140821 -8.1186037 0.082129665 0.96668625
2.3030858 -8.117383 0.081818081 0.96681058
2.1929297 -8.1161623 0.081521608 0.96692884
2.083545 -8.1149607 0.081240043 0.96704113
1.9749023 -8.1137495 0.080972366 0.96714765
1.7596679 -8.1113672 0.080482788 0.96734339
1.6529688 -8.1101856 0.080258749 0.96743286
1.5468554 -8.1090231 0.080047607 0.96751678
1.3362304 -8.106699 0.079668008 0.96766829
0.92023438 -8.1020994 0.079068109 0.96790797
0.8171289 -8.1009369 0.078950651 0.96795499
0.61175781 -8.0986814 0.078753009 0.96803355
0.40727538 -8.0964155 0.078607865 0.96809202
0.30529296 -8.0953026 0.078552589 0.96811366
-0.10168945 -8.0908108 0.078459814 0.96815091
-0.20339844 -8.0896873 0.078466602 0.96814781
-0.40688476 -8.0874214 0.078520432 0.96812689
-0.50878906 -8.0862989 0.078565441 0.96810889
-0.61080074 -8.0851755 0.078622133 0.96808594
-0.71296871 -8.0840425 0.078692131 0.96805805
-0.91798824 -8.0817776 0.078869931 0.96798712
-1.124043 -8.0795021 0.079098813 0.96789587
-1.2275586 -8.0783691 0.079232484 0.96784246
-1.6455957 -8.0737495 0.079897612 0.96757674
-1.7513086 -8.0725679 0.080097578 0.96749699
-2.1799414 -8.0678415 0.081036754 0.96712238
-2.2887499 -8.0666409 0.081306189 0.96701449
-2.508662 -8.064189 0.081891708 0.96678114
-2.6198633 -8.0629683 0.082207143 0.96665531
-2.8449023 -8.0604982 0.082884975 0.96638513
-2.9588768 -8.0592384 0.083247907 0.96624047
-3.0738573 -8.0579681 0.083627202 0.96608925
-3.1899121 -8.0566797 0.084023476 0.96593148
-3.4254491 -8.0540724 0.084866524 0.96559519
-4.0368748 -8.0473146 0.08729919 0.96462673
-4.1635351 -8.045908 0.087844886 0.96440971
-4.4217772 -8.0430565 0.089000277 0.96395051
-4.5534863 -8.0416212 0.089609109 0.96370792
-5.2413864 -8.0340137 0.093015291 0.96235478
-5.3854098 -8.0324316 0.093772806 0.96205401
-5.5318747 -8.0308008 0.094558142 0.96174246
-5.6808004 -8.0291595 0.095371857 0.9614197
-7.2731638 -7.9427829 0.10443024 0.95783395
-16.05537 -16.672338 0.22443539 0.91156828
-16.257616 -16.463203 0.22435497 0.9115994
-1.0484179 -0.93606442 0.013628463 0.99439359
-1.0483007 -0.91255856 0.013476905 0.99445575
-1.0481933 -0.8895703 0.013331031 0.99451566
-1.0481347 -0.86707032 0.013190308 0.99457335
-1.0479394 -0.82344723 0.012923202 0.99468291
-1.0478516 -0.80229491 0.012796859 0.99473476
-1.047627 -0.74121094 0.012443885 0.9948796
-1.0475488 -0.7215625 0.012334213 0.99492466
-1.0589062 -0.70995116 0.012362098 0.99491322
-1.0882226 -0.70994139 0.012599181 0.99481595
-1.1504102 -0.70994139 0.013108215 0.99460697
-1.1834081 -0.70994139 0.013381843 0.99449486
-1.2178613 -0.70995116 0.013669204 0.99437684
-1.3307421 -0.70994139 0.014624938 0.99398476
-1.3719629 -0.70993161 0.014979095 0.99383974
-1.5592871 -0.70995116 0.016613236 0.9931699
-1.6692871 -0.70994139 0.017589454 0.99277002
-1.7681738 -0.67450196 0.018350638 0.9924584
-23.267998 -8.2122116 0.23925906 0.9060114
-15.33664 -4.1438966 0.15404476 0.93842775
-16.813965 -4.0925779 0.16779621 0.93311882
-18.327265 -3.9758885 0.18184505 0.92772698
-21.343622 -4.0715137 0.21069331 0.91675222
-24.32416 -4.0094142 0.23904422 0.90609223
-1.769043 0.64949214 0.013052215 0.99249017
-1.7690332 0.70040035 0.013177948 0.99241817
-1.6127245 0.70995116 0.012204285 0.99297631
-1.5592871 0.70995116 0.011866608 0.99317008
-1.5087304 0.70994139 0.011548652 0.99335235
-1.4607714 0.70996094 0.011248969 0.99352425
-1.4152734 0.70995116 0.010966186 0.99368644
-1.3719727 0.70995116 0.010699158 0.9938398
-1.2913867 0.70995116 0.010206833 0.99412251
-1.1504102 0.70995116 0.0093630217 0.99460709
-1.0882324 0.70995116 0.0089992899 0.99481601
-1.0454491 0.72011715 0.0087923808 0.99493492
-1.0454687 0.7396875 0.0088700103 0.99489027
-1.0454882 0.77985352 0.009033775 0.99479622
-1.0455078 0.82156247 0.0092095947 0.99469525
-1.0455371 0.84304684 0.0093022538 0.99464196
-11.875654 11.436162 0.11418781 0.93617857
-11.856962 12.312588 0.11839084 0.93390965
-6.0122557 8.0601759 0.069644086 0.9605751
-5.854795 8.0584373 0.06898693 0.96093929
-5.7002735 8.0567188 0.068355098 0.96129084
-5.5485153 8.0550489 0.067744061 0.96163017
-5.3994336 8.0534077 0.067154385 0.96195781
-5.2529101 8.0517969 0.066584162 0.96227407
-4.9670606 8.0486231 0.065506168 0.96287417
-4.8275485 8.0470896 0.064994887 0.96315861
-4.5548434 8.0440626 0.064023547 0.96369797
-4.4214649 8.0426073 0.063564606 0.96395344
-4.2899704 8.0411425 0.063123018 0.9641999
-4.1602931 8.0397263 0.062696531 0.96443743
-4.0323143 8.0383205 0.062285576 0.96466643
-3.9059863 8.0369139 0.061888542 0.9648872
-3.7812402 8.0355368 0.061507337 0.96509975
-3.6579978 8.0341702 0.061141051 0.96530443
-3.5362108 8.0328121 0.060787849 0.96550137
-3.4158008 8.0314941 0.060448188 0.96569079
-3.2967088 8.0301857 0.06012081 0.96587282
-3.1788769 8.0288572 0.059807166 0.96604788
-3.0622363 8.0275784 0.059507255 0.96621579
-2.946748 8.0263081 0.059218634 0.96637684
-2.8323925 8.0250387 0.05894104 0.96653122
-2.6066992 8.0225487 0.058422964 0.96682048
-2.3848243 8.0200977 0.057951085 0.96708447
-2.1663671 8.0176849 0.057520941 0.96732414
-2.0583203 8.0164843 0.057323225 0.96743518
-1.9509765 8.0153027 0.057134781 0.96754038
-1.7383691 8.012949 0.056787491 0.96773386
-1.6329687 8.0117865 0.056629334 0.96782225
-1.5281249 8.0106344 0.056482695 0.96790522
-1.4238573 8.0094728 0.056343079 0.96798277
-1.3200586 8.0083303 0.056213796 0.96805501
-1.2167187 8.0071869 0.056093827 0.96812201
-1.011289 8.0049219 0.055882987 0.96824032
-0.80728513 8.002656 0.055706825 0.96833819
-0.6043945 8.0004292 0.055568732 0.96841586
-0.40239257 7.9981933 0.055465277 0.96847367
-4.8828122e-05 7.9937496 0.055363882 0.96853006
0.10040039 7.9926267 0.055360451 0.96853197
0.20084961 7.9915233 0.055366859 0.96852893
0.3013379 7.9904199 0.05538078 0.96852094
0.40188476 7.9892969 0.055403668 0.96850818
0.60331053 7.9870701 0.055476569 0.96846777
1.0083984 7.9825974 0.055727005 0.96832752
1.1103222 7.9814744 0.055811957 0.96827984
1.2125781 7.9803514 0.05590618 0.96822715
1.3151758 7.9792089 0.056009404 0.96816933
1.4182031 7.9780664 0.05612297 0.96810633
1.5216405 7.9769235 0.05624504 0.96803814
1.7299707 7.9746289 0.056516152 0.96788573
1.8349316 7.9734764 0.056667745 0.96780145
2.2608984 7.9687595 0.057370681 0.96740896
2.3691504 7.9675779 0.057571791 0.96729648
2.5879881 7.9651465 0.058005828 0.96705401
2.6987011 7.9639258 0.058239248 0.96692359
2.9228809 7.9614353 0.058739737 0.96664411
3.0364745 7.9601951 0.059007261 0.96649462
3.1510937 7.9589257 0.059286725 0.96633869
3.2668653 7.9576464 0.05957916 0.96617597
3.9877734 7.9496775 0.061598051 0.96504933
4.1129298 7.9482908 0.06198284 0.96483475
4.6300683 7.9425879 0.063675195 0.9638927
4.763916 7.9410934 0.064138182 0.96363503
4.8997364 7.9395995 0.064619407 0.96336782
5.1776462 7.9365234 0.065631866 0.96280414
5.4646387 7.9333496 0.066720538 0.96219891
5.7614841 7.930068 0.067889825 0.96154952
6.5530272 7.9213281 0.071202964 0.9597109
6.7208886 7.9194822 0.071939543 0.95930254
6.8923044 7.9175777 0.072703511 0.95887941
7.0674119 7.9156442 0.073495671 0.9584409
7.2464161 7.9136715 0.074318424 0.95798635
7.429492 7.9116502 0.075169139 0.95751512
7.6168065 7.9095898 0.076053083 0.95702654
8.4134083 7.9007711 0.079937592 0.95488214
8.843564 7.8960252 0.082112119 0.95368332
9.2981052 7.890996 0.084464379 0.95238882
9.5353222 7.8883786 0.085712545 0.95170277
9.7797365 7.8856735 0.087010607 0.95098889
10.031699 7.8828902 0.088364296 0.95024586
10.29166 7.8800192 0.08977516 0.94947207
1.2785254 0.95369136 0.011047401 0.99364001
1.2784668 0.92886716 0.0109449 0.99369866
1.2781445 0.81115234 0.01048481 0.99396288
1.2780468 0.76671875 0.010322533 0.99405605
1.2779394 0.72361326 0.010171623 0.99414271
1.2913867 0.70995116 0.010206794 0.99412251
1.3307323 0.70995116 0.010446548 0.99398494
1.3719727 0.70994139 0.010699158 0.9938398
1.4152539 0.70994139 0.010966339 0.9936865
1.460791 0.70994139 0.011249122 0.99352425
1.5087109 0.70996094 0.011548652 0.99335241
1.5592773 0.70995116 0.011866379 0.99317008
1.6692969 0.70995116 0.012563858 0.99277008
1.7293164 0.70996094 0.012947349 0.99255019
1.7931347 0.70994139 0.013357352 0.99231523
1.9811034 0.69921875 0.014550666 0.99163151
1.9811132 0.67134762 0.014488067 0.99166763
1.981123 -0.6713379 0.014487838 0.99166757
1.9810938 -0.69920897 0.014550628 0.99163157
1.9337401 -0.70994139 0.014267158 0.99179387
1.7931249 -0.70994139 0.013357429 0.99231529
1.7293066 -0.70995116 0.012947502 0.99255025
1.6127148 -0.70994139 0.012204361 0.99297637
1.4608008 -0.70994139 0.011248931 0.99352419
1.3719629 -0.70995116 0.010699272 0.9938398
1.3307226 -0.70994139 0.010446319 0.993985
1.2913769 -0.70993161 0.010206871 0.99412256
1.2779882 -0.74500972 0.010245895 0.99410015
1.2780273 -0.76670897 0.010322456 0.99405611
1.2780957 -0.78875977 0.010402336 0.99401033
1.2781445 -0.81113279 0.010484695 0.99396294
1.2782227 -0.83389646 0.01057045 0.99391371
1.2782617 -0.85701168 0.010658951 0.99386287
1.2784668 -0.92884761 0.010945053 0.99369872
10.72332 -8.2104101 0.093540609 0.94740975
10.175077 -8.2043753 0.090527914 0.94905913
9.9139252 -8.2014647 0.08911518 0.94983429
9.6607809 -8.1986713 0.087757759 0.95057863
9.17665 -8.1933298 0.085205421 0.9519816
8.9449511 -8.1907711 0.084002152 0.95264286
8.7196484 -8.1882811 0.082847252 0.95327908
8.2870016 -8.183486 0.080664821 0.95448095
7.678535 -8.1767769 0.077690199 0.95612293
7.2968845 -8.1725588 0.075881496 0.95712113
6.7560153 -8.1665916 0.073408239 0.95848948
6.5833788 -8.1646681 0.072642706 0.95891398
6.086113 -8.1591797 0.070500523 0.96010065
5.4657617 -8.1523342 0.067978665 0.96149963
5.3174219 -8.1506929 0.067403257 0.96181965
5.1715722 -8.1490822 0.066847153 0.96212858
4.8868456 -8.1459274 0.065794066 0.96271461
4.7477732 -8.1443939 0.065293238 0.96299237
4.6107812 -8.1428804 0.064811364 0.96326035
4.475781 -8.141387 0.064346619 0.96351886
4.0818357 -8.1370306 0.063050419 0.96424037
3.8276563 -8.1342182 0.062264401 0.96467882
3.2178905 -8.1274805 0.060543288 0.9656381
3.0998242 -8.1261721 0.060238644 0.96580803
2.8671288 -8.1236134 0.05966644 0.96612722
2.525918 -8.1198339 0.058897324 0.96655661
2.4140821 -8.1186037 0.058662642 0.96668702
2.3030858 -8.117383 0.05844013 0.9668113
2.1929297 -8.1161623 0.058228299 0.96692955
1.8669726 -8.1125488 0.057656553 0.9672491
1.7596679 -8.1113672 0.057486456 0.96734411
1.6529688 -8.1101856 0.057326354 0.96743363
1.5468554 -8.1090231 0.057177197 0.9675175
1.4412891 -8.1078615 0.057035826 0.96759593
1.3362304 -8.106699 0.05690521 0.96766907
1.1274219 -8.1043844 0.056673203 0.96779937
0.8171289 -8.1009369 0.056391943 0.96795571
0.71431637 -8.099824 0.056318205 0.96799743
0.20345703 -8.0941696 0.05607868 0.96813118
0.10167968 -8.0930471 0.056056708 0.96814293
-9.7656248e-06 -8.0919237 0.056044616 0.96814978
-0.30511719 -8.0885544 0.056061551 0.96814054
-0.40688476 -8.0874214 0.056083832 0.96812761
-0.61080074 -8.0851755 0.056158256 0.96808672
-1.0208398 -8.0806541 0.056412544 0.96794474
-1.124043 -8.0795116 0.056497917 0.96789652
-1.435703 -8.0760641 0.056812324 0.96772093
-1.6455957 -8.0737495 0.057068329 0.96757746
-1.7513086 -8.0725775 0.057211187 0.96749771
-1.9643652 -8.0702248 0.057527501 0.96732163
-2.3983397 -8.0654297 0.058279149 0.96690148
-2.508662 -8.064189 0.058492661 0.96678191
-2.6198633 -8.0629683 0.058717955 0.96665609
-2.7319336 -8.0617476 0.058955457 0.96652406
-3.0738573 -8.0579681 0.059732396 0.96609002
-3.1899121 -8.0566797 0.060015373 0.96593219
-3.3070996 -8.0553808 0.060310669 0.96576756
-3.4254296 -8.0540724 0.060617406 0.96559596
-3.5450096 -8.0527439 0.060937993 0.96541727
-3.6659081 -8.0514355 0.061272811 0.96523106
-3.9117773 -8.0486908 0.061981007 0.96483654
-4.1635351 -8.045908 0.06274467 0.96441048
-4.4217772 -8.0430565 0.063570365 0.96395135
-4.6870508 -8.0401363 0.064457051 0.96345723
-4.8225293 -8.0386229 0.064925686 0.96319652
-5.0995898 -8.0355759 0.065916747 0.96264601
-5.3854394 -8.0324221 0.066979028 0.96205485
-5.6808105 -8.0291595 0.06812229 0.96142054
-5.8323731 -8.0274801 0.068724513 0.96108621
-5.98666 -8.0257616 0.069347225 0.96073997
-12.375937 -14.582925 0.13246876 0.92634541
-16.055458 -16.672436 0.16031002 0.91156977
-16.257607 -16.463207 0.16024974 0.91160136
-12.335693 -11.584003 0.11720298 0.93454999
-1.0455469 -0.84303707 0.009302292 0.99464196
-1.0455078 -0.82155269 0.009209442 0.99469531
-1.0454785 -0.77985352 0.0090338131 0.99479628
-1.0454589 -0.73966795 0.0088701248 0.99489033
-1.0589062 -0.70995116 0.0088298414 0.99491334
-1.1504102 -0.70994139 0.0093630217 0.99460709
-1.2178613 -0.70995116 0.0097637177 0.99437696
-1.3307421 -0.70994139 0.010446243 0.99398494
-1.3719629 -0.70993161 0.010699081 0.99383986
-1.4152637 -0.70994139 0.010966416 0.9936865
-1.5592871 -0.70995116 0.011866531 0.99317008
-1.612705 -0.70994139 0.01220417 0.99297637
-1.7690234 -0.70039064 0.013177757 0.99241817
-23.267998 -8.2122021 0.17089802 0.90601349
-15.33664 -4.1438966 0.11002899 0.93842912
-18.327265 -3.9758885 0.12988834 0.92772859
-19.806913 -4.0369725 0.14000514 0.92232424
-1.7698632 0.70074219 0.0079101557 0.99241471
-1.6692871 0.70995116 0.0075382995 0.99277025
-1.4607714 0.70996094 0.0067494581 0.99352437
-1.3307323 0.70995116 0.0062678526 0.99398506
-1.2913867 0.70995116 0.0061239623 0.99412262
-1.2178613 0.70995116 0.0058579636 0.99437708
-1.1834277 0.70996094 0.005734825 0.99449497
-1.1186913 0.70995116 0.0055060196 0.99471414
-1.0447363 0.71964842 0.0052719498 0.99493837
-1.044746 0.7391699 0.0053185271 0.99489385
-1.0447558 0.75906247 0.0053665158 0.99484771
-1.0447754 0.77931637 0.0054164506 0.99479985
-1.0448047 0.86434567 0.0056350324 0.9945907
-11.882236 11.442539 0.068548732 0.93614519
-11.862851 12.955117 0.072995909 0.93214732
-7.2519627 8.1222944 0.045248643 0.95737994
-5.854795 8.0584278 0.041393049 0.96093988
-4.9670606 8.0486231 0.03930309 0.96287471
-4.690166 8.0455761 0.038700521 0.96343362
-4.5548534 8.0440722 0.038414992 0.96369851
-4.4214649 8.0426073 0.038139571 0.96395397
-3.5362108 8.0328121 0.036470983 0.9655019
-3.1788769 8.0288572 0.035884246 0.96604836
-2.7190528 8.0237885 0.035205651 0.96667957
-2.4953222 8.0213079 0.034907378 0.96695608
-2.3848243 8.0200977 0.034769934 0.96708494
-2.2751856 8.0188961 0.034638975 0.96720779
-2.1663671 8.0176849 0.034513358 0.96732467
-2.0583203 8.0164843 0.034393158 0.96743566
-1.9509765 8.0153027 0.034281041 0.96754086
-1.8443359 8.0141211 0.034174193 0.96764046
-1.7383593 8.0129395 0.034073293 0.9677344
-1.1137989 8.0060644 0.033588979 0.96818417
-0.70570308 8.001543 0.033379517 0.96838003
-0.6043945 8.0004292 0.033341408 0.96841633
-0.50331056 7.9993162 0.033307645 0.96844769
-0.10047852 7.994863 0.033225518 0.96852374
0.60331053 7.9870801 0.033284377 0.96846819
0.70426756 7.9859567 0.03331482 0.96844065
0.80541015 7.9848437 0.033349723 0.96840805
1.0083984 7.9825974 0.033435285 0.968328
1.2125781 7.9803514 0.033543814 0.96822762
1.3151758 7.9792089 0.033605728 0.96816981
1.4182031 7.9780664 0.033672296 0.96810681
1.6255566 7.975791 0.033825036 0.96796501
1.8349316 7.9734764 0.03399986 0.96780193
2.046582 7.9711227 0.034199331 0.96761703
2.1533983 7.9699512 0.03430748 0.96751606
2.5879881 7.9651465 0.034802817 0.96705449
2.8102832 7.9626856 0.035089493 0.96678758
3.0364745 7.9601855 0.035404511 0.96649516
3.2668653 7.9576464 0.035745736 0.96617645
3.3837891 7.9563575 0.035929449 0.96600682
3.6213183 7.9537301 0.036317136 0.96564639
3.7420604 7.9524021 0.036521643 0.96545511
3.9877734 7.9496775 0.036958847 0.96504986
4.1129298 7.9482908 0.037189636 0.96483529
4.2396483 7.9468942 0.037429389 0.9646126
4.3680272 7.945488 0.037677191 0.96438152
5.0376072 7.9380856 0.039068718 0.96309149
5.4646287 7.9333591 0.04003147 0.96219945
5.7614841 7.930078 0.040732879 0.96155006
6.2272949 7.9249411 0.041883431 0.96048599
6.3885546 7.9231544 0.042293776 0.9601056
6.5530467 7.9213376 0.042721406 0.95971143
7.0674119 7.9156442 0.044097442 0.95844156
7.2464161 7.9136715 0.04458908 0.95798695
7.429492 7.9116502 0.045101661 0.95751578
8.0051947 7.905293 0.046752434 0.95599467
8.2067089 7.9030662 0.047344435 0.95544904
8.4134083 7.9007812 0.047960509 0.9548828
8.6256056 7.8984275 0.048602026 0.9542948
1.2768359 0.9276855 0.0065584183 0.99370676
1.2768261 0.9033789 0.0064996718 0.99376309
1.2767773 0.83297849 0.0063352585 0.99392062
1.2767578 0.78792965 0.0062348554 0.99401665
1.2767578 0.76594722 0.0061871717 0.99406213
1.2913867 0.70995116 0.0061240005 0.99412262
1.3307323 0.70995116 0.006267929 0.99398506
1.3719727 0.70994139 0.006419525 0.99383992
1.4152539 0.70994139 0.006579895 0.99368662
1.460791 0.70994139 0.0067493818 0.99352431
1.5087109 0.70996094 0.0069290539 0.99335247
1.6692969 0.70995116 0.0075383759 0.9927702
1.7293164 0.70996094 0.0077683637 0.99255031
1.9831737 0.67203122 0.0087015154 0.9916591
1.9831737 -0.67205077 0.0087018581 0.9916591
1.9337401 -0.70994139 0.0085601425 0.99179399
1.8611132 -0.70995116 0.008277473 0.99206388
1.7293066 -0.70995116 0.0077682873 0.99255037
1.6692773 -0.70994139 0.0075381468 0.99277031
1.6127148 -0.70994139 0.0073223873 0.99297649
1.5087206 -0.70994139 0.006929283 0.99335247
1.4608008 -0.70994139 0.00674942 0.99352431
1.2913769 -0.70993161 0.0061240005 0.99412268
1.2767578 -0.76594722 0.0061870576 0.99406213
1.2767773 -0.83296871 0.0063352203 0.99392062
1.2767968 -0.85603511 0.0063880919 0.99386996
1.2768261 -0.9033789 0.0064997864 0.99376309
1.2768359 -0.92766601 0.0065586469 0.99370682
1.2768359 -0.95242184 0.0066195298 0.99364847
10.444707 -8.2073431 0.055201452 0.94825238
9.17665 -8.1933298 0.051121749 0.95198232
8.9449511 -8.1907711 0.050399855 0.95264357
8.7196484 -8.1882811 0.049707334 0.95327973
8.5004492 -8.1858587 0.049041212 0.95389199
7.2968845 -8.1725588 0.045528755 0.95712179
7.1125584 -8.1705275 0.045016859 0.95759445
6.9323239 -8.1685247 0.044522095 0.95805037
6.7560153 -8.1665821 0.044043731 0.95849013
6.5833788 -8.1646776 0.043583564 0.95891458
6.4142966 -8.1628027 0.043140676 0.95932424
6.2485743 -8.1609764 0.042713966 0.9597196
5.9267187 -8.1574221 0.041901551 0.96046966
5.6166797 -8.1539936 0.041144334 0.96116871
5.3174219 -8.1506929 0.040442541 0.96182024
4.8868456 -8.1459274 0.039474677 0.96271521
4.7477732 -8.1443939 0.039176062 0.96299291
4.475781 -8.141387 0.038608056 0.96351945
3.8276563 -8.1342182 0.037357979 0.96467936
3.7029197 -8.1328421 0.037133865 0.96488643
3.4577148 -8.1301365 0.036713865 0.96527737
3.217871 -8.1274805 0.036325302 0.96563864
2.525918 -8.1198339 0.03533661 0.96655715
2.3030858 -8.1173725 0.035064049 0.96681184
2.083545 -8.1149607 0.034815405 0.96704239
1.7596679 -8.1113672 0.034491882 0.96734464
1.5468554 -8.1090231 0.034304883 0.96751797
1.4412695 -8.1078615 0.034221649 0.96759647
1.3362304 -8.106699 0.034143258 0.96766955
0.92023438 -8.1020994 0.033885382 0.96790916
0.8171289 -8.1009369 0.033835068 0.96795619
0.71431637 -8.099824 0.033789404 0.96799791
0.20345703 -8.0941696 0.033646546 0.96813166
0.10167968 -8.0930567 0.033633918 0.9681434
-9.7656248e-06 -8.0919237 0.033626672 0.96815026
-0.10169922 -8.0907907 0.033624802 0.96815217
-0.30511719 -8.0885544 0.033636969 0.96814102
-0.61080074 -8.0851755 0.033694115 0.9680872
-0.71296871 -8.0840425 0.033724174 0.96805924
-1.124043 -8.0795116 0.033898886 0.967897
-1.5404102 -8.074892 0.034160879 0.96765244
-1.6455957 -8.0737495 0.034240913 0.96757799
-1.7513086 -8.0725775 0.034326706 0.96749818
-1.9643749 -8.0702143 0.034516029 0.96732217
-2.0718164 -8.0690327 0.034619637 0.96722573
-2.1799219 -8.0678415 0.034729421 0.96712363
-2.3983397 -8.0654297 0.034966696 0.96690202
-2.508662 -8.064189 0.035095442 0.96678239
-2.8449023 -8.0604982 0.035520285 0.96638638
-2.9588768 -8.0592384 0.035676841 0.96624172
-3.0738573 -8.0579681 0.035839424 0.96609056
-3.1899121 -8.0566797 0.03600933 0.96593273
-3.4254296 -8.0540724 0.036371231 0.9655965
-3.5450096 -8.0527439 0.036563605 0.9654178
-3.6659081 -8.0514355 0.036763877 0.9652316
-4.0368748 -8.0473146 0.037412871 0.96462804
-4.1635351 -8.045908 0.037646674 0.96441102
-4.2917967 -8.0445118 0.037889402 0.96418566
-4.4217772 -8.0430565 0.038140371 0.96395189
-4.5534959 -8.0416012 0.038402937 0.96370935
-4.6870508 -8.0401363 0.038674165 0.96345776
-4.8225293 -8.0386229 0.038955458 0.96319705
-4.96 -8.0371094 0.039246939 0.96292675
-5.0995898 -8.0355759 0.039549138 0.96264654
-5.2413864 -8.0340137 0.03986267 0.96235621
-5.3854198 -8.0324221 0.040187415 0.9620555
-6.1437693 -8.0240431 0.041996229 0.96038181
-6.3038864 -8.0222654 0.042398147 0.96001029
-7.4566894 -7.9404979 0.045266189 0.9573639
-16.055536 -16.672523 0.096186407 0.91157067
-16.257656 -16.463232 0.096149668 0.91160244
-1.0448437 -0.93288082 0.0058208085 0.99441284
-1.0447851 -0.82096678 0.0055218507 0.99469906
-1.0447656 -0.77930665 0.0054164506 0.99479991
-1.044746 -0.75905269 0.0053667449 0.99484777
-1.044746 -0.73917967 0.0053182221 0.99489385
-1.0589062 -0.70995116 0.0052980422 0.9949134
-1.0882226 -0.70994139 0.005399704 0.99481612
-1.1504102 -0.70994139 0.0056177517 0.99460721
-1.1834081 -0.70994139 0.0057350537 0.99449503
-1.3307421 -0.70994139 0.0062677762 0.993985
-1.3719629 -0.70993161 0.0064194486 0.99383998
-1.5087206 -0.70994139 0.0069290157 0.99335247
-1.612705 -0.70994139 0.0073225782 0.99297649
-1.6692871 -0.70994139 0.0075383377 0.99277025
-1.769873 -0.72659177 0.0079505155 0.99237627
-1.7698828 -0.64978516 0.0078350445 0.99248672
-23.267958 -8.2122021 0.10253642 0.90601498
-15.33664 -4.143867 0.066018634 0.93843007
-16.813965 -4.0925879 0.071911924 0.93312126
-18.327274 -3.9758885 0.077931479 0.92772961
-19.806923 -4.0369725 0.084001727 0.92232537
-22.876709 -4.0667286 0.096553117 0.91124612
-24.320047 -4.0087204 0.10242493 0.90611076
-1.7707422 0.65010738 0.0026129531 0.99248314
-1.7707324 0.67545897 0.0026252365 0.99244791
-1.7707324 0.70108396 0.0026380157 0.99241108
-1.6692871 0.70995116 0.0025127411 0.99277031
-1.6127245 0.70995116 0.0024407196 0.99297649
-1.4607714 0.70996094 0.0022497938 0.99352443
-1.3719727 0.70994139 0.0021398163 0.99383998
-1.3307323 0.70995116 0.0020892334 0.99398506
-1.2913867 0.70995116 0.0020414733 0.99412262
-1.2537988 0.70996094 0.001995964 0.99425316
-1.1834277 0.70996094 0.0019116591 0.99449497
-1.1504102 0.70995116 0.0018725585 0.99460721
-1.0588866 0.70996094 0.001766014 0.99491352
-1.0440332 0.73868161 0.001771698 0.99489737
-1.0440429 0.79938477 0.0018214798 0.99475408
-1.0440527 0.82040036 0.0018393707 0.99470282
-1.0440527 0.84183592 0.0018579101 0.99464971
-1.0440625 0.90888667 0.0019174194 0.99447829
-6.8960547 8.1258202 0.014762458 0.95826542
-11.833203 14.675527 0.026113166 0.92736518
-6.0122557 8.0601759 0.013928413 0.960576
-5.5485153 8.0550489 0.013548851 0.96163106
-5.3994336 8.0534077 0.01342987 0.96195865
-5.2529101 8.0517969 0.013316154 0.96227491
-4.9670606 8.0486231 0.01310051 0.96287501
-4.8275485 8.0470896 0.012998428 0.96315944
-4.690166 8.0455761 0.012899894 0.96343392
-4.5548434 8.0440722 0.012804641 0.9636988
-4.2899704 8.0411425 0.012623443 0.96420074
-4.1602931 8.0397263 0.012539444 0.96443826
-3.7812304 8.0355368 0.012300872 0.96510053
-3.6579978 8.0341702 0.012227363 0.96530521
-3.5362108 8.0328121 0.012156715 0.9655022
-3.2967088 8.0301857 0.012023582 0.9658736
-3.1788769 8.0288572 0.011960831 0.96604866
-3.0622363 8.0275784 0.011901626 0.96621656
-2.6066992 8.0225487 0.011683883 0.96682119
-2.1663671 8.0176849 0.011504326 0.96732491
-1.7383593 8.0129395 0.011357536 0.96773463
-1.4238573 8.0094728 0.011269264 0.96798348
-1.3200586 8.0083199 0.0112434 0.96805578
-1.1137989 8.0060644 0.011197205 0.96818441
-0.80728513 8.002656 0.011141586 0.96833891
-0.70570308 8.001543 0.011126671 0.96838027
-0.6043945 8.0004292 0.011113586 0.96841657
-0.50331056 7.9993162 0.011102295 0.96844792
-0.20104492 7.9959569 0.011079865 0.96851242
-0.10047852 7.994863 0.011075592 0.96852398
0.10040039 7.9926267 0.011071396 0.96853268
0.20084961 7.9915233 0.011073341 0.96852964
0.50253904 7.988193 0.011086655 0.96849114
0.60331053 7.9870801 0.011095581 0.96846843
0.70426756 7.9859567 0.011105461 0.96844089
0.906748 7.9837108 0.011130218 0.9683708
1.0083984 7.9825974 0.011145324 0.96832824
1.1103222 7.9814744 0.011162185 0.96828061
1.2125781 7.9803514 0.011181069 0.96822786
1.4182031 7.9780664 0.011224975 0.96810704
1.5216405 7.9769235 0.011249237 0.96803886
1.6255566 7.975791 0.01127533 0.96796525
1.7299707 7.9746289 0.011303482 0.96788645
1.8349316 7.9734764 0.011333504 0.96780217
1.9404491 7.9722948 0.011365547 0.96771252
2.046582 7.9711227 0.011399497 0.96761727
2.3691308 7.9675684 0.011514664 0.96729732
2.4781249 7.9663572 0.01155693 0.96717906
2.5879881 7.9651465 0.011601257 0.96705472
2.6987011 7.9639258 0.011646919 0.96692431
2.8102832 7.9626856 0.011696777 0.96678782
2.9228809 7.9614353 0.011747932 0.96664488
3.0364745 7.9601951 0.011801261 0.96649539
3.3837891 7.9563575 0.011977234 0.96600705
3.5019042 7.9550486 0.012040519 0.9658305
3.6213183 7.9537301 0.012106323 0.96564662
3.9878125 7.9496875 0.012320175 0.96505004
4.2396483 7.9468942 0.012475776 0.9646129
4.4981346 7.9440331 0.012645836 0.96414214
4.6300683 7.9425778 0.0127351 0.96389359
4.763916 7.9410934 0.012827759 0.96363586
5.0376072 7.9380856 0.0130233 0.96309179
5.1776462 7.936533 0.013126297 0.96280491
5.4646387 7.9333496 0.013344192 0.96219975
5.6117773 7.9317284 0.013458862 0.96188074
5.7614841 7.930068 0.013577957 0.96155035
5.9138865 7.9283981 0.013701401 0.96120805
6.0691209 7.9266796 0.013829002 0.96085352
6.5530467 7.9213376 0.014240951 0.95971173
6.8923044 7.9175777 0.014541397 0.95888036
7.0674119 7.9156542 0.014698677 0.95844185
7.2464161 7.9136815 0.014863052 0.95798725
7.429492 7.9116502 0.015033569 0.95751607
8.0051947 7.905293 0.015583228 0.95599502
8.2066889 7.9030566 0.015782241 0.95544952
8.4134083 7.9007711 0.015987778 0.95488316
8.843564 7.8960252 0.016421661 0.95368433
9.2980862 7.890996 0.016891517 0.95238996
10.291679 7.8800192 0.017954979 0.94947314
1.2759863 0.95176756 0.0022051239 0.99365282
1.2759765 0.92704099 0.0021847151 0.99371111
1.275957 0.87891603 0.0021463013 0.99382168
1.2759374 0.72249019 0.0020312117 0.99415201
1.3307323 0.70995116 0.0020894622 0.99398506
1.3719727 0.70994139 0.0021399688 0.99383998
1.4152539 0.70994139 0.0021933746 0.99368668
1.460791 0.70994139 0.0022497177 0.99352437
1.5087109 0.70996094 0.0023099899 0.99335253
1.7931347 0.70994139 0.0026716995 0.99231541
1.861123 0.70996094 0.0027594757 0.99206388
1.9852344 0.67273438 0.0029036331 0.99165058
1.9852344 -0.70066404 0.0029163361 0.99161434
1.9337401 -0.70994139 0.0028535842 0.99179405
1.7293066 -0.70995116 0.0025897599 0.99255043
1.6127148 -0.70994139 0.0024407196 0.99297655
1.3719629 -0.70995116 0.0021399306 0.99383998
1.3307226 -0.70994139 0.0020894622 0.99398512
1.2913769 -0.70993161 0.0020414351 0.99412274
1.2759374 -0.72248048 0.0020312881 0.99415201
1.2759277 -0.74379879 0.0020459366 0.99410981
1.2759472 -0.80973631 0.0020934676 0.99397343
1.2759374 -0.83243161 0.0021104431 0.99392462
1.275957 -0.85545897 0.0021281433 0.99387407
1.2759472 -0.87891603 0.0021463013 0.99382168
1.2759668 -0.90276366 0.0021652984 0.99376738
1.275957 -0.95178711 0.0022050857 0.99365282
10.72331 -8.2104101 0.018706931 0.947411
9.17665 -8.1933298 0.017040825 0.95198268
8.9449511 -8.1907711 0.016801223 0.95264387
8.7196484 -8.1882811 0.016568298 0.95328009
8.5004492 -8.1858692 0.016346816 0.95389235
8.2870016 -8.1834955 0.01613388 0.95448196
8.0790625 -8.181201 0.015927505 0.95504969
7.4854488 -8.1746387 0.015353088 0.95663214
7.2968845 -8.1725588 0.015176735 0.95712215
7.1125584 -8.1705275 0.015005531 0.95759475
6.7560153 -8.1665916 0.01468235 0.95849043
5.9267187 -8.1574221 0.013966865 0.96046996
5.7702928 -8.1556931 0.013839683 0.96082562
5.1715722 -8.1490822 0.013369408 0.96212941
5.0280662 -8.1475 0.013262023 0.96242762
4.7477732 -8.1443939 0.013058357 0.9629932
4.475781 -8.141387 0.012869988 0.96351969
4.2113671 -8.1384573 0.012693824 0.96400952
4.0818357 -8.1370306 0.012609367 0.96424121
3.8276563 -8.1342182 0.012453232 0.9646796
3.7029197 -8.1328421 0.012378769 0.96488667
3.5796094 -8.1314936 0.012307205 0.96508592
3.337168 -8.128808 0.012172203 0.96546185
3.2178905 -8.1274805 0.012108917 0.96563888
3.0998242 -8.1261721 0.012047882 0.96580881
2.9829297 -8.1248827 0.011989594 0.96597183
2.525918 -8.1198339 0.011779747 0.96655738
2.3030858 -8.1173725 0.011688461 0.96681207
2.1929297 -8.1161623 0.011646118 0.96693033
2.083545 -8.1149607 0.011606026 0.96704262
1.9749023 -8.11374 0.011567993 0.96714914
1.4412891 -8.1078615 0.011407013 0.96759671
1.3362304 -8.106699 0.011380958 0.96766979
1.0236523 -8.1032419 0.011313209 0.9678573
0.71431637 -8.099824 0.011264 0.96799821
0.61175781 -8.0986719 0.01125 0.96803504
0.40727538 -8.0964155 0.011229362 0.96809345
0.30529296 -8.0953026 0.011221618 0.96811515
0.20345703 -8.0941696 0.01121582 0.9681319
0.10167968 -8.0930567 0.011211586 0.96814364
-0.20339844 -8.0896873 0.01121006 0.96814924
-0.50878906 -8.0862989 0.011223258 0.96811038
-0.71296871 -8.0840425 0.011241722 0.96805948
-0.8153711 -8.0829296 0.011253623 0.96802646
-0.91798824 -8.0817776 0.011267357 0.96798855
-1.3314258 -8.0772066 0.01133953 0.96778548
-1.4356836 -8.0760641 0.011362457 0.9677217
-1.5404102 -8.074892 0.011386337 0.96765268
-1.7513086 -8.0725775 0.011442718 0.96749842
-1.8575586 -8.0714064 0.011473388 0.96741313
-2.1799219 -8.0678415 0.011576271 0.96712387
-2.2887499 -8.0666409 0.011614914 0.96701598
-2.3983397 -8.0654297 0.011655769 0.96690226
-2.508662 -8.064189 0.011698723 0.96678263
-2.6198633 -8.0629683 0.011744003 0.96665686
-2.7319336 -8.0617476 0.011791344 0.96652484
-2.8449023 -8.0604982 0.011840935 0.96638662
-3.1899121 -8.0566797 0.012002792 0.96593297
-3.5450096 -8.0527439 0.01218769 0.96541804
-3.6659081 -8.0514355 0.012254409 0.9652319
-3.7881248 -8.0500784 0.012323913 0.96503842
-3.9117577 -8.0486908 0.012396278 0.96483737
-4.2917967 -8.0445118 0.012630157 0.96418595
-4.4217772 -8.0430565 0.012714157 0.96395218
-4.8225293 -8.0386229 0.012985649 0.96319735
-4.9600196 -8.0371094 0.013081741 0.96292698
-5.2413864 -8.0340137 0.013286971 0.96235645
-5.5318847 -8.0308008 0.013507308 0.96174419
-5.6808105 -8.0291595 0.013623542 0.96142143
-16.257675 -16.463247 0.032048225 0.91160303
-16.045742 -15.451919 0.030856971 0.91474974
-1.044082 -0.93219727 0.0019387817 0.99441695
-1.044082 -0.90887696 0.001917572 0.99447829
-1.0440625 -0.88606441 0.00189682 0.99453747
-1.0440527 -0.84183592 0.0018577194 0.99464971
-1.0440527 -0.82039058 0.0018392563 0.99470282
-1.0440625 -0.77876949 0.001804161 0.99480349
-1.0589062 -0.70995116 0.0017660904 0.99491346
-1.1504102 -0.70994139 0.001872406 0.99460727
-1.1834081 -0.70994139 0.0019117355 0.99449509
-1.2178613 -0.70995116 0.0019528198 0.99437714
-1.2913867 -0.70995116 0.0020415497 0.99412262
-1.3719629 -0.70993161 0.0021398924 0.99383998
-1.4152637 -0.70994139 0.0021932982 0.99368662
-1.4608008 -0.70994139 0.0022497177 0.99352431
-1.5087206 -0.70994139 0.0023097992 0.99335253
-1.6127245 -0.70994139 0.002440834 0.99297649
-1.6692871 -0.70994139 0.0025127791 0.99277031
-1.7707226 -0.72695309 0.002651596 0.99237269
-1.7707226 -0.70107418 0.0026381302 0.99241108
-23.268007 -8.2121973 0.034176636 0.90601552
-15.33665 -4.1438866 0.02200569 0.93843043
-21.343641 -4.0715036 0.030097999 0.9167558
-1.7715625 0.65041012 -0.0026140974 0.99247968
-1.771582 0.67578125 -0.0026261902 0.99244428
-1.7293164 0.70994139 -0.0025894546 0.99255037
-1.6692871 0.70995116 -0.0025123595 0.99277031
-1.4152539 0.70996094 -0.0021932221 0.99368662
-1.2913867 0.70995116 -0.0020411683 0.99412262
-1.2537988 0.70996094 -0.0019958115 0.99425316
-1.2178613 0.70995116 -0.0019527053 0.99437714
-1.0882324 0.70995116 -0.0017997359 0.99481612
-1.0588866 0.70996094 -0.0017658615 0.99491352
-1.0433496 0.73817378 -0.0017702865 0.99490076
-1.0433301 0.77825195 -0.0018029403 0.99480706
-1.0433203 0.7988379 -0.0018199539 0.99475771
-1.0433301 0.81983399 -0.0018377685 0.99470645
-1.0433301 0.86310548 -0.0018754577 0.99459839
-1.0433105 0.88541991 -0.0018954086 0.99454141
-1.0433203 0.93151367 -0.0019372177 0.99442101
-11.856962 12.312597 -0.02367775 0.93391109
-7.4370704 8.1218061 -0.015254593 0.95690632
-11.837997 14.309649 -0.025728835 0.9284057
-5.5485153 8.0550489 -0.013548851 0.96163106
-5.3994336 8.0534077 -0.013429565 0.96195865
-5.1088281 8.0501947 -0.013206825 0.96258026
-4.4214649 8.0426073 -0.012713241 0.96395427
-4.1602931 8.0397263 -0.012539329 0.96443826
-3.9059863 8.0369139 -0.012377815 0.96488798
-3.6579978 8.0341702 -0.012228012 0.96530521
-3.2967088 8.0301857 -0.01202404 0.9658736
-2.946748 8.0263081 -0.011843452 0.96637762
-2.8323925 8.0250387 -0.011788063 0.96653199
-2.7190528 8.0237885 -0.011735267 0.96667981
-2.4953222 8.0213079 -0.011636238 0.96695632
-2.3848243 8.0200977 -0.011589088 0.96708518
-2.0583203 8.0164843 -0.011464653 0.9674359
-1.9509765 8.0153027 -0.011427154 0.96754116
-1.8443359 8.0141211 -0.011391563 0.9676407
-1.6329687 8.011797 -0.011326484 0.96782297
-1.5281445 8.0106344 -0.011295967 0.96790594
-1.4238573 8.0094728 -0.011268158 0.96798348
-1.1137989 8.0060644 -0.011196479 0.96818441
-1.011289 8.0049219 -0.011175422 0.96824104
-0.90913081 8.0037794 -0.011158066 0.96829253
-0.80728513 8.002656 -0.011141586 0.96833891
-0.6043945 8.0004292 -0.011114006 0.96841657
-0.20104492 7.9959569 -0.011079254 0.96851242
-0.10047852 7.994863 -0.011075173 0.96852398
-2.9296874e-05 7.9937496 -0.011072807 0.96853077
0.3013379 7.9904199 -0.011075477 0.96852165
0.60331053 7.9870801 -0.011094932 0.96846843
0.70426756 7.9859567 -0.01110485 0.96844089
0.906748 7.9837108 -0.011130218 0.9683708
1.0083984 7.9825974 -0.011145439 0.96832824
1.3151758 7.9792089 -0.011201477 0.96817011
1.5216405 7.9769235 -0.011247635 0.96803886
1.6255566 7.975791 -0.011275139 0.96796525
1.7299707 7.9746289 -0.011303405 0.96788645
2.9228809 7.9614453 -0.011747055 0.96664482
3.0364745 7.9601951 -0.011801796 0.96649539
3.1511133 7.9589353 -0.011857719 0.96633941
3.3837891 7.9563575 -0.01197586 0.96600705
3.5019042 7.9550486 -0.012039223 0.9658305
3.6213183 7.9537301 -0.012105369 0.96564662
3.9878125 7.9496875 -0.012319336 0.96505004
4.1129298 7.9482908 -0.012396545 0.96483558
4.3680272 7.945488 -0.012559623 0.96438175
4.6300683 7.9425778 -0.012734947 0.96389359
4.763916 7.9410934 -0.012827682 0.96363586
5.1776462 7.936533 -0.013125305 0.96280491
5.3199606 7.9349508 -0.013232193 0.96250772
5.4646387 7.9333496 -0.013342934 0.96219975
5.7614841 7.930068 -0.013576774 0.96155035
5.9138865 7.9283981 -0.013699722 0.96120805
6.2272949 7.9249411 -0.013960762 0.96048629
6.3885546 7.9231544 -0.01409832 0.9601059
6.7209082 7.9194822 -0.014387703 0.95930344
7.0674119 7.9156542 -0.014698677 0.95844185
7.429492 7.9116502 -0.015033035 0.95751607
7.6168261 7.9095898 -0.015209579 0.95702749
7.8086424 7.9074607 -0.015392875 0.9565208
8.2066889 7.9030662 -0.015782012 0.95544946
8.6256056 7.8984275 -0.016199913 0.9542951
8.843564 7.8960252 -0.016421471 0.95368433
9.0675974 7.8935351 -0.016651955 0.95304978
9.7797365 7.8856735 -0.017401619 0.95098996
10.031699 7.8828902 -0.017672043 0.95024699
10.291679 7.8800192 -0.017953681 0.94947314
1.2751172 0.92641598 -0.002183113 0.99371535
1.2750976 0.9021582 -0.0021634293 0.99377155
1.2750976 0.87832028 -0.002144699 0.99382579
1.2751269 0.72202146 -0.0020297242 0.9941557
1.2913867 0.70995116 -0.0020412062 0.99412262
1.3719727 0.70994139 -0.0021397399 0.99383998
1.4152539 0.70994139 -0.0021930693 0.99368668
1.460791 0.70994139 -0.0022494888 0.99352437
1.5087109 0.70996094 -0.0023095321 0.99335253
1.5592773 0.70995116 -0.0023731994 0.99317026
1.7293164 0.70996094 -0.0025893783 0.99255037
1.7931347 0.70994139 -0.0026710129 0.99231541
1.9873145 0.70140624 -0.0029191971 0.99160558
1.9873047 -0.70139647 -0.0029190825 0.99160564
1.8611132 -0.70995116 -0.0027592848 0.99206394
1.7293066 -0.70995116 -0.0025893019 0.99255043
1.6692773 -0.70994139 -0.0025125884 0.99277037
1.6127148 -0.70994139 -0.0024405669 0.99297655
1.5592773 -0.70996094 -0.0023730849 0.9931702
1.4608008 -0.70994139 -0.0022496795 0.99352431
1.4152637 -0.70994139 -0.0021931075 0.99368662
1.3307226 -0.70994139 -0.0020890809 0.99398512
1.2913769 -0.70993161 -0.0020412826 0.99412274
1.2751367 -0.72201169 -0.002029686 0.9941557
1.2751269 -0.76496094 -0.0020596313 0.9940697
1.2751172 -0.80920899 -0.0020918655 0.99397737
1.2751172 -0.85489255 -0.0021263885 0.99387813
1.2750976 -0.87833005 -0.0021444701 0.99382579
1.2750878 -0.90213865 -0.0021635054 0.99377167
1.2750878 -0.92641598 -0.0021831512 0.99371541
1.2750878 -0.951123 -0.0022034836 0.99365717
10.444707 -8.2073431 -0.018399544 0.94825274
9.9139252 -8.2014647 -0.01782177 0.94983542
9.6607809 -8.1986713 -0.017550964 0.95057976
8.5004492 -8.1858692 -0.016345939 0.95389235
8.0790625 -8.181201 -0.015926857 0.95504969
7.678535 -8.1767769 -0.015536995 0.95612389
7.2968845 -8.1725588 -0.015176238 0.95712215
7.1125584 -8.1705275 -0.01500431 0.95759475
6.9323435 -8.1685247 -0.014839821 0.95805067
6.7560153 -8.1665916 -0.014681167 0.95849043
6.4142966 -8.1628027 -0.014380531 0.95932454
6.2485743 -8.1609764 -0.014236488 0.9597199
5.6166797 -8.1539841 -0.013714867 0.961169
5.3174219 -8.1506929 -0.013479766 0.96182054
5.1715918 -8.1490717 -0.013368568 0.96212941
4.7477732 -8.1443939 -0.013058051 0.9629932
4.6107812 -8.1428804 -0.012961845 0.96326119
4.3426661 -8.1399021 -0.012778359 0.96376908
4.2113671 -8.1384573 -0.012693138 0.96400952
4.0818357 -8.1370306 -0.012610015 0.96424121
3.4577148 -8.130146 -0.012236976 0.96527761
2.9829297 -8.1248827 -0.011987991 0.96597183
2.6386914 -8.1210842 -0.011827202 0.96642065
2.3030858 -8.1173725 -0.011687812 0.96681207
1.9749023 -8.11374 -0.011567039 0.96714914
1.3362304 -8.106699 -0.011381226 0.96766979
1.231621 -8.105547 -0.011355972 0.96773756
1.0236523 -8.1032419 -0.011313781 0.9678573
0.92023438 -8.1020994 -0.011295166 0.9679094
0.8171289 -8.1009369 -0.011278229 0.96795642
0.71431637 -8.099824 -0.011263236 0.96799821
0.50941408 -8.097558 -0.011239433 0.96806669
0.40727538 -8.0964155 -0.011229668 0.96809345
0.20345703 -8.0941696 -0.011215744 0.9681319
-9.7656248e-06 -8.0919237 -0.011208992 0.9681505
-0.30511719 -8.0885544 -0.011211853 0.96814126
-0.40688476 -8.0874214 -0.011217384 0.96812832
-0.91798824 -8.0817776 -0.011266708 0.96798855
-1.3314258 -8.0772066 -0.01133892 0.96778548
-1.4356836 -8.0760641 -0.011362571 0.9677217
-1.5404102 -8.074892 -0.0113871 0.96765268
-1.8575586 -8.0714064 -0.011472549 0.96741313
-2.0718164 -8.0690327 -0.011539268 0.96722597
-2.2887499 -8.0666409 -0.011615257 0.96701598
-2.508662 -8.064189 -0.011698646 0.96678263
-2.8449023 -8.0604982 -0.011840209 0.96638662
-2.9588768 -8.0592384 -0.011892013 0.96624196
-3.5450096 -8.0527439 -0.012188034 0.96541804
-3.7881248 -8.0500784 -0.012324142 0.96503842
-4.2917967 -8.0445118 -0.01262886 0.96418595
-4.4217772 -8.0430565 -0.012713928 0.96395218
-4.8225293 -8.0386229 -0.012985077 0.96319735
-4.96 -8.0371094 -0.013082275 0.96292704
-5.0995898 -8.0355759 -0.013182906 0.96264684
-5.2413864 -8.0340137 -0.013287392 0.96235645
-5.6808105 -8.0291595 -0.013624077 0.96142143
-5.98666 -8.0257616 -0.013869476 0.9607408
-6.1437693 -8.0240431 -0.013998833 0.9603821
-6.3038864 -8.0222654 -0.014131661 0.96001059
-12.370117 -14.95287 -0.026880112 0.92531073
-7.6444335 -7.9381442 -0.015265503 0.95687544
-12.346348 -11.889394 -0.023714295 0.93373626
-1.0433203 -0.8630957 -0.0018754959 0.99459845
-1.0433203 -0.81981444 -0.0018378829 0.99470651
-1.0433203 -0.75802732 -0.0017861176 0.99485481
-1.0433301 -0.73817378 -0.0017703247 0.99490082
-1.0433398 -0.71867186 -0.0017547226 0.99494517
-1.0882226 -0.70994139 -0.0017996215 0.99481618
-1.1834081 -0.70994139 -0.0019115829 0.99449509
-1.2178613 -0.70995116 -0.0019524383 0.99437714
-1.2538086 -0.70995116 -0.0019956587 0.99425316
-1.4608008 -0.70994139 -0.0022494888 0.99352431
-1.7293066 -0.70994139 -0.0025893401 0.99255043
-1.7715625 -0.70140624 -0.0026391218 0.9924075
-23.268007 -8.2121973 -0.034179762 0.90601552
-16.701757 -4.0652733 -0.023810158 0.93355292
-18.327274 -3.9758787 -0.025975151 0.92773014
-19.693134 -4.0137792 -0.027836494 0.92275447
-21.343641 -4.0715036 -0.030099144 0.9167558
-1.7724023 0.65072262 -0.0078458404 0.99247605
-1.7724218 0.67611325 -0.0078828428 0.99244064
-1.7724218 0.70175779 -0.0079213334 0.99240375
-1.6692871 0.70995116 -0.0075379177 0.99277025
-1.6127245 0.70994139 -0.007322235 0.99297643
-1.5087304 0.70994139 -0.006928978 0.99335247
-1.4607714 0.70996094 -0.0067491531 0.99352437
-1.2913867 0.70995116 -0.0061237332 0.99412262
-1.2537988 0.70996094 -0.0059873578 0.9942531
-1.2178613 0.70995116 -0.0058578872 0.99437708
-1.1834277 0.70996094 -0.0057345959 0.99449497
-1.0588866 0.70996094 -0.0052977372 0.99491346
-1.0425977 0.79829103 -0.005456619 0.99476123
-1.0425781 0.81926757 -0.0055100629 0.99471015
-1.0425683 0.86249024 -0.0056227874 0.99460226
-1.0425683 0.8847754 -0.005682182 0.99454528
-1.042539 0.93083006 -0.0058076093 0.99442506
-11.894697 11.169873 -0.067805745 0.9368152
-11.856973 12.312597 -0.07103233 0.93391055
-6.7238083 8.1276464 -0.043833502 0.95868391
-6.0122557 8.0601759 -0.041786458 0.9605757
-5.700254 8.0567284 -0.041011237 0.96129143
-5.5485153 8.0550489 -0.04064434 0.96163076
-5.1088281 8.0501947 -0.039621275 0.96257997
-4.9670606 8.0486231 -0.039301984 0.96287471
-4.8275485 8.0470896 -0.038995054 0.96315914
-4.690166 8.0455761 -0.038699873 0.96343362
-4.5548434 8.0440626 -0.038414344 0.96369857
-4.4214649 8.0426073 -0.038139075 0.96395397
-4.2899704 8.0411425 -0.037873268 0.96420044
-4.1602931 8.0397263 -0.037615966 0.96443796
-3.7812402 8.0355368 -0.036903877 0.96510023
-3.6579978 8.0341702 -0.036682546 0.96530491
-3.4158008 8.0314941 -0.036267851 0.96569127
-3.2967088 8.0301857 -0.036071852 0.96587336
-2.7190528 8.0237885 -0.03520523 0.96667957
-2.6066992 8.0225487 -0.035053328 0.96682096
-2.3848243 8.0200977 -0.034769628 0.96708494
-2.2751856 8.0188961 -0.034637947 0.96720779
-2.1663671 8.0176849 -0.034512367 0.96732467
-1.9509765 8.0153027 -0.034279365 0.96754086
-1.8443359 8.0141211 -0.034173355 0.96764046
-1.5281249 8.0106344 -0.033887979 0.9679057
-1.3200586 8.0083303 -0.033728294 0.96805549
-1.011289 8.0049219 -0.033528786 0.9682408
-0.90913081 8.0037794 -0.033473626 0.9682923
-0.80728513 8.002656 -0.033424035 0.96833867
-0.70570308 8.001543 -0.033378754 0.96838003
-0.6043945 8.0004292 -0.033339918 0.96841633
-0.50331056 7.9993067 -0.03330734 0.96844774
-0.30166015 7.9970703 -0.033255193 0.96849561
-0.20104492 7.9959569 -0.03323761 0.96851218
-0.10047852 7.994863 -0.033225175 0.96852374
-4.8828122e-05 7.9937496 -0.033218041 0.96853054
0.20084961 7.9915233 -0.033218611 0.9685294
0.40188476 7.9892969 -0.033241883 0.96850866
0.50253904 7.988193 -0.033261109 0.9684909
0.60331053 7.9870801 -0.03328472 0.96846819
0.70426756 7.9859567 -0.033314284 0.96844065
0.80541015 7.9848437 -0.033349302 0.96840805
0.906748 7.9837108 -0.03338974 0.96837062
1.0083984 7.9825974 -0.033434678 0.968328
1.1103222 7.9814744 -0.033486824 0.96828038
1.3151758 7.9792089 -0.033605613 0.96816981
1.4182031 7.9780664 -0.033672296 0.96810681
1.6255566 7.975791 -0.033824731 0.96796501
1.8349316 7.9734764 -0.0339991 0.96780193
1.9404491 7.9722948 -0.034096487 0.96771228
2.046582 7.9711227 -0.034198914 0.96761703
2.1533983 7.9699512 -0.034307327 0.96751606
2.5879881 7.9651465 -0.034802474 0.96705449
3.2668653 7.9576464 -0.035745773 0.96617645
3.3837891 7.9563575 -0.035929143 0.96600682
3.7420604 7.9524021 -0.036521759 0.96545511
3.8641894 7.9510446 -0.03673584 0.96525639
3.9877734 7.9496775 -0.036958121 0.96504986
4.2396483 7.9468942 -0.037429083 0.9646126
4.3680272 7.945488 -0.037676811 0.96438152
4.4981346 7.9440331 -0.037936285 0.96414191
4.763916 7.9410934 -0.038482018 0.96363556
4.8997364 7.9395995 -0.038770102 0.96336836
5.0376072 7.9380856 -0.03906868 0.96309149
