# .PCD v0.7 - Point Cloud Data file format
VERSION 0.7
FIELDS x y z intensity
SIZE 4 4 4 4
TYPE F F F F
COUNT 1 1 1 1
WIDTH 1082
HEIGHT 1
VIEWPOINT 0 0 0 1 0 0 0
POINTS 1082
DATA ascii
-1.0369335 0.77344728 -0.034053344 0.99483711
-1.0368652 0.79388672 -0.034376297 0.99478829
-1.0368164 0.81468749 -0.034710731 0.99473768
-1.0367285 0.83592772 -0.035057526 0.99468529
-1.0366015 0.87967771 -0.035788842 0.99457467
-1.0365235 0.90227538 -0.03617508 0.99451631
-1.0364453 0.92535156 -0.036575086 0.99445581
-8.3572264 8.0479584 -0.30542317 0.95463598
-7.9429588 8.0433979 -0.29757664 0.95577496
-7.5491695 8.0390329 -0.29030389 0.95683229
-7.3593454 8.0369329 -0.28686664 0.95733249
-7.173945 8.0348921 -0.28355175 0.95781475
-6.9927731 8.0328808 -0.28035763 0.95827985
-6.8155761 8.0309277 -0.27727807 0.95872855
-6.3062401 8.0253029 -0.26868129 0.95998228
-6.1433301 8.0234957 -0.26601449 0.96037143
-5.9835935 8.0217285 -0.26344264 0.960747
-5.8269043 8.02001 -0.26095971 0.96110952
-5.6731052 8.0183105 -0.25856465 0.96145958
-5.5220799 8.0166206 -0.25625372 0.96179754
-5.2278709 8.0133886 -0.25186899 0.9624387
-5.0844727 8.011797 -0.24979097 0.96274275
-4.9433789 8.0102444 -0.24778599 0.96303618
-4.8045411 8.0087013 -0.24585117 0.96331942
-4.6678224 8.0071869 -0.24398382 0.96359277
-4.5331149 8.005703 -0.24218369 0.96385652
-4.2695408 8.0027924 -0.23877481 0.96435624
-4.1404591 8.0013571 -0.2371603 0.96459287
-4.0131054 7.9999609 -0.23560426 0.96482086
-3.5193651 7.9944921 -0.22993858 0.96565217
-3.3995214 7.9931836 -0.22865523 0.96584076
-3.1637304 7.9905758 -0.22623351 0.96619624
-2.7061036 7.9855175 -0.22195642 0.96682477
-2.5943065 7.9842772 -0.2209975 0.96696562
-2.3734765 7.9818454 -0.21920907 0.96722841
-2.156045 7.9794431 -0.21758597 0.96746713
-2.0485253 7.9782519 -0.21683472 0.96757764
-1.5208789 7.9724216 -0.213654 0.96804565
-1.4170898 7.9712691 -0.21312852 0.9681229
-1.3137792 7.9701266 -0.21264002 0.96819484
-1.1085156 7.9678512 -0.21176876 0.96832305
-1.0064746 7.9667478 -0.21138628 0.96837932
-0.70236325 7.9633789 -0.21044458 0.96851796
-0.60154295 7.9622555 -0.21019824 0.9685542
-0.50092775 7.9611521 -0.20998655 0.96858537
-0.40050781 7.9600487 -0.2098083 0.96861166
-0.3002539 7.9589453 -0.20966259 0.968633
-0.10003906 7.9567089 -0.20947176 0.96866119
0.50012696 7.9500875 -0.20969488 0.96862841
0.80154294 7.9467578 -0.21025422 0.96854591
0.90243161 7.9456444 -0.21050842 0.96850854
1.0035645 7.9445114 -0.21079665 0.96846622
1.1050098 7.943418 -0.21111815 0.96841872
1.2067871 7.942275 -0.21147491 0.96836627
1.3088964 7.9411521 -0.21186647 0.96830869
1.9311718 7.9342771 -0.21496312 0.96785307
2.2501073 7.9307418 -0.21701224 0.96755165
2.4663281 7.928369 -0.21857436 0.96732187
2.5756347 7.9271483 -0.21941622 0.96719819
2.9089258 7.9234667 -0.22219305 0.96679002
3.0219629 7.9222069 -0.22320606 0.96664131
3.1360643 7.9209571 -0.22426295 0.96648592
3.4851952 7.9170995 -0.22771394 0.96597916
3.7241991 7.9144726 -0.23025706 0.96560562
4.2194042 7.9089842 -0.23597489 0.9647668
4.347168 7.907578 -0.2375447 0.96453667
4.4766407 7.9061327 -0.23917207 0.96429813
4.8763475 7.9017382 -0.24442898 0.9635278
5.0135641 7.9002147 -0.24631168 0.96325213
5.29457 7.897109 -0.25028554 0.96267051
5.4385448 7.8955173 -0.25238213 0.9623639
5.5849805 7.8939061 -0.25455371 0.96204627
5.733994 7.8922362 -0.25680369 0.96171731
5.8856835 7.8905859 -0.25913495 0.96137637
6.3580465 7.8853512 -0.26665029 0.96027899
6.688818 7.8816991 -0.27212638 0.95947993
6.8594141 7.8798337 -0.27501485 0.95905852
7.3940134 7.8739257 -0.28434017 0.95770013
7.5804687 7.8718457 -0.28768414 0.95721364
7.7713766 7.8697457 -0.29115307 0.95670903
8.1675291 7.8653708 -0.29849201 0.95564222
8.584424 7.8607616 -0.30641145 0.95449281
9.0243454 7.8559079 -0.31496462 0.95325255
9.9838381 7.8453026 -0.33425388 0.95046163
1.2672266 0.94525391 -0.041618269 0.99369401
1.2674414 0.87304688 -0.040515136 0.99386066
1.2675879 0.82696289 -0.039842453 0.99396223
1.2676562 0.8044824 -0.039523505 0.99401039
1.2677149 0.78234375 -0.039215658 0.99405694
1.2678027 0.73908204 -0.038632277 0.99414515
1.2678612 0.7179004 -0.038356017 0.99418694
1.2913672 0.70992184 -0.038793754 0.99412072
1.3306934 0.70993161 -0.039704323 0.99398315
1.4152343 0.70993161 -0.041681021 0.99368459
1.612705 0.70993161 -0.046385422 0.99297416
1.6692675 0.70993161 -0.047752418 0.99276793
1.729287 0.70992184 -0.049210243 0.99254799
1.861084 0.70994139 -0.052436523 0.99206132
1.9337305 0.70993161 -0.054227028 0.99179131
2.0060253 0.67978513 -0.055758208 0.99156058
2.0059471 0.65176755 -0.055523567 0.99159586
14.553447 4.3274999 -0.39969233 0.94105482
14.606923 4.1443262 -0.3996973 0.94105387
14.727392 3.7813475 -0.40026686 0.94097245
15.474638 3.7665722 -0.41925585 0.93826032
18.824892 3.3464355 -0.5033257 0.92634684
18.903311 2.8723633 -0.50333315 0.92634583
18.938076 2.6346092 -0.50333649 0.92634517
18.998486 2.157871 -0.50334245 0.92634451
19.083252 1.2006054 -0.50335103 0.92634326
19.115126 0.48049805 -0.50335461 0.92634261
19.121162 -1.953125e-05 -0.50335568 0.92634261
19.119638 -0.24030273 -0.5033558 0.92634267
19.115126 -0.48052734 -0.50335568 0.92634255
19.107548 -0.72069335 -0.50335526 0.92634267
19.097002 -0.96074218 -0.50335455 0.92634261
19.08333 -1.2006445 -0.50335354 0.92634296
18.969952 -2.3964942 -0.50334471 0.92634422
18.938251 -2.6346483 -0.50334215 0.92634451
18.903446 -2.8724022 -0.50333929 0.92634529
18.825127 -3.3465135 -0.50333279 0.92634588
18.734873 -3.8184764 -0.50332528 0.92634672
18.685225 -4.0535741 -0.50332105 0.92634743
18.632647 -4.2880077 -0.50331664 0.92634803
17.739737 -4.3179393 -0.48062521 0.92954874
16.766846 -4.3050294 -0.45569631 0.93307769
15.904463 -4.2973337 -0.43369061 0.93620384
15.125634 -4.2915626 -0.41389227 0.93902564
14.559658 -4.3293848 -0.39986318 0.94103032
14.503994 -4.5119724 -0.39985839 0.9410308
2.0060351 -0.67980468 -0.055758093 0.99156052
1.9337305 -0.70996094 -0.054227218 0.99179125
1.8611034 -0.70996094 -0.052436598 0.99206126
1.7292773 -0.70997071 -0.049210127 0.99254793
1.6126758 -0.70997071 -0.046385534 0.99297422
1.4607519 -0.70997071 -0.042755164 0.99352223
1.4152441 -0.70996094 -0.041680831 0.99368447
1.3719434 -0.70997071 -0.040665321 0.99383789
1.2678906 -0.71794921 -0.038356092 0.99418676
1.2678125 -0.73912108 -0.03863243 0.99414504
1.2676464 -0.80450195 -0.039523467 0.99401039
1.2675879 -0.82700193 -0.039842375 0.99396217
1.2673633 -0.89671874 -0.040870056 0.99380702
1.2673144 -0.92078125 -0.04123741 0.99375141
10.773799 -8.2491207 -0.3572036 0.94715214
10.223018 -8.2430172 -0.34570208 0.94880933
9.9606342 -8.2401171 -0.34030414 0.94958818
9.2198925 -8.2319431 -0.32537451 0.95174569
8.9870796 -8.2293653 -0.32078299 0.95241016
8.1171188 -8.2197456 -0.30410504 0.95482755
7.9134078 -8.2174902 -0.30031916 0.95537728
7.7146969 -8.2152929 -0.29667282 0.95590699
7.1460643 -8.2090139 -0.28650936 0.95738494
6.9649901 -8.2070217 -0.28336203 0.95784301
6.4444919 -8.2012691 -0.27457497 0.95912308
6.277998 -8.1994143 -0.2718499 0.9595204
5.9546189 -8.195859 -0.26668471 0.96027404
5.7974706 -8.1941309 -0.26423711 0.96063137
5.4914942 -8.1907415 -0.2595951 0.96130961
5.1959081 -8.1874704 -0.25526944 0.96194166
5.0517383 -8.1858788 -0.25322154 0.96224129
4.9098535 -8.1843061 -0.25124446 0.96253049
4.7701464 -8.1827631 -0.24933712 0.9628095
4.3630958 -8.1782713 -0.24401267 0.96358919
3.9725487 -8.1739454 -0.23924321 0.96428806
3.8456933 -8.1725483 -0.23776838 0.96450412
3.5964746 -8.169795 -0.23498362 0.96491247
3.1144238 -8.164463 -0.23003344 0.96563888
2.8806348 -8.1618843 -0.22784778 0.96595961
2.7653711 -8.160615 -0.22682439 0.96610993
2.5378222 -8.1580954 -0.22491121 0.96639109
1.9841894 -8.1519918 -0.22086316 0.96698564
1.6607422 -8.1484175 -0.21891303 0.96727228
1.5541308 -8.1472263 -0.21833932 0.96735668
1.4480761 -8.1460543 -0.21780369 0.96743554
1.3425097 -8.1448822 -0.2173041 0.96750897
1.2374023 -8.1437206 -0.2168417 0.9675771
0.71767575 -8.1379786 -0.2150616 0.96783894
0.61463869 -8.1368456 -0.21481006 0.9678759
0.51182616 -8.1357126 -0.21459384 0.96790779
0.40916014 -8.1345797 -0.21441102 0.96793461
0.10213867 -8.1311817 -0.21406668 0.96798515
-0.10219726 -8.1289158 -0.21400727 0.96799392
-0.204375 -8.1278028 -0.21402797 0.96799076
-0.40883788 -8.1255369 -0.21417247 0.96796966
-0.61371094 -8.123271 -0.2144509 0.96792859
-0.81922847 -8.1209955 -0.21486695 0.96786743
-0.92233396 -8.1198635 -0.21512611 0.96782923
-1.0256933 -8.1187201 -0.21542095 0.96778595
-1.129375 -8.1175776 -0.2157498 0.9677375
-1.3377148 -8.1152735 -0.21651421 0.96762508
-1.4424902 -8.1141109 -0.21694957 0.96756107
-1.5477051 -8.1129589 -0.21742202 0.96749163
-1.8663183 -8.1094332 -0.21905865 0.967251
-1.9736426 -8.1082325 -0.21967901 0.96715987
-2.0816114 -8.1070509 -0.22033794 0.96706295
-2.4096582 -8.1034374 -0.22254993 0.96673757
-2.6322265 -8.1009665 -0.22422859 0.96649098
-2.7448339 -8.0997362 -0.22513111 0.9663583
-3.0883691 -8.0959272 -0.22810242 0.96592224
-3.204951 -8.0946388 -0.2291818 0.96576363
-3.3226953 -8.0933399 -0.23030937 0.96559811
-3.4415917 -8.092021 -0.23148473 0.96542573
-3.5617578 -8.0907125 -0.23270908 0.96524602
-4.1831837 -8.0838375 -0.23960702 0.96423441
-4.7091503 -8.0780268 -0.24614607 0.96327657
-5.2660837 -8.0718555 -0.25370991 0.96216971
-5.4108105 -8.0702534 -0.25577679 0.96186751
-5.5579395 -8.0686331 -0.2579174 0.96155447
-5.7076073 -8.0669823 -0.2601372 0.96123004
-6.014873 -8.0635939 -0.26482037 0.96054614
-6.1727438 -8.0618458 -0.26728892 0.96018571
-6.3336325 -8.0600777 -0.26984814 0.95981228
-6.6649508 -8.056406 -0.27524698 0.95902479
-7.1880956 -8.0506248 -0.28411043 0.95773369
-7.3701267 -8.0486135 -0.28728524 0.95727164
-7.5563183 -8.0465622 -0.2905798 0.95679253
-7.7468653 -8.0444431 -0.29399624 0.95629585
-7.9419432 -8.042285 -0.29753897 0.95578068
-8.3468065 -8.0378218 -0.30504084 0.95469153
-1.0364355 -0.92538083 -0.03657528 0.99445575
-1.0365332 -0.90230465 -0.036174964 0.99451619
-1.0366015 -0.87971675 -0.035788879 0.99457461
-1.0366601 -0.85759765 -0.035416566 0.99463093
-1.0367481 -0.83591795 -0.035057373 0.99468523
-1.0368555 -0.79388672 -0.034376409 0.99478829
-1.0369824 -0.75340819 -0.033741836 0.99488425
-1.0589453 -0.70995116 -0.033560447 0.99491161
-1.1504394 -0.70997071 -0.035586357 0.99460524
-1.2538476 -0.70998043 -0.037929647 0.99425095
-1.5087597 -0.70996094 -0.043893851 0.99335009
-1.5592968 -0.70997071 -0.045101851 0.99316782
-1.6127441 -0.70997071 -0.046385381 0.99297392
-1.7293457 -0.70997071 -0.04921028 0.99254769
-1.7792773 -0.70447266 -0.05037548 0.99237192
-1.7792382 -0.67872071 -0.05012909 0.99240911
-14.293535 -4.8436618 -0.39728749 0.94139862
-14.353134 -4.6636133 -0.39728197 0.94139916
-14.410419 -4.482832 -0.39727667 0.94139987
-14.46541 -4.3013377 -0.3972716 0.94140071
-14.518125 -4.1191797 -0.39726669 0.94140142
-14.568535 -3.9363573 -0.39726201 0.94140226
-16.720615 -3.8479784 -0.45166719 0.93364918
-17.678915 -3.8352537 -0.47621298 0.93017215
-18.610771 -3.7931836 -0.49999073 0.92681628
-18.656874 -3.5590038 -0.49998638 0.92681664
-18.842764 -2.3803809 -0.49996853 0.9268195
-18.896376 -1.9060937 -0.49996322 0.92682046
-18.938164 -1.4306152 -0.49995899 0.92682099
-18.968115 -0.95423824 -0.49995577 0.92682111
-18.985996 -0.47726563 -0.49995369 0.92682147
-18.990438 -0.23866211 -0.49995303 0.92682171
-17.18788 -9.7656248e-06 -0.50011373 0.93353146
-17.186514 0.21597655 -0.50011361 0.93353152
-17.166229 0.86359376 -0.50011474 0.93353122
-17.154003 1.0792383 -0.50011563 0.93353128
-17.139101 1.2946973 -0.50011671 0.93353128
-17.121563 1.5099609 -0.50011808 0.93353093
-17.101309 1.7249999 -0.50011963 0.93353069
-17.052597 2.1542187 -0.5001235 0.93353051
-16.959599 2.7954686 -0.50013113 0.93352932
-16.923252 3.0083787 -0.50013417 0.9335289
-16.842539 3.4327636 -0.50014091 0.93352801
-16.798183 3.6441698 -0.50014466 0.93352759
-16.649326 4.2747951 -0.5001573 0.93352592
-16.536963 4.6919627 -0.50016683 0.93352467
-13.437588 4.1801658 -0.40947348 0.94524145
-12.879082 4.5455275 -0.39739624 0.94681281
-1.7801074 0.67902344 -0.055435333 0.99240488
-1.6127343 0.70993161 -0.051270902 0.99297351
-1.5087304 0.70993161 -0.048516311 0.99334973
-1.4608105 0.70993161 -0.047258262 0.99352157
-1.3720117 0.70993161 -0.044948347 0.99383724
-1.3307421 0.70992184 -0.043885954 0.99398255
-1.253828 0.70993161 -0.041924551 0.99425071
-1.2179004 0.70994139 -0.041017111 0.99437463
-1.1834668 0.70993161 -0.040154837 0.99449259
-1.1187304 0.70993161 -0.038552053 0.99471188
-1.0589453 0.70992184 -0.037095182 0.99491125
-1.0364355 0.71387696 -0.036618233 0.99497652
-1.0363574 0.73320311 -0.036938477 0.99493277
-1.0363183 0.75288087 -0.03727043 0.99488723
-1.0362402 0.77291012 -0.037614327 0.9948402
-1.0361426 0.7933203 -0.037970696 0.99479151
-1.0360839 0.81410152 -0.03833992 0.99474102
-1.0358398 0.87904292 -0.039529838 0.99457824
-1.0357617 0.90160155 -0.039955903 0.99451995
-8.1474018 8.0456543 -0.33317202 0.95521277
-7.9429588 8.0433979 -0.32891795 0.95577163
-7.173945 8.0349026 -0.31341606 0.95781153
-6.9927731 8.0328808 -0.30988562 0.95827669
-6.8155565 8.0309277 -0.30648166 0.95872545
-6.3062401 8.0253029 -0.29697791 0.9599793
-6.1433396 8.0235052 -0.29403195 0.96036839
-5.3737011 8.0149899 -0.2807754 0.96212089
-4.9433885 8.0102444 -0.27388218 0.96303338
-4.8045506 8.0087109 -0.27174374 0.96331662
-4.5331149 8.005703 -0.26769206 0.96385378
-4.2695408 8.0027924 -0.26392084 0.96435356
-3.8873827 7.9985642 -0.2587634 0.965038
-3.7632129 7.9972067 -0.25716811 0.96524966
-3.6405761 7.9958496 -0.25563356 0.96545345
-3.5193651 7.9944921 -0.25415739 0.9656496
-2.9327343 7.9880176 -0.2475943 0.96652138
-2.8188868 7.9867773 -0.24643867 0.96667504
-2.2643554 7.9806347 -0.24137616 0.96734834
-2.156045 7.9794431 -0.24050172 0.96746469
-2.0485058 7.9782519 -0.23967111 0.96757519
-1.8355762 7.9758887 -0.23813938 0.96777916
-1.7300586 7.9747167 -0.23743674 0.96787274
-1.6251757 7.9735742 -0.23677562 0.96796066
-1.4170898 7.9712691 -0.23557462 0.96812052
-1.3137792 7.9701266 -0.23503475 0.96819246
-0.60154295 7.9622555 -0.23233585 0.96855181
-0.50092775 7.9611521 -0.23210192 0.96858299
-0.40050781 7.9600387 -0.23190472 0.96860933
-0.30021483 7.9589453 -0.23174371 0.96863067
-0.20007811 7.9578319 -0.2316204 0.96864718
0.099921875 7.9545212 -0.2314693 0.96866733
0.19989258 7.9533982 -0.23149242 0.96866435
0.90243161 7.9456344 -0.23267974 0.96850616
1.1050098 7.943418 -0.2333537 0.96841633
1.2067871 7.942275 -0.233748 0.96836388
1.3088964 7.9411521 -0.23417985 0.9683063
1.4114062 7.9400096 -0.23465112 0.9682436
1.9311913 7.9342871 -0.23760268 0.96785063
2.1431153 7.9319334 -0.23907062 0.9676553
2.2501073 7.9307418 -0.23986843 0.9675492
2.4663281 7.928369 -0.24159521 0.96731943
2.6858106 7.9259176 -0.24350072 0.96706587
2.7968946 7.9246969 -0.24452347 0.96692985
3.0219629 7.9222069 -0.24671359 0.9666388
3.3676269 7.9183984 -0.2503725 0.96615249
3.604043 7.915781 -0.25307402 0.96579349
3.7241991 7.9144726 -0.25450841 0.96560305
3.8457325 7.913115 -0.25599974 0.96540517
4.347168 7.907578 -0.26256305 0.96453398
4.6079979 7.9046969 -0.26622912 0.96404773
4.7411618 7.9032125 -0.26816657 0.96379119
4.8763475 7.9017382 -0.2701728 0.96352506
5.0135641 7.9002242 -0.27225295 0.96324933
5.1529589 7.8986912 -0.27440962 0.96296358
5.29458 7.897119 -0.27664614 0.96266764
5.733994 7.8922458 -0.28384951 0.96171439
6.5217676 7.8835545 -0.29770616 0.95988345
7.0336618 7.8778906 -0.30729184 0.95861894
7.7713766 7.8697457 -0.32181793 0.95670581
7.9670019 7.8675876 -0.32579625 0.95618218
8.1675291 7.8653612 -0.3299301 0.95563895
9.0243454 7.8558984 -0.34813765 0.9532491
9.7330561 7.8480563 -0.36379981 0.95119798
9.9838381 7.8452926 -0.36945823 0.95045793
1.2666016 0.87247068 -0.044752426 0.99386424
1.2668164 0.8039453 -0.04365772 0.99401391
1.266875 0.78183591 -0.043317948 0.9940604
1.2669629 0.76006836 -0.042990301 0.9941051
1.2670312 0.73861325 -0.042674139 0.99414831
1.2913672 0.70992184 -0.042879369 0.9941203
1.3306934 0.70993161 -0.043886069 0.99398273
1.3719336 0.70992184 -0.044948272 0.99383754
1.4152343 0.70993161 -0.046070516 0.99368411
1.5086719 0.70992184 -0.048516691 0.99334997
1.612705 0.70993161 -0.051270902 0.99297363
1.6692675 0.70993161 -0.05278179 0.99276739
1.729287 0.70992184 -0.054392967 0.99254739
1.7931151 0.70993161 -0.056115072 0.99231225
1.861084 0.70994139 -0.057959363 0.99206072
2.0082226 0.70878905 -0.061966818 0.99151409
2.0081346 0.68048829 -0.061695211 0.9915511
13.112314 4.0789943 -0.39956391 0.94653088
13.162665 3.9139354 -0.39956859 0.94653034
13.386065 3.7979686 -0.40486842 0.94584054
14.009306 3.7852342 -0.42224768 0.94358271
14.688525 3.7713866 -0.44125593 0.94111913
15.444189 3.7591796 -0.46250114 0.93837339
16.286221 3.7479882 -0.48626831 0.9353112
16.89913 3.666074 -0.50315338 0.93314177
16.944073 3.4534667 -0.50315762 0.93314099
16.986279 3.2403026 -0.50316161 0.9331404
17.156767 2.1674023 -0.503178 0.93313837
17.182705 1.9516406 -0.5031805 0.93313813
17.244287 1.3026367 -0.5031867 0.9331373
17.259346 1.0858496 -0.50318825 0.93313706
17.292196 0.21729492 -0.50319213 0.93313676
17.28126 -0.65180665 -0.50319207 0.93313682
17.271729 -0.86890626 -0.50319147 0.9331367
17.259346 -1.0858788 -0.50319058 0.93313706
17.244345 -1.3026855 -0.5031895 0.93313706
17.182783 -1.9516602 -0.50318468 0.93313783
17.156845 -2.1674316 -0.50318259 0.93313807
17.128252 -2.3828614 -0.50318027 0.93313807
17.096884 -2.5979199 -0.5031777 0.93313831
16.944267 -3.4535351 -0.50316501 0.93314022
16.851923 -3.8782127 -0.5031572 0.93314099
16.748798 -4.3003807 -0.50314844 0.9331423
14.381514 -4.2764063 -0.43656757 0.94172609
2.0081444 -0.6805371 -0.061695136 0.99155098
2.0082324 -0.7088086 -0.061966855 0.99151403
1.8611034 -0.70996094 -0.057958983 0.9920606
1.5086817 -0.70997071 -0.048516579 0.99334985
1.4607519 -0.70997071 -0.047258336 0.99352175
1.3719434 -0.70997071 -0.04494831 0.99383742
1.2670214 -0.73864257 -0.042674102 0.99414825
1.2668653 -0.78187495 -0.043317985 0.99406034
1.2668359 -0.80397457 -0.043657567 0.99401379
1.2667577 -0.82645506 -0.044009704 0.99396569
1.2665136 -0.89614254 -0.045144003 0.99381065
9.9605951 -8.2401266 -0.37614563 0.94958448
8.9870605 -8.2293749 -0.35456705 0.95240664
8.7606936 -8.2268648 -0.34968907 0.95304596
8.5404787 -8.2244139 -0.34499434 0.9536612
8.326025 -8.2220411 -0.3404811 0.95425367
7.7146969 -8.2152929 -0.32791728 0.95590365
7.5207129 -8.2131538 -0.32403401 0.95641434
7.1460643 -8.2090235 -0.31668383 0.95738173
6.7878318 -8.2050486 -0.30985001 0.95828187
6.4444919 -8.2012691 -0.30349249 0.95911998
6.277998 -8.1994143 -0.30048195 0.95951736
6.1147752 -8.1976166 -0.29757568 0.95990086
5.4914942 -8.1907415 -0.28693485 0.96130669
5.0517282 -8.1858692 -0.2798914 0.96223849
4.9098434 -8.1843166 -0.27770498 0.96252763
4.7701268 -8.1827631 -0.27559674 0.96280676
4.6324801 -8.1812305 -0.27356416 0.96307611
4.3630958 -8.1782618 -0.26971141 0.96358651
4.2312107 -8.1768255 -0.26788941 0.96382797
3.9725487 -8.1739454 -0.26443854 0.96428537
3.8456933 -8.1725483 -0.2628096 0.96450144
3.7203417 -8.1711721 -0.26124144 0.96470958
3.5964746 -8.1698046 -0.25973269 0.96490979
3.4740136 -8.168457 -0.25828165 0.96510237
3.3528709 -8.167119 -0.25688612 0.96528757
3.233037 -8.165781 -0.25554663 0.96546549
3.1144238 -8.164463 -0.25425991 0.96563625
2.9969726 -8.1631641 -0.2530269 0.96580011
2.8806348 -8.1618843 -0.25184539 0.96595705
2.5378222 -8.1580954 -0.24859738 0.96638852
2.3139453 -8.1556244 -0.24667245 0.96664453
2.2032518 -8.1544037 -0.24577865 0.96676332
1.9842089 -8.1519823 -0.24412504 0.9669832
1.7679394 -8.1495895 -0.24264652 0.96717995
1.6607422 -8.1484175 -0.24197057 0.96726978
1.5541308 -8.1472263 -0.24133535 0.96735418
1.1327538 -8.1425686 -0.23920675 0.96763742
1.028457 -8.1414251 -0.23877406 0.96769494
0.20438476 -8.1323042 -0.23670101 0.96797091
-5.8593749e-05 -8.1300583 -0.2365617 0.96798956
-0.81922847 -8.121006 -0.23749721 0.96786493
-0.92233396 -8.1198635 -0.23778377 0.96782678
-1.0256933 -8.1187201 -0.23810856 0.96778351
-1.2333593 -8.1164255 -0.23887546 0.96768147
-1.4424902 -8.1141205 -0.23979907 0.96755856
-1.6533691 -8.1117773 -0.24088195 0.9674145
-1.75958 -8.1106148 -0.24148446 0.96733421
-1.8663183 -8.1094427 -0.24212825 0.9672485
-1.9736426 -8.1082325 -0.24281506 0.96715736
-2.1902246 -8.1058588 -0.24431467 0.96695781
-2.4096386 -8.1034279 -0.24598926 0.96673512
-2.6322265 -8.1009665 -0.24784496 0.96648842
-2.7448339 -8.0997362 -0.24884261 0.9663558
-2.8583496 -8.0984764 -0.24988794 0.96621686
-3.0883691 -8.0959272 -0.25212568 0.96591961
-3.3226953 -8.0933495 -0.25456622 0.96559548
-3.4415917 -8.092021 -0.25586411 0.96542311
-3.8059764 -8.0879879 -0.2600908 0.96486211
-4.3120408 -8.0824022 -0.26654994 0.96400535
-4.4426365 -8.0809669 -0.26832333 0.96377033
-4.8452635 -8.0765133 -0.27404788 0.9630118
-5.123662 -8.0734377 -0.27822575 0.96245855
-6.0148926 -8.0635939 -0.29271075 0.9605431
-6.1727438 -8.0618458 -0.29544041 0.96018273
-6.3336325 -8.0600586 -0.2982679 0.9598093
-6.8356543 -8.0545216 -0.3073847 0.9586066
-7.0099707 -8.0525875 -0.31064823 0.95817643
-7.3701267 -8.0486031 -0.31754139 0.95726842
-7.5562987 -8.0465527 -0.32118264 0.95678937
-7.7468653 -8.0444431 -0.32495785 0.95629257
-8.3467865 -8.0378122 -0.3371684 0.95468819
-1.0356739 -0.9246875 -0.040397719 0.99445945
-1.0357617 -0.90164059 -0.039956093 0.99451983
-1.0359472 -0.85698241 -0.039118841 0.99463427
-1.0361524 -0.79333985 -0.037970655 0.99479145
-1.03625 -0.77294922 -0.037614211 0.99484009
-1.0363574 -0.73324215 -0.036938515 0.99493265
-1.0364453 -0.71390623 -0.036618043 0.99497646
-1.0589453 -0.70997071 -0.037094917 0.99491113
-1.1834472 -0.70996094 -0.04015518 0.99449259
-1.2178711 -0.70997071 -0.041017417 0.99437469
-1.2538476 -0.70998043 -0.041924324 0.99425054
-1.2914063 -0.70996094 -0.04287941 0.99412006
-1.3720019 -0.70996094 -0.044948235 0.99383724
-1.415293 -0.70996094 -0.046070822 0.99368382
-1.4608301 -0.70996094 -0.047258224 0.99352145
-1.5087597 -0.70996094 -0.048516653 0.99334955
-1.5592968 -0.70997071 -0.04985176 0.99316728
-1.6127441 -0.70997071 -0.051270638 0.99297339
-1.6693456 -0.70996094 -0.052781601 0.99276704
-1.7293457 -0.70997071 -0.054393232 0.99254709
-1.780166 -0.70482421 -0.055707969 0.99236757
-1.7800976 -0.67905271 -0.055435028 0.99240488
-1.7800585 -0.65353513 -0.055173531 0.99244058
-12.8796 -4.5457225 -0.39741343 0.94681072
-12.935556 -4.3834763 -0.39740828 0.94681126
-13.14292 -3.9080956 -0.3989656 0.94660836
-15.857275 -3.8597264 -0.47487122 0.93677831
-16.720615 -3.8479784 -0.49923596 0.93364429
-16.923456 -3.0084472 -0.50014055 0.93352807
-16.959805 -2.795537 -0.50013709 0.93352854
-16.993505 -2.5821776 -0.50013387 0.9335289
-17.024483 -2.3684082 -0.50013083 0.93352938
-17.052822 -2.1542773 -0.50012809 0.93352968
-17.101357 -1.725039 -0.50012326 0.93353045
-17.12162 -1.5099902 -0.50012124 0.93353075
-17.139238 -1.2947265 -0.50011945 0.93353075
-17.166229 -0.86359376 -0.50011659 0.93353122
-17.175732 -0.64780271 -0.50011551 0.93353122
-17.18252 -0.43192381 -0.50011468 0.93353122
-15.676758 0.78866208 -0.50024784 0.93911415
-15.665634 0.98558593 -0.50024861 0.93911409
-15.652011 1.1823633 -0.50024962 0.93911409
-15.617402 1.575332 -0.50025231 0.93911391
-15.596494 1.771455 -0.50025392 0.9391135
-15.573056 1.9673339 -0.50025582 0.93911326
-15.547138 2.1628711 -0.50025791 0.93911314
-15.454823 2.7473536 -0.50026554 0.93911219
-15.204579 3.903867 -0.50028664 0.9391098
-15.154502 4.0946679 -0.50029093 0.93910909
-14.349257 4.266777 -0.47709772 0.94184822
-13.341074 4.150156 -0.44527647 0.9456194
-12.236142 4.1464353 -0.41174746 0.94960928
-11.76167 4.1511326 -0.39750397 0.95130914
-1.780957 0.67934567 -0.060747374 0.99240065
-1.7293359 0.70994139 -0.059576605 0.99254656
-1.6693262 0.70993161 -0.057811622 0.99276656
-1.6127343 0.70993161 -0.056157149 0.99297291
-1.5593262 0.70995116 -0.054602776 0.99316663
-1.5087304 0.70993161 -0.053140104 0.99334919
-1.2914257 0.70992184 -0.046965905 0.99411958
-1.2179004 0.70994139 -0.044926412 0.99437416
-1.1834668 0.70993161 -0.043981817 0.99449211
-1.15042 0.70994139 -0.04308277 0.99460447
-1.1187304 0.70993161 -0.042226218 0.99471146
-1.0882617 0.70993161 -0.041409567 0.99481344
-1.0589453 0.70992184 -0.040630415 0.99491084
-1.0356933 0.73271483 -0.040431555 0.99493557
-1.0355957 0.75236326 -0.040794484 0.99489033
-1.0353613 0.81353515 -0.041964341 0.99474424
-1.0353028 0.83473629 -0.042382963 0.99469185
-1.0351952 0.85634762 -0.04281681 0.99463773
-1.0351171 0.87841797 -0.043265913 0.99458158
-8.3572264 8.0479488 -0.36976221 0.95462883
-7.7436228 8.0411816 -0.35577831 0.95630652
-7.5491695 8.0390234 -0.35145822 0.95682549
-7.3593454 8.0369234 -0.34729549 0.95732582
-6.9927344 8.0328808 -0.33941829 0.95827335
-6.8155565 8.0309277 -0.33568877 0.95872205
-6.6421971 8.0290136 -0.33209372 0.95915502
-6.3062401 8.0253029 -0.32528076 0.95997596
-5.6731153 8.0183201 -0.31303346 0.96145344
-5.227881 8.0133886 -0.30492696 0.96243274
-5.0844822 8.011797 -0.30241102 0.96273679
-4.9433885 8.0102444 -0.29998371 0.96303034
-4.6678224 8.0072069 -0.29538196 0.96358693
-4.5331249 8.0057125 -0.29320133 0.96385074
-4.0130858 7.9999609 -0.28523728 0.96481532
-3.8873925 7.9985743 -0.28342301 0.96503502
-3.6405761 7.9958496 -0.27999493 0.96545058
-3.2809961 7.9918747 -0.27532732 0.96601671
-2.932744 7.9880271 -0.27119049 0.96651852
-2.4834278 7.9830565 -0.26644427 0.9670949
-1.9417089 7.9770703 -0.26165095 0.9676773
-1.7300586 7.9747167 -0.26006505 0.96787006
-1.6251953 7.9735837 -0.25934088 0.96795797
-1.4170898 7.9712691 -0.25802556 0.96811783
-1.3137792 7.9701266 -0.25743312 0.96818984
-1.2109375 7.9690037 -0.2568846 0.96825647
-1.0064746 7.9667478 -0.25591609 0.96837431
-0.90479493 7.9656153 -0.25549498 0.96842557
-0.80344725 7.9645114 -0.25511435 0.96847171
-0.70236325 7.9633789 -0.25477511 0.96851295
-0.60154295 7.9622555 -0.2544781 0.96854919
-0.50092775 7.9611521 -0.25422066 0.96858042
-0.40050781 7.9600387 -0.25400481 0.96860671
-0.30021483 7.9589453 -0.25382859 0.96862805
-0.10003906 7.9567089 -0.25359941 0.96865624
-5.8593749e-05 7.955615 -0.25354457 0.96866292
0.19989258 7.9533982 -0.25355303 0.96866173
0.29986328 7.9523044 -0.25361836 0.9686538
0.39996094 7.951201 -0.2537238 0.96864104
0.50011718 7.9500875 -0.25386849 0.9686234
0.60041988 7.9489841 -0.25405338 0.96860081
1.0036035 7.9445114 -0.2552025 0.96846122
1.1050098 7.943408 -0.25559166 0.96841371
1.3088964 7.9411521 -0.25649762 0.96830368
1.5143847 7.9388866 -0.25757205 0.96817291
2.3578417 7.9295602 -0.26364887 0.96743453
2.5756347 7.9271579 -0.26563773 0.96719295
2.9089258 7.9234667 -0.26900056 0.96678472
3.0219824 7.9222164 -0.27022582 0.96663594
3.2512598 7.9196873 -0.27284065 0.96631855
3.3676171 7.9184079 -0.27423254 0.96614963
3.4851952 7.917109 -0.27568218 0.96597373
3.7241893 7.9144821 -0.27876252 0.96560013
3.8457227 7.913125 -0.28039473 0.96540231
3.9687402 7.9117479 -0.28209206 0.96519661
4.4766407 7.9061422 -0.28955641 0.96429241
4.6079884 7.904707 -0.29160121 0.96404475
4.7411618 7.9032226 -0.29372078 0.96378815
5.0135641 7.9002147 -0.29819903 0.96324635
5.1529589 7.8986912 -0.3005617 0.96296054
5.2945604 7.897109 -0.30300975 0.9626646
6.0401464 7.8888669 -0.31664833 0.96101731
6.197578 7.8871288 -0.31968001 0.96065152
6.688818 7.8816991 -0.32945135 0.95947355
6.8594041 7.8798242 -0.3329502 0.95905215
7.2118258 7.8759274 -0.34033737 0.95816278
7.3940134 7.8739157 -0.344239 0.95769352
7.7713766 7.8697362 -0.3524864 0.95670223
8.1675291 7.8653512 -0.36137199 0.95563531
8.3732519 7.8630762 -0.36607388 0.95507133
8.8013372 7.8583593 -0.37603486 0.95387739
9.0243454 7.8558984 -0.38131285 0.95324522
9.2537203 7.8533492 -0.38680565 0.9525882
9.4898338 7.8507419 -0.392519 0.95190483
9.9473534 7.6163278 -0.39927757 0.95109755
1.2655761 0.91950196 -0.049856719 0.99375904
1.2656543 0.89548826 -0.049413145 0.99381441
1.265752 0.87188476 -0.04898468 0.99386781
1.2658496 0.8486914 -0.048571203 0.99391937
1.2659863 0.80341792 -0.047787361 0.9940173
1.2660644 0.78132808 -0.047415808 0.99406368
1.2662109 0.73813474 -0.046711233 0.99415159
1.3306934 0.70993161 -0.048068505 0.9939822
1.5086719 0.70992184 -0.053140257 0.99334937
1.5592675 0.70993161 -0.054602697 0.99316686
1.612705 0.70993161 -0.056156918 0.99297303
1.729287 0.70992184 -0.059576835 0.9925468
1.861084 0.70994139 -0.063482739 0.99206007
2.0103514 0.70952147 -0.067944258 0.99150443
2.0102539 0.68120116 -0.067645647 0.9915415
2.0101464 0.65312499 -0.067360803 0.99157703
12.253759 3.8119237 -0.408988 0.94993854
12.782158 3.8008106 -0.42499536 0.94803089
13.353682 3.7887988 -0.44238123 0.9459635
13.98456 3.7785547 -0.4616698 0.94367486
14.680556 3.7693164 -0.48304537 0.94114536
15.381376 3.5397558 -0.50301796 0.93878782
15.573915 2.5670702 -0.5030362 0.93878543
15.605029 2.3711913 -0.50303918 0.93878514
15.633662 2.1749022 -0.50304198 0.93878484
15.723467 1.3866796 -0.5030508 0.93878382
15.764677 0.79307616 -0.50305516 0.93878341
15.773486 -0.5949316 -0.50305742 0.93878305
15.723564 -1.3866992 -0.50305378 0.93878347
15.683681 -1.7813964 -0.50305063 0.93878371
15.660009 -1.9783398 -0.50304872 0.93878388
15.605146 -2.3712206 -0.50304425 0.93878466
15.574072 -2.5671191 -0.50304168 0.93878484
15.540439 -2.7625976 -0.50303894 0.93878537
15.465947 -3.1522362 -0.50303268 0.93878597
15.335791 -3.7328124 -0.50302166 0.9387874
15.287548 -3.925205 -0.50301754 0.93878788
15.094853 -4.2828026 -0.50006062 0.93913645
14.370712 -4.2731934 -0.47781265 0.94176382
2.0101562 -0.65316403 -0.067360647 0.99157691
1.9337305 -0.70996094 -0.065650403 0.99178994
1.8611034 -0.70996094 -0.063482895 0.99205995
1.7292968 -0.70996094 -0.059576642 0.99254668
1.6126758 -0.70997071 -0.056156959 0.99297309
1.559248 -0.70998043 -0.05460266 0.99316686
1.5086817 -0.70997071 -0.053140145 0.99334925
1.4152441 -0.70996094 -0.050461348 0.99368346
1.3307031 -0.70996094 -0.048068427 0.99398214
1.2662792 -0.71705079 -0.04637764 0.99419314
1.2661426 -0.75961912 -0.047057152 0.99410832
1.2660644 -0.78135741 -0.047415998 0.99406362
1.2659179 -0.82590818 -0.048172377 0.99396914
1.2656543 -0.8955273 -0.049413033 0.99381435
1.2655859 -0.91955078 -0.04985695 0.99375886
1.265498 -0.94400388 -0.050316505 0.99370152
9.9518061 -7.6197457 -0.39945525 0.95107621
9.8550482 -7.744072 -0.39944679 0.95107716
9.7567482 -7.8671188 -0.39943811 0.95107818
9.6568842 -7.9889255 -0.39942932 0.95107931
9.4594631 -8.2345896 -0.39969924 0.95104718
9.2198534 -8.2319527 -0.39391673 0.95173818
8.9870605 -8.2293749 -0.38835651 0.95240271
8.7607327 -8.2268648 -0.38301215 0.95304197
8.5404587 -8.2244234 -0.37787303 0.95365745
8.326025 -8.2220602 -0.3729282 0.95424986
8.1170797 -8.2197561 -0.36816528 0.95482051
7.7146969 -8.2153025 -0.35916758 0.95590001
7.3312402 -8.2110739 -0.35081467 0.95690322
7.1460643 -8.209033 -0.34686458 0.95737815
6.9649901 -8.2070217 -0.34305286 0.95783633
6.1147752 -8.1976166 -0.32593679 0.95989752
5.797461 -8.1941214 -0.31990024 0.96062523
5.6431346 -8.1924124 -0.31703931 0.96097028
5.3424706 -8.1890917 -0.31161547 0.9616251
5.1959276 -8.1874514 -0.30904496 0.96193564
4.7701268 -8.1827631 -0.3018617 0.96280366
4.6324801 -8.1812305 -0.29963416 0.96307307
4.4968457 -8.1797457 -0.29748595 0.96333283
4.3630958 -8.1782522 -0.29541534 0.96358347
3.4740038 -8.1684475 -0.28289536 0.96509957
2.9969628 -8.1631737 -0.27713987 0.96579725
2.880625 -8.1618843 -0.27584544 0.96595424
2.7653613 -8.1606054 -0.27460736 0.96610457
2.3139453 -8.1556244 -0.27017984 0.96664172
2.2032518 -8.1544037 -0.26920077 0.96676058
2.0933886 -8.153203 -0.26827094 0.96687341
1.8757422 -8.1507711 -0.26655576 0.96708173
1.5541308 -8.1472263 -0.26433504 0.9673515
1.4480761 -8.1460638 -0.26368463 0.96743029
1.2374023 -8.1437206 -0.26252088 0.96757191
1.028457 -8.1414251 -0.26152971 0.96769226
0.82096678 -8.1391401 -0.26071104 0.96779174
0.71767575 -8.1379881 -0.26036465 0.96783382
0.51182616 -8.1357126 -0.25979838 0.96790266
0.40916014 -8.1345797 -0.25957707 0.96792954
0.30672851 -8.1334372 -0.25939804 0.96795142
0.20438476 -8.1323042 -0.25926018 0.96796823
-0.10219726 -8.1289158 -0.25909057 0.96798879
-0.30655274 -8.1266603 -0.25918147 0.96797764
-0.40883788 -8.1255465 -0.25928938 0.96796453
-0.51120114 -8.124404 -0.25943735 0.96794653
-0.61371094 -8.123271 -0.25962764 0.96792352
-0.81922847 -8.1209955 -0.26013115 0.96786231
-0.92233396 -8.1198635 -0.26044506 0.9678241
-1.0257128 -8.1187305 -0.2608009 0.96778077
-1.129375 -8.1175776 -0.26119897 0.96773237
-1.6533691 -8.1117773 -0.26383853 0.96741176
-1.9736426 -8.108242 -0.26595572 0.96715462
-2.2995605 -8.1046486 -0.26849103 0.96684664
-2.5205176 -8.1022072 -0.27042362 0.96661204
-2.6322362 -8.1009665 -0.27146512 0.96648562
-2.8583496 -8.0984764 -0.27370295 0.96621406
-2.9728515 -8.0972071 -0.27490103 0.96606874
-3.0883789 -8.0959272 -0.27615383 0.96591681
-3.204951 -8.0946388 -0.27746189 0.9657582
-3.322705 -8.0933399 -0.27882567 0.96559268
-3.9302342 -8.0866213 -0.28654608 0.96465695
-4.1831932 -8.083828 -0.29008162 0.96422875
-4.442627 -8.0809565 -0.29389286 0.96376735
-4.5749707 -8.0794821 -0.29590788 0.96352363
-4.8452635 -8.0765133 -0.30016515 0.9630087
-4.9834275 -8.0749903 -0.30241084 0.96273696
-5.1236424 -8.0734377 -0.30474007 0.96245545
-5.5579591 -8.0686331 -0.31225088 0.96154833
-5.7076073 -8.0669727 -0.31493676 0.96122396
-6.3336129 -8.0600586 -0.3266921 0.95980603
-7.0099707 -8.0525875 -0.34025383 0.95817298
-7.1880956 -8.0506248 -0.34396145 0.95772702
-7.3701463 -8.0486326 -0.34780386 0.95726478
-8.1418457 -8.0400877 -0.36467475 0.95523912
-8.3468065 -8.0378323 -0.36929983 0.95468432
-1.0349219 -0.92402339 -0.044215087 0.99446297
-1.0350097 -0.90098631 -0.043732148 0.99452335
-1.0350976 -0.87844723 -0.043266028 0.99458152
-1.0351856 -0.85638672 -0.042816427 0.99463767
-1.0353906 -0.81357419 -0.041964453 0.994744
-1.0354589 -0.79280269 -0.041560479 0.99479449
-1.0355273 -0.77241212 -0.041170768 0.99484324
-1.0356054 -0.75240231 -0.040794715 0.99489021
-1.0357422 -0.71344727 -0.040081061 0.99497938
-1.0589453 -0.70997071 -0.040630378 0.99491072
-1.11875 -0.70997071 -0.042226333 0.99471128
-1.2178711 -0.70997071 -0.044926338 0.99437422
-1.2914063 -0.70996094 -0.046965864 0.99411958
-1.3307714 -0.70997071 -0.048068579 0.99398184
-1.3720019 -0.70996094 -0.049231987 0.9938367
-1.415293 -0.70996094 -0.050461311 0.99368328
-1.4608301 -0.70996094 -0.05176216 0.99352092
-1.5592968 -0.70997071 -0.054602508 0.99316669
-1.6127441 -0.70997071 -0.056156807 0.99297285
-1.6693456 -0.70996094 -0.05781189 0.99276644
-11.761894 -4.1512499 -0.39751282 0.95130819
-12.548154 -3.9035254 -0.41881168 0.94876713
-13.104834 -3.8967674 -0.43572134 0.94675452
-15.297891 -3.5205564 -0.50028622 0.93910974
-15.381298 -3.1349609 -0.50027841 0.93911064
-15.419384 -2.9414062 -0.50027478 0.93911099
-15.455049 -2.7474217 -0.50027138 0.93911129
-15.519004 -2.3581152 -0.50026524 0.93911207
-15.547324 -2.1629102 -0.5002625 0.93911242
-15.596601 -1.7714942 -0.50025773 0.93911302
-15.617568 -1.575371 -0.50025558 0.93911326
-15.636093 -1.3789746 -0.50025374 0.93911344
-15.65208 -1.1823926 -0.50025213 0.93911386
-15.665703 -0.9855957 -0.5002507 0.93911386
-15.676767 -0.78866208 -0.50024951 0.93911415
-15.69163 -0.39444336 -0.50024778 0.93911415
-15.695352 -0.19725585 -0.50024724 0.93911415
-14.443125 -0 -0.50035882 0.94383192
-14.37042 1.449541 -0.50036377 0.94383115
-14.329482 1.8102148 -0.50036705 0.94383103
-14.220683 2.5279491 -0.50037599 0.94383001
-14.187949 2.7064843 -0.50037873 0.94382942
-14.115596 3.0621972 -0.50038475 0.94382888
-13.990429 3.592119 -0.50039536 0.94382781
-13.944297 3.7676463 -0.50039929 0.94382739
-13.895967 3.9426367 -0.50040346 0.94382691
-13.84542 4.1169629 -0.50040776 0.94382656
-13.336454 4.1487207 -0.48385751 0.94563282
-12.735742 4.1380858 -0.46391472 0.94781429
-11.692763 4.1268263 -0.42956543 0.95158297
-1.7817675 0.6541211 -0.065753743 0.99243206
-1.7818164 0.67966795 -0.066065408 0.9923963
-1.781875 0.70545894 -0.066390872 0.99235898
-1.7293359 0.70994139 -0.064761236 0.9925459
-1.6693262 0.70993161 -0.062842675 0.9927659
-1.6127343 0.70993161 -0.061043777 0.99297225
-1.5087304 0.70993161 -0.057764966 0.99334854
-1.4608105 0.70993161 -0.056266442 0.99352044
-1.3307421 0.70992184 -0.052251585 0.99398148
-1.2914257 0.70992184 -0.051052894 0.99411905
-1.253828 0.70993161 -0.049916036 0.9942497
-1.2179004 0.70994139 -0.048835944 0.99437362
-1.1834668 0.70993161 -0.04780918 0.99449164
-1.15042 0.70994139 -0.046831854 0.99460399
-1.1187304 0.70993161 -0.045900762 0.99471098
-1.0882617 0.70993161 -0.045013085 0.99481297
-1.0350488 0.71294922 -0.043540075 0.9949823
-1.0349023 0.75186521 -0.044314802 0.99489325
-1.0348243 0.7718457 -0.044723127 0.99484634
-1.0346386 0.81297851 -0.0455846 0.99474734
-1.0344726 0.85573238 -0.04650959 0.99464101
-1.0342773 0.90030271 -0.04750343 0.9945268
-1.0341504 0.92331052 -0.048027456 0.99446666
-8.2681341 7.9621286 -0.39765611 0.9550975
-7.5491695 8.0390234 -0.38204411 0.95682162
-7.3593454 8.0369234 -0.37751898 0.95732194
-7.1739841 8.0348825 -0.37315804 0.9578042
-6.8155761 8.0309181 -0.36490226 0.9587183
-6.6422167 8.0290041 -0.36099282 0.95915127
-6.4724803 8.0271292 -0.35722327 0.95956916
-5.8268747 8.0200195 -0.343427 0.96109992
-5.6731153 8.0183201 -0.34027398 0.96144992
-5.5220704 8.0166311 -0.33723259 0.96178806
-5.3737011 8.0149899 -0.33429608 0.96211433
-5.0844822 8.011797 -0.32872868 0.96273345
-4.9433885 8.0102444 -0.32608885 0.963027
-4.8045506 8.0087109 -0.32354262 0.96331024
-4.6678224 8.0072069 -0.32108754 0.96358365
-4.4004002 8.0042381 -0.31643265 0.96410197
-4.1404591 8.0013571 -0.31210533 0.96458405
-3.8873925 7.9985743 -0.30808696 0.96503186
-3.7632225 7.9972167 -0.30618966 0.96524358
-3.3995214 7.9931836 -0.3009125 0.96583223
-2.932744 7.9880271 -0.29479107 0.96651548
-2.8188965 7.9867673 -0.29341397 0.96666926
-2.5943065 7.9842868 -0.29083592 0.96695733
-2.2643652 7.9806347 -0.28738773 0.96734262
-2.1560547 7.9794335 -0.28634623 0.96745902
-2.0485156 7.9782519 -0.28535643 0.96756959
-1.9416796 7.9770799 -0.28441915 0.96767437
-1.7300683 7.9747262 -0.2826952 0.96786708
-1.6251855 7.9735742 -0.28190908 0.96795511
-1.5208887 7.9724216 -0.28117064 0.96803766
-1.1085156 7.9678612 -0.27869076 0.96831512
-0.90480465 7.9656153 -0.27772853 0.96842271
-0.80345702 7.9645214 -0.27731499 0.96846884
-0.50093746 7.9611621 -0.27634436 0.9685775
-0.40050781 7.9600387 -0.2761088 0.96860385
0.099912107 7.9545212 -0.27559033 0.96866184
0.2998828 7.9523144 -0.27568957 0.96865094
0.39995116 7.951201 -0.27580315 0.96863818
0.70089841 7.9478707 -0.27640849 0.96857047
0.80153316 7.9467578 -0.27669871 0.96853811
0.90243161 7.9456344 -0.27703238 0.96850073
1.0035937 7.9445214 -0.27741158 0.96845829
1.3088964 7.9411621 -0.27881852 0.96830076
1.4114355 7.9400191 -0.27937964 0.96823806
1.514375 7.9388866 -0.27998745 0.96817005
1.8261425 7.9354391 -0.28209445 0.96793443
1.9311816 7.9342966 -0.28289357 0.96784496
2.0368164 7.933115 -0.28374144 0.96775013
2.2501073 7.9307518 -0.28559139 0.96754354
2.357832 7.9295602 -0.28659287 0.96743155
2.4663184 7.928369 -0.28764716 0.96731371
3.0219727 7.9222264 -0.29374143 0.9666329
3.1360741 7.9209666 -0.2951324 0.96647751
3.2512598 7.9196873 -0.29658365 0.96631551
3.3676367 7.9184079 -0.29809669 0.96614653
3.4852147 7.917109 -0.29967356 0.96597058
3.6040332 7.915791 -0.30131423 0.96578753
3.7241893 7.9144821 -0.30302191 0.96559703
3.8457227 7.913125 -0.30479649 0.96539915
4.0932617 7.9103904 -0.30855674 0.96497977
4.347158 7.907578 -0.31261095 0.9645279
4.4766407 7.9061422 -0.31475291 0.96428919
4.8763475 7.9017382 -0.32167214 0.96351874
5.0135641 7.9002147 -0.32414877 0.96324301
5.4385839 7.8955274 -0.33213621 0.96235442
5.8856735 7.8905859 -0.3410255 0.96136683
6.0401464 7.8888669 -0.34420478 0.96101379
6.197578 7.8871188 -0.34749922 0.960648
6.358037 7.8853512 -0.3509143 0.96026915
6.5217481 7.8835349 -0.3544535 0.95987666
7.9669628 7.867578 -0.38789999 0.95617473
8.1675291 7.8653512 -0.39282012 0.95563132
8.3732519 7.8630762 -0.39793155 0.95506728
8.4973335 7.7809176 -0.3991479 0.95493305
8.5946579 7.6737204 -0.39915672 0.95493191
8.7851267 7.455615 -0.39917395 0.95493019
8.8783102 7.3447752 -0.39918238 0.95492923
8.970088 7.2327733 -0.39919069 0.95492834
9.0604391 7.1196289 -0.39919892 0.9549275
1.2648144 0.89489257 -0.053677138 0.99381793
1.2649219 0.87131834 -0.05321224 0.99387127
1.2650195 0.84813476 -0.052763328 0.99392277
1.2651757 0.80290037 -0.051912345 0.99402058
1.265332 0.75909179 -0.051119879 0.9941116
1.2654102 0.73766601 -0.050744131 0.99415475
1.2654883 0.71656251 -0.050382003 0.9941963
1.2913672 0.70992184 -0.051053122 0.99411929
1.4152343 0.70993161 -0.054852638 0.99368298
1.4607519 0.70993161 -0.056266516 0.99352068
1.5592675 0.70993161 -0.059354134 0.99316621
1.7931151 0.70993161 -0.066811562 0.99231094
1.861084 0.70994139 -0.069007337 0.99205935
1.9337305 0.70992184 -0.071364023 0.99178922
2.012373 0.68191403 -0.073609769 0.99153185
2.0122461 0.65381837 -0.073299713 0.99156749
12.226455 3.8034277 -0.44358811 0.95004278
12.761963 3.7948046 -0.46124858 0.94810617
14.104775 3.4331446 -0.50290412 0.94355446
14.146943 3.2556736 -0.50290811 0.94355392
14.224463 2.8991699 -0.50291538 0.94355327
14.259892 2.7202148 -0.50291872 0.94355279
14.292997 2.5408008 -0.50292188 0.94355261
14.323915 2.3610253 -0.50292486 0.9435522
14.352529 2.1808496 -0.5029276 0.9435519
14.378857 2.0003417 -0.5029301 0.94355166
14.402959 1.8195117 -0.50293249 0.9435513
14.461454 1.2753906 -0.50293827 0.94355071
14.476377 1.0935448 -0.50293976 0.94355059
14.489033 0.91157222 -0.50294113 0.94355035
14.499346 0.72942382 -0.5029422 0.94355035
14.513134 0.36481443 -0.50294387 0.94355017
14.516572 0.1824121 -0.50294435 0.94355017
14.499404 -0.7294336 -0.50294381 0.94355011
14.489014 -0.91158199 -0.50294304 0.94355041
14.444345 -1.457041 -0.50293964 0.94355047
14.424814 -1.6384082 -0.50293809 0.94355077
14.324072 -2.361084 -0.50292987 0.94355154
14.224619 -2.8992188 -0.50292158 0.94355267
14.187021 -3.0777342 -0.50291836 0.94355279
14.147139 -3.2557421 -0.50291502 0.94355315
14.10499 -3.4332519 -0.50291145 0.94355363
14.060596 -3.6101658 -0.50290769 0.94355416
14.014033 -3.7865527 -0.5029037 0.94355446
13.965205 -3.9622948 -0.50289953 0.94355506
13.708174 -4.2644043 -0.49734649 0.94416052
2.0122559 -0.65384763 -0.073299557 0.99156737
2.012373 -0.68196285 -0.073609963 0.99153179
2.0124805 -0.71031249 -0.073935084 0.99149466
1.9337305 -0.70996094 -0.071363598 0.99178916
1.8611034 -0.70996094 -0.069007106 0.99205923
1.7930957 -0.70997071 -0.066811599 0.99231094
1.7292773 -0.70997071 -0.064761274 0.99254602
1.559248 -0.70998043 -0.059354398 0.99316621
1.4607519 -0.70997071 -0.056266591 0.99352062
1.2913672 -0.70996094 -0.051053006 0.99411917
1.2654883 -0.71659178 -0.050382003 0.99419624
1.2654004 -0.73771483 -0.050744094 0.99415469
1.2651855 -0.80294919 -0.05191246 0.99402046
1.265 -0.84816402 -0.052763481 0.99392277
1.2648437 -0.89491206 -0.053677365 0.99381781
1.2647265 -0.91891599 -0.054159012 0.99376255
1.2646191 -0.9433496 -0.054657858 0.99370527
9.0644627 -7.1228223 -0.39937553 0.95490789
8.9740524 -7.2360153 -0.39936754 0.95490879
8.4024506 -7.8904781 -0.3993172 0.95491421
8.2011423 -8.0987692 -0.39929947 0.95491624
8.0985641 -8.2010059 -0.39929041 0.95491713
7.9134078 -8.2175198 -0.39522293 0.95536613
7.7146969 -8.2153025 -0.39042425 0.95589602
7.3312206 -8.2110739 -0.38134468 0.95689934
7.1460643 -8.209033 -0.37704897 0.95737433
6.7878122 -8.2050686 -0.36891273 0.95827466
6.6143456 -8.2031641 -0.36506 0.95870125
6.4444919 -8.2012787 -0.36134475 0.95911288
6.1147361 -8.1976271 -0.35429981 0.95989394
5.9546094 -8.1958685 -0.35096076 0.96026421
5.4915137 -8.190732 -0.34162962 0.96129996
5.3424706 -8.1890917 -0.33873394 0.96162164
4.9098434 -8.1843166 -0.33064151 0.96252114
4.6324801 -8.1812305 -0.32570994 0.96306974
4.3630958 -8.1782618 -0.32112181 0.96358019
4.2312012 -8.176816 -0.31895232 0.96382177
3.5964649 -8.169795 -0.30924195 0.96490377
3.4740233 -8.168437 -0.30751437 0.96509641
3.3528612 -8.167119 -0.30585173 0.96528155
2.9969628 -8.1631737 -0.30125812 0.96579415
2.3139355 -8.1556244 -0.29369232 0.96663874
2.2032518 -8.1543941 -0.29262808 0.9667576
2.0933788 -8.1531935 -0.29161739 0.96687043
1.9842089 -8.1519823 -0.29065922 0.96697748
1.2373925 -8.1437111 -0.28536582 0.96756905
0.71766597 -8.1379881 -0.283023 0.9678309
0.51181638 -8.1357126 -0.28240645 0.96789974
-4.8828122e-05 -8.1300392 -0.28165421 0.96798408
-0.1022168 -8.1289158 -0.28163692 0.96798593
-0.40884766 -8.1255369 -0.2818521 0.96796167
-0.51120114 -8.1243944 -0.28201395 0.96794367
-0.92233396 -8.119853 -0.28310931 0.96782124
-1.3377246 -8.115283 -0.28493488 0.96761698
-1.4424902 -8.1141205 -0.28550875 0.96755296
-1.5476953 -8.1129389 -0.28612944 0.96748358
-1.6533788 -8.1117678 -0.28679815 0.96740884
-2.4096386 -8.1034174 -0.29287916 0.9667294
-2.6322362 -8.1009665 -0.2950885 0.96648264
-2.7448339 -8.0997162 -0.29627639 0.96635002
-2.9728515 -8.0972071 -0.29882324 0.96606565
-3.0883789 -8.0959272 -0.30018398 0.96591371
-3.322705 -8.0933495 -0.30308974 0.96558952
-3.4416015 -8.0920315 -0.30463615 0.96541703
-3.561748 -8.0906935 -0.30624735 0.96523744
-3.9301953 -8.0866108 -0.31148303 0.96465385
-4.3120508 -8.0823927 -0.31735873 0.96399915
-4.442627 -8.0809565 -0.31946892 0.96376413
-4.7091403 -8.0780077 -0.32393044 0.96326756
-5.123662 -8.0734377 -0.33126029 0.96245205
-5.2660837 -8.0718555 -0.33388463 0.96216035
-5.41083 -8.0702639 -0.33660471 0.96185797
-5.5579591 -8.0686331 -0.33942461 0.96154487
-5.7076073 -8.0669727 -0.34234327 0.96122044
-5.8598533 -8.0652924 -0.34537104 0.96088445
-6.0148926 -8.0636034 -0.34850496 0.96053624
-6.4976463 -8.0582809 -0.35861164 0.95941538
-6.6649117 -8.056406 -0.36223045 0.95901471
-7.1880956 -8.0506344 -0.37389359 0.95772314
-7.5563183 -8.0465822 -0.38240546 0.9567818
-7.7468653 -8.0444632 -0.38690022 0.95628494
-7.9419823 -8.042304 -0.39156601 0.9557696
-8.1418457 -8.0400972 -0.39640915 0.95523506
-8.3709669 -7.8608398 -0.39781952 0.9550795
-1.0343554 -0.8778125 -0.04699745 0.99458492
-1.0344726 -0.85577148 -0.04650978 0.99464095
-1.0348339 -0.77189451 -0.044723205 0.99484622
-1.0349023 -0.75189453 -0.044314764 0.99489319
-1.0349804 -0.73225582 -0.043920629 0.99493849
-1.0350586 -0.71295899 -0.043540113 0.99498224
-1.0589453 -0.70997071 -0.044165917 0.99491024
-1.0882519 -0.70996094 -0.045013044 0.99481297
-1.11875 -0.70997071 -0.04590103 0.9947108
-1.1504394 -0.70997071 -0.046832006 0.99460387
-1.2178711 -0.70997071 -0.048836097 0.99437368
-1.3307714 -0.70997071 -0.0522517 0.9939813
-1.3720019 -0.70996094 -0.053516194 0.9938361
-1.4608301 -0.70996094 -0.056266554 0.99352032
-1.781875 -0.70549804 -0.066390723 0.99235892
-1.7818261 -0.67970699 -0.066065364 0.99239624
-1.7817675 -0.65415037 -0.065753631 0.992432
-11.124717 -3.9263573 -0.40869528 0.95388001
-12.548163 -3.9035058 -0.45525774 0.94876254
-13.708408 -3.8894336 -0.4936505 0.94456369
-13.944511 -3.7677441 -0.50040734 0.9438265
-13.990635 -3.5921972 -0.50040305 0.94382697
-14.03456 -3.416074 -0.50039893 0.94382739
-14.115751 -3.0622656 -0.5003913 0.94382828
-14.152988 -2.8846092 -0.50038779 0.94382876
-14.188037 -2.7065136 -0.50038445 0.94382912
-14.220879 -2.5280175 -0.50038135 0.9438293
-14.251426 -2.3490918 -0.50037843 0.94382966
-14.279726 -2.1698143 -0.50037569 0.94383001
-14.305761 -1.990205 -0.50037318 0.94383037
-14.351211 -1.6300585 -0.50036877 0.94383055
-14.370459 -1.4495605 -0.50036687 0.94383097
-14.402305 -1.0879883 -0.50036359 0.94383115
-14.42499 -0.72569335 -0.5003612 0.9438315
-14.432968 -0.544375 -0.50036031 0.94383156
-14.441982 -0.18150391 -0.50035912 0.94383192
-13.370732 0.33611327 -0.50045419 0.94787061
-13.358076 0.67200196 -0.50045496 0.94787055
-13.348603 0.8398242 -0.50045568 0.94787049
-13.323379 1.1749902 -0.50045753 0.94787014
-13.223495 2.0092969 -0.50046557 0.94786936
-13.197255 2.1753027 -0.50046772 0.94786918
-13.168935 2.3409765 -0.5004701 0.947869
-13.106035 2.6712108 -0.50047535 0.94786865
