# .PCD v0.7 - Point Cloud Data file format
VERSION 0.7
FIELDS x y z intensity
SIZE 4 4 4 4
TYPE F F F F
COUNT 1 1 1 1
WIDTH 1094
HEIGHT 1
VIEWPOINT 0 0 0 1 0 0 0
POINTS 1094
DATA ascii
-3.8107226 -8.0980663 0.16118111 0.96482813
-4.060957 -8.0953217 0.16310714 0.96441549
-4.1883693 -8.0938959 0.16412613 0.96419722
-4.7149901 -8.0880661 0.16860481 0.96323848
-4.8512888 -8.0865717 0.16983077 0.9629761
-5.1300097 -8.0834866 0.17242043 0.96242237
-5.7146873 -8.0770311 0.17818877 0.96118981
-5.8671384 -8.0753412 0.1797644 0.96085352
-6.3414841 -8.0700979 0.18483947 0.95977062
-6.673203 -8.0664454 0.18853919 0.95898229
-6.8441405 -8.0645409 0.19048972 0.95856678
-7.0186911 -8.0626173 0.19251166 0.95813614
-7.1970115 -8.0606537 0.19460952 0.95768988
-7.7564645 -8.0544529 0.20138022 0.95625067
-7.9518161 -8.0523043 0.20380943 0.95573491
-8.3571682 -8.047822 0.20894706 0.95464468
-1.0563476 -0.94316405 0.025503464 0.99435055
-1.0559863 -0.89615232 0.024942627 0.99447447
-1.0556347 -0.85116208 0.024421271 0.99458963
-1.055166 -0.78706056 0.02370655 0.99474752
-1.054873 -0.74631834 0.023271179 0.99484378
-1.0589257 -0.70995116 0.02295967 0.99491256
-1.0882519 -0.70995116 0.023400001 0.99481523
-1.1187109 -0.70994139 0.02386158 0.99471331
-1.2538183 -0.70995116 0.025948677 0.9942522
-1.2914063 -0.70995116 0.026539993 0.99412161
-1.3719921 -0.70994139 0.027820434 0.99383891
-1.5087304 -0.70995116 0.030028915 0.9933514
-1.6127245 -0.70994139 0.03173374 0.99297535
-1.6693066 -0.70994139 0.032668762 0.99276906
-1.765625 -0.72484374 0.034372862 0.99239337
-1.7656542 -0.69906247 0.034199677 0.99243152
-1.7657129 -0.64826173 0.033874359 0.99250323
-15.764267 -4.2594142 0.29408196 0.93675935
-1.7665429 0.64856446 0.028675918 0.99250007
-1.6127148 0.70996094 0.026850853 0.99297571
-1.5592968 0.70994139 0.026107367 0.99316943
-1.5087304 0.70994139 0.0254084 0.99335176
-1.4152637 0.70995116 0.024127502 0.9936859
-1.3719921 0.70994139 0.023539657 0.9938392
-1.2178613 0.70995116 0.021481209 0.99437648
-1.15042 0.70996094 0.020599326 0.99460655
-1.1187304 0.70996094 0.020189933 0.99471343
-1.0882226 0.70995116 0.019799232 0.99481559
-1.0589257 0.70996094 0.019426765 0.9949128
-1.052334 0.72486329 0.019471398 0.99490118
-1.0525781 0.76472652 0.019825364 0.99480873
-1.0528125 0.80610347 0.020205345 0.99470949
-1.052959 0.8273828 0.020405883 0.99465716
-1.0531152 0.84912109 0.020613784 0.9946028
-1.0532324 0.87130857 0.020829277 0.99454659
-1.0533984 0.89396483 0.021052742 0.99448818
-1.0535449 0.91711915 0.021284522 0.99442774
-8.1370211 8.0354099 0.17426147 0.95528191
-7.5395408 8.0287991 0.16783074 0.95689583
-7.3499608 8.0266991 0.16584235 0.95739532
-7.164824 8.0246582 0.1639286 0.9578768
-6.9838572 8.022666 0.1620816 0.95834124
-6.6337204 8.0187893 0.15858337 0.9592216
-6.4642186 8.0169239 0.15692711 0.95963871
-5.9759569 8.0115232 0.1523014 0.96080488
-5.6658592 8.0080957 0.14948119 0.96151644
-5.5150194 8.0064354 0.1481469 0.96185386
-5.3668551 8.0047951 0.14685676 0.9621796
-5.221211 8.0031929 0.14561196 0.96249408
-4.7983985 7.9985156 0.14213195 0.96337354
-4.6618652 7.9970016 0.14105301 0.96364647
-4.5273533 7.9955077 0.14001235 0.96390986
-4.3947849 7.9940329 0.13900872 0.9641639
-4.2641015 7.9926071 0.138041 0.96440887
-4.1351757 7.9911814 0.13710831 0.96464515
-4.007998 7.9897852 0.13620827 0.96487278
-3.882412 7.9883885 0.13534248 0.96509224
-3.3951757 7.9829979 0.13219047 0.9658913
-3.2768066 7.9816895 0.13147697 0.96607232
-3.159668 7.9804101 0.1307904 0.96624625
-3.04375 7.9791207 0.13013268 0.9664132
-2.7026367 7.9753318 0.12831676 0.96687388
-2.4802637 7.9728904 0.12723377 0.96714872
-2.37042 7.9716797 0.1267295 0.96727693
-2.2614648 7.9704785 0.12624802 0.96739906
-2.153291 7.9692774 0.12579113 0.96751529
-1.8332129 7.9657421 0.12455513 0.96782917
-1.7278515 7.9645801 0.12418708 0.96792257
-1.6230859 7.963418 0.12384185 0.96801049
-1.4152734 7.9611325 0.12321395 0.96817005
-1.3120898 7.9599805 0.12293114 0.96824187
-1.2093945 7.9588475 0.1226688 0.96830845
-1.1070801 7.9577246 0.1224279 0.96836984
-1.005205 7.9566016 0.12220711 0.96842611
-0.80239254 7.9543552 0.121824 0.96852344
-0.70145506 7.9532418 0.12166275 0.96856451
-0.60075194 7.9521289 0.12152039 0.96860069
-0.19981445 7.9476852 0.12114543 0.96869594
-3.9062499e-05 7.9454684 0.12107383 0.9687143
0.099814452 7.9443846 0.12106727 0.96871608
0.19964844 7.9432907 0.12107875 0.96871299
0.2995117 7.9421678 0.12111049 0.96870518
0.39946288 7.9410739 0.12116028 0.96869242
0.80053711 7.9366207 0.12155296 0.96859252
0.9013086 7.9355273 0.12170032 0.96855509
1.0023242 7.9343944 0.12186641 0.96851283
1.1036328 7.9333005 0.12205311 0.96846539
1.2052441 7.932158 0.12225895 0.96841311
1.7195116 7.9264646 0.12359416 0.96807367
1.8238477 7.9253221 0.12392341 0.96798986
1.9287401 7.9241695 0.12427486 0.96790063
2.1404102 7.9218359 0.12504265 0.96770555
2.2472558 7.9206443 0.12545928 0.96759957
2.4631836 7.918252 0.12636222 0.96737027
2.5723631 7.9170408 0.12684925 0.96724671
2.7933495 7.9146094 0.12789455 0.96698117
2.9052539 7.9133787 0.12845467 0.96683902
3.0181346 7.9121289 0.12903935 0.96669054
3.2471581 7.9095993 0.13028771 0.96637362
3.3633494 7.9083104 0.13095286 0.96620506
3.599453 7.9056931 0.13236648 0.96584666
3.7194726 7.9043846 0.13311668 0.96565646
3.8408689 7.9030371 0.13389549 0.96545881
4.2140231 7.8989158 0.1364228 0.96481878
4.735127 7.8931541 0.14025909 0.96384734
4.8701267 7.8916502 0.14131011 0.96358174
5.0071874 7.8901367 0.14239845 0.96330643
5.2878513 7.8870406 0.14469528 0.96272558
5.4316406 7.8854489 0.1459056 0.96241939
6.1896777 7.87707 0.15265472 0.96071577
6.5134373 7.873486 0.15571067 0.95994574
7.0247264 7.8678613 0.16072372 0.95868289
7.2026367 7.865869 0.16252036 0.95823103
7.5708203 7.8618064 0.16631553 0.95727658
8.1571283 7.8553414 0.17256507 0.95570749
8.3625584 7.8530469 0.17480904 0.95514452
5.2039161 4.4163771 0.10400505 0.9730649
5.205791 4.3066015 0.10295352 0.97333384
9.9710932 7.8352733 0.19323929 0.9505344
10.496328 7.8294725 0.1995398 0.94896322
1.2871875 0.9107129 0.02402748 0.99371201
1.2870605 0.88655269 0.023815116 0.99376738
1.2865235 0.7939648 0.023037339 0.99397039
1.2863965 0.77174801 0.022859534 0.99401671
1.2862695 0.74985349 0.022688521 0.99406147
1.5087109 0.70996094 0.0254084 0.99335176
1.5592577 0.70995116 0.026107291 0.99316955
1.612705 0.70995116 0.026850777 0.99297571
1.7293066 0.70996094 0.028485907 0.99254954
1.7931249 0.70996094 0.029387664 0.99231458
1.861123 0.70995116 0.030353049 0.99206299
1.9337597 0.70996094 0.031390037 0.99179304
1.9749414 0.69705075 0.031913795 0.99165666
23.68951 7.6972752 0.37956092 0.90515763
1.9749707 -0.66925782 0.031776313 0.9916926
1.9337401 -0.70995116 0.031389579 0.9917931
1.8611034 -0.70995116 0.030353393 0.99206305
1.6692773 -0.70995116 0.027641829 0.99276954
1.4607714 -0.70993161 0.024749411 0.99352372
1.4152539 -0.70993161 0.024127312 0.99368596
1.3719629 -0.70994139 0.02353958 0.99383926
1.3307031 -0.70995116 0.022983283 0.99398446
1.2913769 -0.70996094 0.022456245 0.99412197
1.2862793 -0.74984372 0.022688445 0.99406147
1.2864257 -0.77172852 0.022859497 0.99401665
1.286914 -0.86282223 0.02360977 0.99382091
1.2870507 -0.88656247 0.023814926 0.99376738
11.077109 -8.2626266 0.21058357 0.9462167
10.235801 -8.2533102 0.20036323 0.94875854
9.7184181 -8.2476072 0.19423065 0.95028675
8.9983006 -8.2396383 0.1859204 0.9523629
7.9233007 -8.2277632 0.17405921 0.95533282
7.7243161 -8.2255564 0.17194641 0.95586312
7.530117 -8.2234077 0.16990928 0.95637423
7.1549997 -8.2192678 0.16605476 0.95734245
6.973711 -8.2172556 0.16423126 0.95780098
6.796289 -8.2153025 0.16247109 0.95824343
6.2858591 -8.2096577 0.15755874 0.95947999
6.1224022 -8.2078514 0.15603569 0.9598639
5.96207 -8.2060843 0.1545652 0.9602344
5.8047071 -8.2043457 0.15314819 0.96059215
5.6501856 -8.2026272 0.15177764 0.96093756
5.3491502 -8.1993065 0.14917976 0.96159285
5.2024217 -8.1976852 0.14795028 0.96190363
5.0580859 -8.196084 0.14676285 0.96220356
4.9159961 -8.1945114 0.14561675 0.96249306
4.7760935 -8.1929779 0.14451142 0.96277243
4.6382713 -8.1914644 0.14344475 0.96304196
4.2365036 -8.1870022 0.14046867 0.96379465
4.1061816 -8.1855659 0.13954735 0.96402776
3.9775195 -8.1841497 0.13865958 0.96425235
3.8505077 -8.182744 0.13780601 0.96446866
3.7250097 -8.1813574 0.13698433 0.96467698
3.600996 -8.1799898 0.13619247 0.96487737
3.478369 -8.1786327 0.1354322 0.96507019
3.35708 -8.1773043 0.13469924 0.9652555
3.2370703 -8.1759768 0.13399734 0.96543354
3.1183202 -8.1746483 0.13332275 0.96560454
3.0007031 -8.1733494 0.13267662 0.96576852
2.8842578 -8.17206 0.13205634 0.96592557
2.5409765 -8.1682711 0.13035351 0.96635747
2.4284766 -8.1670218 0.12983684 0.96648866
2.3168457 -8.165801 0.1293436 0.96661365
2.2060156 -8.1645803 0.12887539 0.96673262
2.0959864 -8.1633492 0.12842976 0.96684563
1.8780859 -8.1609468 0.12760967 0.96705401
1.7701563 -8.1597462 0.12723343 0.96714962
1.662832 -8.1585646 0.12687859 0.96723956
1.4498925 -8.1562109 0.12623516 0.96740294
1.1341602 -8.1527243 0.12542987 0.9676075
1.0297656 -8.1515818 0.12520355 0.96766502
0.40973631 -8.1447067 0.12426887 0.9679026
0.20466797 -8.1424513 0.12411541 0.96794128
0.10229492 -8.1413183 0.12406921 0.96795309
-0.30693358 -8.136797 0.12407791 0.9679507
-0.40931639 -8.135664 0.1241296 0.96793765
-0.71723634 -8.1322556 0.12440208 0.96786845
-0.82025391 -8.1311226 0.12453189 0.96783531
-1.0269531 -8.1288376 0.12485351 0.96775377
-1.1307422 -8.1276951 0.12504368 0.96770525
-1.2348828 -8.1265326 0.12525527 0.96765167
-1.339375 -8.1253805 0.12548743 0.96759278
-1.5496191 -8.1230564 0.12601326 0.9674592
-1.7617675 -8.1207123 0.12662362 0.96730411
-1.9760936 -8.1183491 0.12732109 0.96712703
-2.0841992 -8.1171579 0.12770252 0.96703005
-2.3024218 -8.1147366 0.12853561 0.96681887
-2.7482324 -8.1098146 0.13048267 0.96632481
-3.0922167 -8.1060152 0.13220398 0.9658882
-3.2089257 -8.1047268 0.13282989 0.96572948
-3.445869 -8.1020994 0.13416366 0.96539128
-3.6877539 -8.0994234 0.13561225 0.96502435
-3.8107226 -8.0980663 0.13638015 0.96482968
-4.060957 -8.0953217 0.13800895 0.9644171
-4.5806541 -8.0895605 0.14166145 0.96349305
-4.7150097 -8.0880756 0.14266166 0.96324009
-4.8513083 -8.0865717 0.14369918 0.96297771
-5.4175587 -8.0803127 0.14824317 0.96182954
-5.5648727 -8.0786915 0.14948456 0.96151614
-5.8671775 -8.0753412 0.15210319 0.96085519
-6.673203 -8.0664454 0.15952766 0.95898414
-6.8441601 -8.0645409 0.16117798 0.95856863
-7.1970115 -8.0606441 0.16466537 0.95769179
-7.7564645 -8.0544529 0.17039397 0.95625263
-7.9518356 -8.0523043 0.17244826 0.95573682
-8.1519823 -8.0500879 0.17458092 0.95520186
-8.5676947 -8.0454979 0.17909659 0.95407033
-1.0536914 -0.94078124 0.021524772 0.99436504
-1.0533789 -0.89394528 0.021052819 0.9944883
-1.052334 -0.72486329 0.019471398 0.99490118
-1.0589257 -0.70995116 0.019427031 0.9949128
-1.0882519 -0.70995116 0.019799309 0.99481547
-1.1187109 -0.70994139 0.020190163 0.99471354
-1.2178808 -0.70995116 0.021480979 0.99437642
-1.3307421 -0.70994139 0.022983398 0.99398434
-1.4152734 -0.70994139 0.024127539 0.99368584
-1.460791 -0.70994139 0.024749298 0.99352366
-1.5087304 -0.70994139 0.025408097 0.99335176
-1.6127245 -0.70994139 0.026850777 0.99297565
-1.7664746 -0.72519529 0.029097786 0.99239004
-1.767334 0.69974607 0.023697967 0.99242496
-1.6693262 0.70995116 0.022615509 0.9927696
-1.6127148 0.70996094 0.021968344 0.99297595
-1.5592968 0.70994139 0.021360053 0.99316967
-1.4608008 0.70995116 0.020248985 0.99352384
-1.3719921 0.70995116 0.019259414 0.99383938
-1.2538086 0.70996094 0.01796337 0.99425268
-1.1834277 0.70995116 0.017205315 0.99449462
-1.15042 0.70996094 0.016853752 0.99460673
-1.1186913 0.70996094 0.016518593 0.99471378
-1.0882617 0.70994139 0.016199149 0.99481565
-1.0589257 0.70996094 0.015894355 0.99491298
-1.0502441 0.78339845 0.016334876 0.99477237
-1.0503417 0.80418944 0.016492309 0.99472213
-1.0504687 0.8254199 0.016655503 0.99466997
-1.0505567 0.84708005 0.016824836 0.99461603
-1.0506738 0.86919922 0.017000312 0.99456
-1.050918 0.91483396 0.017370986 0.99444181
-8.5618258 8.0401173 0.1464296 0.95410246
-7.3499608 8.0266991 0.13568756 0.95739692
-7.164824 8.0246582 0.1341195 0.95787835
-6.8068652 8.0207129 0.1311512 0.9587909
-6.4642186 8.0169239 0.12839191 0.9596402
-6.2981935 8.0150776 0.12708595 0.96004277
-6.135498 8.0132904 0.12582444 0.96043128
-5.9759569 8.0115232 0.1246072 0.96080631
-5.8194723 8.0097952 0.12343308 0.96116835
-5.6658592 8.0080957 0.12229995 0.96151787
-5.5150194 8.0064354 0.12120758 0.96185529
-5.0779686 8.0015917 0.11814953 0.96279913
-4.7983985 7.9985156 0.11628628 0.96337491
-4.6618652 7.9970016 0.11540462 0.96364784
-4.5273533 7.9955077 0.11455311 0.96391118
-4.3947849 7.9940329 0.11373211 0.96416527
-4.2641015 7.9926071 0.11294029 0.96441019
-3.7584276 7.9870214 0.11004921 0.96530491
-3.5148633 7.9843163 0.10875992 0.96570426
-3.3951757 7.9829979 0.10815353 0.96589255
-3.04375 7.9791207 0.10646988 0.96641451
-2.5909765 7.9741211 0.10453147 0.96701568
-2.4802637 7.9728904 0.10409809 0.96714997
-2.153291 7.9692674 0.10291782 0.96751654
-2.0458887 7.9680953 0.1025621 0.96762681
-1.7278515 7.9645801 0.10160522 0.96792382
-1.4152734 7.9611325 0.10080841 0.96817124
-1.3120898 7.9599805 0.10057792 0.96824312
-1.005205 7.9566016 0.099984817 0.9684273
-0.80239254 7.9543457 0.099671893 0.96852463
-0.70145506 7.9532418 0.099540249 0.9685657
-0.50029296 7.9510055 0.099323921 0.96863306
-0.29983398 7.9487987 0.09917026 0.96868068
-0.099882811 7.9465919 0.099079318 0.96870869
-3.9062499e-05 7.9454684 0.099058375 0.96871549
0.099814452 7.9443846 0.099052198 0.96871722
0.2995117 7.9421678 0.09908741 0.96870637
0.49951172 7.9399509 0.099185444 0.96867603
0.59966797 7.9388571 0.099257693 0.96865344
0.69999999 7.9377341 0.099345587 0.96862608
0.80053711 7.9366207 0.099450298 0.96859372
1.0023242 7.9343944 0.09970592 0.96851403
1.2052441 7.932158 0.10002705 0.96841431
1.3072559 7.931035 0.10021275 0.96835679
1.4096484 7.9299021 0.1004129 0.96829414
1.5124707 7.9287596 0.10063186 0.96822631
1.6157519 7.9276266 0.10086666 0.96815318
1.8238477 7.9253221 0.10138863 0.96799105
2.2472558 7.9206443 0.10264526 0.96760082
2.4631836 7.918252 0.10338409 0.96737152
2.9052539 7.9133787 0.10509727 0.96684033
3.1320996 7.9108591 0.10607578 0.9665367
3.4807615 7.9070115 0.10770775 0.96603072
3.599453 7.9056931 0.10829647 0.96584791
3.7194531 7.9043846 0.10891029 0.96565777
3.9637401 7.9016795 0.11021034 0.96525472
4.0880761 7.9003124 0.11090015 0.96504152
4.2140231 7.8989158 0.11161526 0.96482015
4.4709668 7.8960643 0.11312771 0.96435213
4.735127 7.8931441 0.11475387 0.96384871
4.8701267 7.8916602 0.11561283 0.96358305
5.1463671 7.8886032 0.11742824 0.96302259
5.4316406 7.8854489 0.11937557 0.96242082
6.0324607 7.8788085 0.12371273 0.9610824
6.5134373 7.873486 0.1273959 0.95994723
6.6802926 7.8716502 0.12871368 0.9595412
7.3845897 7.8638668 0.13449165 0.95776409
7.9568162 7.8575387 0.13941665 0.95625168
8.1571283 7.8553414 0.14118545 0.95570916
8.7901363 7.84833 0.14691436 0.95395416
5.2019138 4.4146681 0.085060537 0.97307616
5.2036033 4.3048244 0.08419773 0.97334582
10.496328 7.8294725 0.1632563 0.94896513
1.2840332 0.86088866 0.019273223 0.99383491
1.2837988 0.81473631 0.018956717 0.99393594
1.2836132 0.7700488 0.018661994 0.99402994
1.283496 0.74823242 0.018522376 0.99407446
1.2834375 0.72671872 0.018387832 0.99411732
1.3307323 0.70996094 0.018804092 0.99398458
1.4152441 0.70995116 0.019740028 0.9936862
1.4607714 0.70994139 0.020248985 0.99352396
1.5087109 0.70996094 0.020787887 0.99335206
1.5592577 0.70995116 0.021360129 0.99316978
1.612705 0.70995116 0.021968344 0.99297601
1.6692871 0.70995116 0.02261528 0.99276978
1.7293066 0.70996094 0.023306007 0.99254984
23.649004 7.6841016 0.31001213 0.90531534
1.9770117 -0.66995114 0.026024666 0.99168438
1.9337401 -0.70995116 0.025681725 0.99179345
1.8611034 -0.70995116 0.024833908 0.99206334
1.7293164 -0.70995116 0.023305701 0.99254984
1.6692773 -0.70995116 0.022615585 0.99276978
1.6126952 -0.70995116 0.021968041 0.99297607
1.3719629 -0.70994139 0.019258957 0.9938395
1.3307031 -0.70995116 0.018804129 0.9939847
1.2913769 -0.70996094 0.018372612 0.99412221
1.2835058 -0.74822265 0.018522376 0.99407446
1.2835938 -0.77005857 0.018661994 0.99402994
1.2843847 -0.93314451 0.019792747 0.99366933
10.787266 -8.2594233 0.1693821 0.94710171
10.507031 -8.2563276 0.16659935 0.94794822
10.235801 -8.2533102 0.16392852 0.94876045
9.7184181 -8.2476072 0.15891357 0.95028859
9.2314253 -8.2422171 0.15428825 0.95169955
8.7716599 -8.2371283 0.15001854 0.95300454
8.5511913 -8.2346973 0.14800522 0.9536202
8.3364649 -8.2323341 0.14606903 0.95421314
8.1272268 -8.2300196 0.14420387 0.95478433
7.7243161 -8.2255564 0.14067909 0.95586479
6.9736915 -8.2172556 0.13436684 0.95780259
6.6226559 -8.2133789 0.13153945 0.95867187
6.4525585 -8.211504 0.13020031 0.95908386
6.2858591 -8.2096577 0.12890896 0.95948154
5.96207 -8.2060738 0.12645984 0.96023595
5.650166 -8.2026367 0.12417797 0.96093905
5.0580859 -8.196084 0.12007614 0.96220493
4.9159765 -8.1945114 0.11913875 0.96249449
4.7760935 -8.1929684 0.11823307 0.96277386
4.3685546 -8.1884565 0.1157085 0.96355426
4.2365036 -8.1870022 0.11492634 0.96379602
4.1061621 -8.1855659 0.11417251 0.96402913
3.8505077 -8.182744 0.11274795 0.96447003
3.7250097 -8.1813574 0.11207569 0.96467829
3.600996 -8.1799898 0.11142681 0.96487868
3.4783299 -8.1786327 0.11080383 0.96507156
2.4284766 -8.1670218 0.10622692 0.96648997
2.2060156 -8.1645803 0.10544033 0.96673387
1.9866992 -8.1621485 0.10473079 0.96695393
1.8780859 -8.1609468 0.10440479 0.96705526
1.5560741 -8.157383 0.10353492 0.96732527
1.4498925 -8.1562109 0.10328113 0.96740419
1.1341602 -8.1527243 0.10262135 0.96760869
0.82199216 -8.1492672 0.10211422 0.96776593
0.71859372 -8.1481247 0.10197914 0.96780801
0.61541015 -8.1469822 0.10186027 0.96784502
0.30711913 -8.1435843 0.10160061 0.96792561
-1.953125e-05 -8.1401854 0.10148624 0.96796119
-0.20460936 -8.1379299 0.10148963 0.96796
-0.30693358 -8.136797 0.10151596 0.96795189
-0.40931639 -8.135664 0.10155842 0.96793884
-0.51182616 -8.134531 0.10161594 0.96792084
-0.61445314 -8.1333885 0.10169056 0.96789777
-0.71723634 -8.1322556 0.10178131 0.9678697
-0.92345703 -8.1299896 0.10201084 0.96779829
-1.1307422 -8.1276951 0.10230625 0.9677065
-1.2348828 -8.126543 0.10247932 0.96765286
-1.5496191 -8.1230564 0.10309952 0.96746045
-1.6554296 -8.1218843 0.10333999 0.96738565
-1.868623 -8.1195307 0.10387573 0.96721959
-1.9760936 -8.1183491 0.10416954 0.96712828
-2.3024218 -8.1147366 0.10516327 0.96682012
-2.5236328 -8.1123047 0.10591934 0.96658528
-2.6355078 -8.1110544 0.10632785 0.9664588
-2.7482324 -8.1098146 0.10675556 0.96632606
-3.0922167 -8.1060152 0.10816272 0.96588951
-3.445869 -8.1020994 0.10976779 0.96539253
-3.9350975 -8.0966988 0.11223503 0.9646287
-4.060957 -8.0953121 0.11291508 0.96441847
-4.1883693 -8.0938959 0.11361954 0.9642002
-4.3174024 -8.0924702 0.114352 0.96397358
-4.4481444 -8.0910254 0.11511227 0.96373838
-4.5806541 -8.0895605 0.11590125 0.96349442
-4.7150097 -8.0880756 0.11671951 0.96324146
-4.9895897 -8.0850487 0.11844856 0.96270728
-5.4175587 -8.0803127 0.12128616 0.96183097
-5.5648727 -8.0786915 0.1223019 0.96151757
-5.7146873 -8.0770311 0.12335575 0.96119303
-6.0223632 -8.0736322 0.12557445 0.96050841
-6.1804295 -8.0718746 0.12674579 0.96014762
-6.3414841 -8.0700979 0.12795952 0.95977396
-6.8441601 -8.0645409 0.1318711 0.95857018
-7.3793163 -8.0586329 0.13622849 0.95723081
-7.5657225 -8.0565815 0.13778946 0.95675129
-8.3571873 -8.047822 0.14464752 0.95464838
-8.5676947 -8.0454979 0.14652908 0.95407206
-1.0510547 -0.93841797 0.017566605 0.99437934
-1.0509375 -0.91482419 0.017370872 0.99444175
-1.0508008 -0.89175779 0.017182235 0.99450195
-1.0504395 -0.8254199 0.016655654 0.99467009
-1.050332 -0.80418944 0.016492195 0.99472219
-1.0500293 -0.74290037 0.016036224 0.9948678
-1.0882519 -0.70995116 0.016199226 0.99481565
-1.1187109 -0.70994139 0.016518669 0.99471372
-1.183457 -0.70994139 0.017205428 0.9944945
-1.2538183 -0.70995116 0.017963599 0.99425268
-1.2914063 -0.70995116 0.018372802 0.99412215
-1.4152734 -0.70994139 0.019740334 0.99368608
-1.460791 -0.70994139 0.020248946 0.9935239
-1.5593066 -0.70995116 0.021360282 0.99316961
-1.6127245 -0.70994139 0.021968117 0.99297595
-1.767334 -0.72555661 0.023818206 0.99238664
-1.7673535 -0.6997363 0.023697929 0.99242491
-1.7673925 -0.64885741 0.023472365 0.99249679
-1.7682031 0.70007813 0.01844036 0.99242151
-1.7681738 0.72589844 0.01853363 0.9923833
-1.5592968 0.70994139 0.01661312 0.9931699
-1.5087304 0.70994139 0.016168442 0.99335223
-1.4608008 0.70995116 0.015748709 0.99352401
-1.3307519 0.70995116 0.014625244 0.99398476
-1.2914257 0.70995116 0.014289436 0.99412227
-1.2178613 0.70995116 0.01366909 0.99437684
-1.1834277 0.70995116 0.013381691 0.99449474
-1.15042 0.70996094 0.013108101 0.99460691
-1.1187304 0.70996094 0.012847557 0.99471378
-1.0882617 0.70994139 0.012599068 0.99481583
-1.0589257 0.70996094 0.012362022 0.99491316
-1.0475683 0.72157222 0.012334251 0.99492455
-1.0477148 0.76119137 0.012557525 0.99483299
-1.0477831 0.78156251 0.012675018 0.99478471
-1.0478711 0.80230469 0.012796974 0.9947347
-1.0480273 0.84505856 0.013054237 0.99462909
-8.7830563 8.0425386 0.11547657 0.95347863
-7.9328513 8.0331545 0.10947224 0.95584291
-7.7337694 8.0309572 0.10810836 0.95638055
-7.3499608 8.0267086 0.10553218 0.95739812
-5.8194723 8.0098047 0.096002154 0.96116948
-5.6658592 8.0080957 0.095120616 0.96151906
-5.3668551 8.0048046 0.093449168 0.9621821
-5.221211 8.0031834 0.092657052 0.96249664
-5.0779686 8.0015917 0.091892622 0.96280026
-4.9370704 8.0000391 0.091155052 0.96309328
-4.7983985 7.9985156 0.09044338 0.96337605
-4.1351953 7.9911814 0.087246813 0.96464747
-3.882412 7.9883885 0.086123005 0.96509463
-3.7584276 7.9870214 0.085592538 0.96530592
-3.3951757 7.9829979 0.084117316 0.96589363
-3.1596875 7.9804101 0.083226278 0.96624851
-3.04375 7.9791207 0.08280807 0.96641552
-2.5909765 7.9741211 0.081301115 0.96701664
-2.4802637 7.9728904 0.080964014 0.96715099
-2.2614648 7.9704785 0.080336794 0.96740127
-1.8332129 7.9657421 0.079259411 0.96783137
-1.6230859 7.963418 0.078805655 0.96801269
-1.5189062 7.962275 0.07859882 0.96809512
-1.005205 7.9566016 0.077764735 0.96842825
-0.90362304 7.9554782 0.077636376 0.96847945
-0.80239254 7.9543457 0.077521592 0.96852559
-0.60077149 7.9521189 0.077327497 0.96860284
-0.50029296 7.9510055 0.077250101 0.96863401
-0.39998046 7.9498925 0.077184178 0.9686603
-0.29983398 7.9488082 0.077130355 0.96868157
-0.19981445 7.9476852 0.077089801 0.96869808
-0.099882811 7.9465919 0.077060543 0.96870965
0.39946288 7.9410739 0.077097699 0.96869451
0.59966797 7.9388571 0.077198371 0.96865439
0.69999999 7.9377341 0.077266693 0.96862704
0.80053711 7.9366207 0.077348329 0.96859467
0.9013086 7.9355273 0.077441402 0.96855724
1.0023047 7.9343944 0.077546917 0.96851498
1.2052441 7.932158 0.077796705 0.96841526
1.5124707 7.9287596 0.07826706 0.96822727
1.6157519 7.9276266 0.078450657 0.96815413
1.8238477 7.9253221 0.078856692 0.96799201
2.0342481 7.9229879 0.079318233 0.96780813
2.1403906 7.9218259 0.079569012 0.96770781
2.2472558 7.9206443 0.079834901 0.96760178
2.3548241 7.9194531 0.080114365 0.96749008
2.4631934 7.9182715 0.080409579 0.96737242
2.5723631 7.9170408 0.080719568 0.96724892
3.0181346 7.9121289 0.08211197 0.96669281
3.1320996 7.9108591 0.082501255 0.96653771
3.599453 7.9056931 0.084229276 0.96584898
3.7194726 7.9043846 0.084706724 0.96565878
3.8408496 7.9030271 0.085202977 0.96546125
4.0880761 7.9003124 0.086254463 0.96504253
4.214004 7.8989062 0.086810529 0.96482128
4.3416209 7.89749 0.087386779 0.9645915
4.4709668 7.8960643 0.08798603 0.9643532
4.6020899 7.8946285 0.088608094 0.96410602
4.8701267 7.8916602 0.089920618 0.96358413
5.1463671 7.8886032 0.091330752 0.96302372
5.2878318 7.8870406 0.092074543 0.96272814
5.5778809 7.8838477 0.093645096 0.9621048
5.7266893 7.8821969 0.094472617 0.96177626
6.0324607 7.878818 0.096218377 0.96108353
6.3499513 7.8752928 0.098094292 0.96034026
6.8506446 7.8697848 0.10117267 0.9591217
7.0247264 7.8678613 0.10227405 0.95868564
7.3845897 7.8638668 0.10460331 0.95776534
7.5708203 7.8618064 0.10583214 0.9572795
7.9568357 7.8575387 0.1084322 0.95625299
8.1571283 7.8553414 0.1098093 0.95571047
8.3625584 7.8530469 0.11123661 0.95514756
5.1873827 4.5156932 0.066687964 0.97286355
5.2014647 4.3030176 0.065457456 0.9733575
5.4592285 4.289834 0.067317426 0.97260869
1.2813085 0.90656251 0.015219612 0.99374104
1.2812109 0.88254881 0.015085716 0.99379599
1.2811328 0.85894531 0.014956398 0.99384898
1.2810448 0.83576173 0.014831658 0.99390012
1.2808203 0.76838863 0.014482955 0.99404305
1.2806737 0.72517574 0.014270668 0.99413007
1.2913672 0.70994139 0.014289665 0.99412245
1.3719629 0.70996094 0.014979172 0.99383968
1.4152441 0.70995116 0.015353279 0.99368638
1.4607714 0.70994139 0.015748709 0.99352413
1.5592577 0.70995116 0.016613044 0.99317002
1.7931249 0.70996094 0.018700408 0.99231505
1.9337207 0.70995116 0.019974174 0.99179375
23.649023 7.6841016 0.24111404 0.90531802
1.9790527 -0.67064452 0.020262223 0.99167603
1.9790233 -0.69847655 0.020349961 0.99164009
1.9337401 -0.70995116 0.01997425 0.99179369
1.8611034 -0.70995116 0.019314956 0.99206364
1.7931151 -0.70994139 0.018700141 0.99231517
1.7293164 -0.70995116 0.018126488 0.99255002
1.6692773 -0.70995116 0.017589416 0.99277002
1.5592675 -0.70994139 0.016613159 0.99316996
1.5087011 -0.70994139 0.016168099 0.99335229
1.4607714 -0.70993161 0.015749015 0.99352413
1.3719629 -0.70994139 0.014979095 0.99383968
1.2913769 -0.70996094 0.014289741 0.99412239
1.2806641 -0.72516602 0.014270744 0.99413013
1.2808887 -0.79047853 0.014595222 0.99399716
1.2811426 -0.85895509 0.014956398 0.99384892
1.2812109 -0.88253903 0.015085639 0.99379599
1.2813965 -0.93099606 0.01535839 0.99368411
11.077109 -8.2626266 0.13399963 0.94622034
10.507031 -8.2563276 0.12957405 0.94794977
9.2314253 -8.2422171 0.11999969 0.95170099
8.7716599 -8.2371283 0.1166793 0.95300597
8.5511522 -8.2347069 0.11511322 0.95362169
7.5300975 -8.2233982 0.10811893 0.95637727
6.796289 -8.2153025 0.10338692 0.95824629
6.6226559 -8.2133789 0.10230651 0.95867312
6.2858591 -8.2096577 0.100261 0.95948273
5.6501856 -8.2026367 0.096581303 0.96094018
5.4983692 -8.2009573 0.095740587 0.96127361
5.3491502 -8.199297 0.094927751 0.96159554
4.7760935 -8.1929684 0.09195713 0.96277499
4.6382713 -8.1914644 0.091278948 0.96304446
4.5024805 -8.1899414 0.090624347 0.96330452
4.3685546 -8.1884565 0.089993209 0.96355534
4.2365036 -8.1870117 0.089384653 0.96379709
4.1061621 -8.1855659 0.088798404 0.96403021
3.8504882 -8.1827536 0.08769054 0.96447104
3.7250097 -8.1813478 0.087167963 0.96467936
3.600996 -8.1799898 0.086663932 0.96487975
3.2370703 -8.1759768 0.085267253 0.96543592
3.0007031 -8.1733494 0.084426917 0.96577084
2.8842578 -8.17206 0.084033087 0.9659279
2.7688379 -8.1707907 0.083654173 0.96607834
2.4284766 -8.1670218 0.082619667 0.96649098
2.3168261 -8.165801 0.082305565 0.96661592
1.9866992 -8.1621485 0.08145611 0.96695495
1.7701563 -8.1597462 0.080962293 0.96715188
1.662832 -8.1585646 0.080736384 0.96724182
1.5560741 -8.157383 0.080525056 0.96732628
1.4498925 -8.1562109 0.080327831 0.96740514
1.2389746 -8.1538868 0.079972535 0.96754682
1.0297656 -8.1515722 0.079670481 0.96766728
0.82199216 -8.1492767 0.079420812 0.96776688
0.61541015 -8.1469822 0.079223365 0.96784598
0.51246095 -8.1458588 0.079143748 0.96787786
0.30711913 -8.1435843 0.079021454 0.96792662
0.20466797 -8.1424513 0.078979604 0.96794343
0.10229492 -8.1413183 0.078949317 0.96795529
-1.953125e-05 -8.1401854 0.078932457 0.96796215
-0.10232422 -8.1390619 0.078927994 0.96796405
-0.51182616 -8.134531 0.079033278 0.96792179
-0.61445314 -8.1333885 0.079091378 0.96789873
-0.82025391 -8.1311131 0.079244457 0.96783751
-0.92345703 -8.1299896 0.079340555 0.96779925
-1.1307422 -8.1276951 0.079570234 0.96770746
-1.2348828 -8.126543 0.079705007 0.96765381
-1.339375 -8.1253805 0.07985191 0.96759498
-1.4442577 -8.1242189 0.080013007 0.96753091
-1.868623 -8.1195307 0.080791205 0.9672206
-1.9760936 -8.1183491 0.081019551 0.96712923
-2.1929491 -8.1159468 0.081519052 0.96692961
-2.3024218 -8.1147366 0.08179161 0.96682113
-2.4126368 -8.1135254 0.082078055 0.96670669
-2.6355078 -8.1110544 0.082697257 0.96645981
-2.7482324 -8.1098146 0.083029822 0.96632707
-2.9765429 -8.1072845 0.083743818 0.96604264
-3.0922167 -8.1060152 0.084125213 0.96589053
-3.2089453 -8.1047268 0.084524266 0.9657318
-3.3268163 -8.1034174 0.084939614 0.96556622
-3.445869 -8.1020994 0.085373878 0.9653936
-3.5661914 -8.1007814 0.085824966 0.96521372
-3.8107226 -8.0980759 0.086783446 0.96483207
-4.060957 -8.0953026 0.087819897 0.9644196
-4.3174219 -8.0924807 0.088939168 0.9639746
-4.4481249 -8.0910254 0.089530371 0.96373951
-4.5806541 -8.0895605 0.090144001 0.96349555
-4.7150097 -8.0880756 0.090779491 0.96324253
-4.8512888 -8.0865717 0.091441192 0.96298027
-5.1300097 -8.0834866 0.092835233 0.9624266
-5.5648727 -8.078681 0.095120735 0.96151876
-5.7146873 -8.0770311 0.09594097 0.96119416
-6.0223632 -8.0736322 0.0976675 0.9605096
-6.1804295 -8.0718746 0.098578528 0.96014887
-6.673203 -8.0664454 0.10151401 0.95898694
-7.1970115 -8.0606441 0.10478229 0.95769465
-7.5657225 -8.0565815 0.10716667 0.9567526
-7.7564645 -8.0544529 0.10842761 0.95625556
-7.9518356 -8.0523043 0.1097348 0.9557398
-8.3571682 -8.047822 0.11250068 0.95464975
-1.0484082 -0.93606442 0.013628387 0.99439359
-1.0483203 -0.91256833 0.01347702 0.99445564
-1.0482227 -0.88958007 0.013330841 0.99451554
-1.0481153 -0.86708981 0.013190079 0.99457335
-1.0480273 -0.84503907 0.013054428 0.99462914
-1.0479492 -0.823457 0.012923317 0.99468285
-1.0478711 -0.80230469 0.01279705 0.9947347
-1.0476367 -0.74121094 0.012443923 0.9948796
-1.0589257 -0.70995116 0.012362137 0.99491316
-1.0882519 -0.70995116 0.012598915 0.99481583
-1.1187109 -0.70994139 0.012847862 0.9947139
-1.1504102 -0.70994139 0.013108177 0.99460697
-1.2914063 -0.70995116 0.014289627 0.99412233
-1.3307421 -0.70994139 0.014625091 0.99398476
-1.3719921 -0.70994139 0.014978942 0.99383962
-1.4152734 -0.70994139 0.01535305 0.99368632
-1.460791 -0.70994139 0.015748901 0.99352407
-1.5087304 -0.70994139 0.016168136 0.99335223
-1.5593066 -0.70995116 0.016613273 0.99316984
-1.7682226 -0.64916992 0.018264655 0.99249345
-15.736445 -4.2519236 0.15806228 0.93687439
-19.695068 -4.0141697 0.19490013 0.92274374
-21.171932 -4.0387597 0.20899673 0.91739339
-1.7690332 0.70041013 0.013177719 0.99241811
-1.6127148 0.70996094 0.012204017 0.99297631
-1.5593164 0.70994139 0.011866188 0.99316996
-1.5087304 0.70994139 0.011548538 0.99335235
-1.4608008 0.70995116 0.011249122 0.99352419
-1.2538086 0.70996094 0.009979439 0.99425298
-1.15042 0.70996094 0.0093631363 0.99460703
-1.0882226 0.70995116 0.0089991381 0.99481606
-1.0589257 0.70996094 0.0088299178 0.99491328
-1.0454589 0.72011715 0.0087921526 0.99493486
-1.0454589 0.7396875 0.0088700103 0.99489027
-1.0454882 0.75958008 0.0089501953 0.99484408
-1.0455176 0.80050778 0.0091199875 0.99474657
-1.0455176 0.82156247 0.0092093656 0.99469525
-1.0455761 0.84304684 0.009302292 0.99464184
-1.0456152 0.86497068 0.0093986895 0.99458653
-1.0456738 0.8874023 0.0094985962 0.99452901
-1.0458008 0.9337402 0.009710121 0.99440759
-8.7830563 8.0425386 0.082481764 0.95347965
-8.5618258 8.0401173 0.081347004 0.95410484
-8.3466015 8.037734 0.080255926 0.95470655
-7.9328513 8.0331545 0.078192443 0.95584393
-7.7337694 8.0309572 0.07722076 0.9563815
-7.3499608 8.0267086 0.075378262 0.95739913
-6.8069043 8.0207033 0.072859995 0.95879298
-6.4642186 8.0169239 0.071326099 0.95964235
-6.2981935 8.0150776 0.07060089 0.96004492
-6.135488 8.0132809 0.069899864 0.96043342
-5.515039 8.0064354 0.067334101 0.96185726
-5.3668551 8.0048046 0.066748925 0.962183
-5.0779686 8.0015917 0.065637164 0.9628011
-4.9370704 8.0000391 0.065110281 0.96309412
-4.5273533 7.9955077 0.063637428 0.96391308
-4.1351953 7.9911814 0.062318802 0.96464831
-3.882412 7.9883885 0.061515961 0.9650954
-3.7584276 7.9870214 0.06113613 0.9653067
-3.3951757 7.9829979 0.06008232 0.96589434
-3.2768261 7.9816895 0.059758261 0.96607536
-3.1596875 7.9804101 0.059446983 0.96624923
-3.0437889 7.9791207 0.059147108 0.96641618
-2.7026367 7.9753318 0.05832237 0.96687692
-2.37042 7.9716797 0.057601202 0.96727991
-2.2614648 7.9704785 0.057382088 0.96740198
-2.153291 7.9692674 0.057174683 0.96751821
-1.8332129 7.9657421 0.0566127 0.96783209
-1.7278515 7.9645801 0.056445196 0.96792549
-1.623125 7.963408 0.056288566 0.96801341
-1.5189062 7.962275 0.056140669 0.96809584
-1.4152734 7.9611325 0.056003302 0.96817291
-1.3120898 7.9599805 0.055874556 0.96824479
-1.2093945 7.9588475 0.055755079 0.96831131
-1.1070995 7.9577246 0.055645943 0.9683727
-0.70145506 7.9532418 0.055297509 0.96856737
-0.50029296 7.9510055 0.055176582 0.96863472
-0.39998046 7.9498925 0.055130269 0.96866101
-3.9062499e-05 7.9454684 0.055029675 0.9687171
0.099814452 7.9443846 0.055025976 0.96871889
0.49951172 7.9399509 0.0551004 0.9686777
0.59966797 7.9388571 0.055140302 0.96865511
0.80053711 7.9366207 0.05524746 0.96859539
0.9013086 7.9355273 0.055313949 0.96855795
1.0022949 7.9344039 0.055390127 0.96851569
1.1036328 7.9333005 0.055474356 0.96846825
1.2052441 7.932158 0.055567626 0.96841598
1.5124707 7.9287596 0.055904426 0.96822798
1.8238281 7.9253125 0.056325834 0.96799278
1.9287401 7.9241695 0.056485824 0.96790349
2.1403906 7.9218259 0.056834638 0.96770853
2.2472558 7.9206443 0.057023849 0.96760255
2.3548241 7.9194531 0.057224233 0.96749079
2.4631836 7.918252 0.057434119 0.96737319
2.5723631 7.9170508 0.057655752 0.96724963
2.6824024 7.9158492 0.05788723 0.96711993
2.7933495 7.9146094 0.058130797 0.96698421
3.1320996 7.9108591 0.05892887 0.96653849
3.2471581 7.9095993 0.05921806 0.96637666
3.4807615 7.9070215 0.059835508 0.96603245
3.599453 7.9056931 0.06016323 0.96584976
3.7194726 7.9043846 0.060503311 0.96565956
3.8408496 7.9030371 0.06085781 0.96546197
4.0880761 7.9003124 0.061608694 0.96504337
4.2140231 7.8989158 0.062006071 0.96482199
4.3416209 7.89749 0.062418707 0.96459234
4.6020899 7.8946285 0.063290253 0.9641068
4.735127 7.8931541 0.063750453 0.96385056
5.0071874 7.8901367 0.064722024 0.96330971
5.4316406 7.8854489 0.066317521 0.96242279
5.5778809 7.8838477 0.066887893 0.96210563
5.7266893 7.8821969 0.067478865 0.96177715
5.8781638 7.8805075 0.068092309 0.96143693
6.0324607 7.878818 0.068727985 0.96108443
6.1896777 7.87707 0.06938415 0.96071935
6.6802926 7.8716502 0.071505547 0.95954335
7.7614646 7.8596969 0.076504327 0.95677668
7.9568162 7.8575387 0.077450752 0.95625401
8.1571283 7.8553414 0.078433454 0.95571148
8.7901363 7.84832 0.081616171 0.95395654
5.454824 4.2863669 0.048044775 0.9726311
1.2784375 0.92885739 0.0109449 0.99369878
1.2783886 0.90449214 0.010846062 0.9937554
1.2783105 0.88054687 0.010750923 0.99381012
1.2781934 0.83389646 0.010570335 0.99391383
1.2781445 0.81113279 0.010484543 0.99396294
1.2780859 0.78875977 0.010402221 0.99401033
1.2780273 0.76671875 0.010322304 0.99405611
1.2779394 0.72360349 0.010171394 0.99414277
1.3719629 0.70996094 0.010699158 0.9938398
1.4607714 0.70994139 0.011248969 0.99352431
1.5087109 0.70996094 0.01154869 0.99335241
1.7293066 0.70996094 0.012947121 0.99255025
1.7931249 0.70996094 0.013357467 0.99231523
1.861123 0.70995116 0.013796043 0.9920637
1.9337207 0.70995116 0.014267158 0.99179393
1.981084 0.69921875 0.014550705 0.99163157
1.9811132 0.67135739 0.0144878 0.99166763
23.649023 7.6841016 0.17221962 0.90532011
1.981084 -0.67135739 0.014487953 0.99166769
1.981084 -0.69920897 0.014550437 0.99163157
1.7931151 -0.70994139 0.013356742 0.99231529
1.7293164 -0.70995116 0.012947349 0.99255019
1.4607714 -0.70993161 0.011248969 0.99352431
1.4152539 -0.70993161 0.010966148 0.9936865
1.3719629 -0.70994139 0.010699234 0.99383986
1.3307031 -0.70995116 0.010446281 0.99398506
1.2779688 -0.74499023 0.010245628 0.99410027
1.2780273 -0.76670897 0.010322189 0.99405611
1.2780957 -0.78874999 0.010402145 0.99401033
1.2783008 -0.88054687 0.010750847 0.99381018
1.2783886 -0.90449214 0.010846214 0.9937554
1.2784473 -0.92885739 0.010944824 0.99369878
10.787266 -8.2594233 0.094097212 0.94710445
10.235801 -8.2533102 0.091069371 0.94876313
8.5511522 -8.2347069 0.082221448 0.9536227
8.3364649 -8.2323341 0.081146546 0.95421553
8.1272268 -8.2300196 0.080110088 0.95478672
7.9233007 -8.2277632 0.079113387 0.95533681
7.7243161 -8.2255564 0.07815212 0.95586711
7.5300975 -8.2234077 0.077227324 0.95637822
7.1549997 -8.2192678 0.075475387 0.95734626
6.9736915 -8.2172556 0.074645266 0.9578048
6.6226368 -8.2133789 0.073075563 0.95867407
6.4525585 -8.211504 0.072330624 0.959086
6.2858591 -8.2096577 0.07161434 0.95948362
5.96207 -8.2060738 0.070253104 0.96023804
5.0580468 -8.196084 0.066705436 0.96220702
4.9159765 -8.1945114 0.066184729 0.96249652
4.7760935 -8.1929684 0.065682523 0.96277583
4.3685546 -8.1884565 0.064280279 0.96355617
4.1061621 -8.1855659 0.06342674 0.96403104
3.9775195 -8.1841497 0.063023143 0.96425557
3.8504882 -8.1827536 0.062635608 0.96447188
3.6009569 -8.1799898 0.061901473 0.96488059
3.478369 -8.1786327 0.061556321 0.96507335
3.3570702 -8.1772852 0.061223447 0.96525872
3.2370703 -8.1759768 0.060903739 0.9654367
3.1183202 -8.1746483 0.060597878 0.96560764
3.0007031 -8.1733494 0.060304563 0.96577162
2.8842578 -8.17206 0.060022466 0.96592867
2.7688379 -8.1707907 0.059752349 0.96607912
2.4284766 -8.1670218 0.059012718 0.9664917
2.2060156 -8.1645803 0.058575667 0.9667356
1.7701367 -8.1597557 0.057828788 0.9671526
1.662832 -8.1585646 0.05766819 0.96724254
1.5560741 -8.157383 0.057516515 0.967327
1.344209 -8.1550484 0.057244375 0.96747941
1.238955 -8.1538963 0.05712181 0.96754754
0.71859372 -8.1481247 0.056652639 0.96780974
0.61541015 -8.1469822 0.056586798 0.96784669
0.40973631 -8.1447067 0.056481283 0.96790552
0.30711913 -8.1435843 0.056442525 0.96792734
-0.10232422 -8.1390619 0.056375921 0.96796477
-0.20460936 -8.1379299 0.056381796 0.96796167
-0.30693358 -8.1367865 0.056395531 0.96795362
-0.51182616 -8.134531 0.056451909 0.96792251
-0.61445314 -8.1333885 0.0564925 0.9678995
-0.82025391 -8.1311226 0.056602821 0.96783823
-1.1307226 -8.1276951 0.056834485 0.96770823
-1.339375 -8.1253805 0.05703659 0.96759576
-1.9760936 -8.1183491 0.057869911 0.96713001
-2.0841796 -8.1171389 0.058042984 0.96703309
-2.1929491 -8.1159468 0.058227461 0.96693039
-2.3024218 -8.1147366 0.058421172 0.96682185
-2.7482324 -8.1098146 0.059306372 0.96632785
-2.8619041 -8.1085548 0.059555128 0.96618885
-2.9765429 -8.1072845 0.059816513 0.96604335
-3.0922167 -8.1060152 0.060088843 0.9658913
-3.2089453 -8.1047268 0.060373154 0.96573257
-3.445869 -8.1020994 0.060979996 0.96539438
-3.6877735 -8.0994329 0.061638486 0.96502745
-4.060957 -8.0953121 0.062726595 0.96442032
-4.3174219 -8.0924807 0.063527636 0.96397543
-4.5806541 -8.0895605 0.064388424 0.96349639
-4.7150097 -8.0880756 0.064843103 0.96324337
-4.8513083 -8.0865717 0.06531471 0.96298105
-5.4175587 -8.0803127 0.067379758 0.961833
-5.5648727 -8.078681 0.067943953 0.96151966
-5.8671679 -8.0753517 0.069132686 0.9608587
-6.0223632 -8.0736322 0.069762036 0.96051049
-7.1970115 -8.0606441 0.074842758 0.9576956
-7.5657225 -8.0565815 0.076547012 0.95675355
-7.9518356 -8.0523043 0.078380048 0.95574081
-8.1519823 -8.0500879 0.079350695 0.95520586
-8.3571873 -8.047822 0.080355719 0.9546507
-8.5676947 -8.0454979 0.081402279 0.9540745
-8.7837496 -8.0431147 0.082489319 0.95347625
-1.0457324 -0.9103027 0.0096025085 0.99446946
-1.0456738 -0.88741207 0.0094988253 0.99452901
-1.0455469 -0.84303707 0.009302292 0.99464196
-1.0455176 -0.82155269 0.0092095183 0.99469525
-1.0455176 -0.80049801 0.0091199111 0.99474663
-1.0455078 -0.77986324 0.009033775 0.99479616
-1.0454589 -0.72012693 0.0087923044 0.99493486
-1.183457 -0.70994139 0.0095581813 0.9944948
-1.3307421 -0.70994139 0.010446243 0.99398494
-1.4152734 -0.70994139 0.010966454 0.99368644
-1.460791 -0.70994139 0.011249008 0.99352425
-1.5593066 -0.70995116 0.011866417 0.99316996
-1.6127245 -0.70994139 0.012204247 0.99297631
-1.7690234 -0.72624999 0.013244629 0.99237978
-1.7690527 -0.70041013 0.013177757 0.99241805
-1.7690625 -0.64947265 0.013052139 0.99249011
-15.731718 -4.2506251 0.11286522 0.93689412
-19.695059 -4.0141697 0.1392131 0.92274547
-21.171932 -4.0387597 0.14928231 0.91739523
-22.671953 -4.0303221 0.15948707 0.91200316
-1.7699121 0.67514646 0.0078720087 0.99245131
-1.6693262 0.70995116 0.0075380704 0.99277014
-1.5592968 0.70994139 0.0071197888 0.99317014
-1.4152637 0.70995116 0.0065798187 0.99368656
-1.2178613 0.70995116 0.0058579636 0.99437708
-1.15042 0.70996094 0.005617714 0.99460715
-1.1187304 0.70996094 0.0055058668 0.99471402
-1.0589257 0.70996094 0.0052977372 0.99491334
-1.0447656 0.71964842 0.0052716825 0.99493825
-1.0447754 0.79995114 0.0054681394 0.99475038
-1.0448145 0.86434567 0.0056348802 0.99459064
-1.0448242 0.88670897 0.005694618 0.99453348
-1.0448437 0.90955079 0.0057565686 0.99447417
-1.0448437 0.93290037 0.0058208467 0.99441278
-8.5618258 8.0401173 0.048807144 0.95410556
-8.3466015 8.037734 0.048152581 0.95470726
-7.9328513 8.0331545 0.046915166 0.95584458
-7.7337499 8.0309668 0.046332855 0.95638222
-7.164824 8.0246487 0.044703942 0.95788127
-6.9838572 8.022666 0.044202309 0.95834559
-6.6337204 8.0187893 0.043246306 0.95922589
-6.4642186 8.0169239 0.042795561 0.95964295
-6.2981935 8.0150776 0.042359505 0.96004552
-5.9759569 8.0115328 0.041534461 0.96080893
-5.8194723 8.0098047 0.041142575 0.96117091
-5.515039 8.0064354 0.040400162 0.96185786
-5.0780077 8.0015917 0.039382551 0.96280158
-4.7983985 7.9985156 0.038760297 0.96337742
-4.6618652 7.9970016 0.038466111 0.96365029
-4.2641015 7.9926071 0.037646104 0.96441263
-4.1351953 7.9911814 0.037390783 0.96464884
-4.007998 7.9897852 0.037145767 0.96487647
-2.9289649 7.9778514 0.035315514 0.96657693
-2.8153124 7.9766016 0.035151023 0.96673036
-2.7026367 7.9753418 0.034994505 0.9668774
-2.4802637 7.9728904 0.034699172 0.96715224
-2.2614648 7.9704785 0.034429319 0.96740246
-2.153291 7.9692674 0.034304999 0.96751875
-2.0459082 7.9680858 0.03418621 0.96762902
-1.9392284 7.9669237 0.034073334 0.96773356
-1.7278515 7.9645801 0.033867035 0.96792597
-1.4152734 7.9611325 0.033602256 0.96817338
-1.2093945 7.9588475 0.033453062 0.96831185
-1.1070995 7.9577246 0.033387717 0.96837318
-1.005205 7.9565916 0.033327103 0.96842945
-0.90364254 7.9554687 0.033271864 0.96848065
-0.80239254 7.9543457 0.033222999 0.96852678
-0.60077149 7.9521189 0.033139493 0.96860403
-0.19981445 7.9476852 0.033037987 0.96869928
-0.099902339 7.9465919 0.033025246 0.96871078
-3.9062499e-05 7.9454684 0.033017654 0.96871758
0.099814452 7.9443846 0.033016279 0.96871936
0.19964844 7.9432812 0.03301914 0.96871632
0.39946288 7.9410739 0.033041723 0.9686957
0.49951172 7.9399509 0.033060148 0.96867818
0.59966797 7.9388571 0.033085022 0.96865559
0.69999999 7.9377341 0.033114012 0.96862823
0.80053711 7.9366307 0.033148576 0.9685958
0.9013086 7.9355273 0.033189125 0.96855843
1.0022949 7.9344039 0.03323406 0.96851617
1.1036328 7.9333005 0.033284567 0.96846873
1.7195116 7.9264646 0.033705253 0.96807706
2.0342481 7.9229879 0.033992041 0.96780938
2.2472558 7.9206443 0.034213524 0.96760303
2.3548241 7.9194531 0.034333952 0.96749133
2.4631836 7.918252 0.03445961 0.96737373
2.5723631 7.9170408 0.034592856 0.96725017
2.6824024 7.9158492 0.034732398 0.96712047
2.7933495 7.9146094 0.034877699 0.96698469
2.9052539 7.9133787 0.035030708 0.96684253
3.0181346 7.9121289 0.035189591 0.96669406
3.1320996 7.9108591 0.035356559 0.96653903
3.2471581 7.9095993 0.035530701 0.9663772
3.5994334 7.9056835 0.036097184 0.96585029
3.7194726 7.9043846 0.03630184 0.9656601
3.8408496 7.9030271 0.036514662 0.96546251
3.963701 7.9016795 0.036735687 0.96525717
4.0880761 7.9003124 0.036965482 0.96504384
4.3416209 7.89749 0.037450064 0.96459287
4.6020899 7.8946285 0.03797302 0.96410739
4.735127 7.8931541 0.038249169 0.96385115
5.4316406 7.8854489 0.03978958 0.96242338
5.7266893 7.8822069 0.040487327 0.96177769
6.5134373 7.8734961 0.042463567 0.95994991
6.6802926 7.8716502 0.042902716 0.95954394
6.8506446 7.8697753 0.043358114 0.95912325
7.2026367 7.8658786 0.044320259 0.95823538
7.5708008 7.8617969 0.045355108 0.95728117
7.7614646 7.8596969 0.045902364 0.95677733
7.9568162 7.8575387 0.046470374 0.95625466
8.1571283 7.8553414 0.047058791 0.95571214
5.334199 4.3010936 0.028474998 0.97296304
5.4507713 4.2831736 0.028807448 0.9726516
10.229511 7.8324218 0.05354023 0.94977015
1.2768261 0.95242184 0.0066194916 0.99364853
1.2768261 0.92767578 0.0065587615 0.99370682
1.2768066 0.87950194 0.0064427564 0.99381751
1.2767968 0.85603511 0.0063879392 0.99386996
1.2767481 0.7442773 0.0061413189 0.99410599
1.2913672 0.70994139 0.0061238478 0.99412268
1.3307323 0.70996094 0.0062676999 0.993985
1.4607714 0.70994139 0.0067494581 0.99352437
1.5592577 0.70995116 0.0071197129 0.99317026
1.612705 0.70995116 0.0073223496 0.99297649
1.7293066 0.70996094 0.0077685928 0.99255031
1.7931249 0.70996094 0.0080142207 0.99231535
1.861123 0.70995116 0.0082776258 0.99206382
1.9337207 0.70995116 0.0085603716 0.99179405
1.9831543 -0.672041 0.0087013245 0.99165916
1.9337401 -0.70995116 0.0085600661 0.99179399
1.7931151 -0.70993161 0.0080142589 0.99231547
1.7293164 -0.70995116 0.0077682873 0.99255031
1.5592675 -0.70994139 0.0071197506 0.99317026
1.5087011 -0.70994139 0.006928978 0.99335259
1.4607714 -0.70993161 0.0067493054 0.99352443
1.4152539 -0.70993161 0.0065798569 0.99368662
1.2913769 -0.70996094 0.0061238478 0.99412262
1.2767187 -0.72291988 0.0060971067 0.99414843
1.2767383 -0.7442773 0.006141243 0.99410605
1.2767383 -0.76594722 0.0061872099 0.99406219
1.2767675 -0.81027341 0.0062839887 0.9939695
1.2767675 -0.83295894 0.0063350294 0.99392068
1.2768261 -0.95244139 0.0066195675 0.99364847
10.507031 -8.2563276 0.055531692 0.94795173
10.235801 -8.2533102 0.054640539 0.94876391
9.9730463 -8.2504196 0.053787269 0.94954348
8.5511522 -8.2347069 0.04933273 0.95362341
7.9233007 -8.2277632 0.047467079 0.95533746
7.7243161 -8.2255564 0.046889953 0.95586777
7.1549997 -8.2192678 0.045283966 0.95734692
6.9736915 -8.2172556 0.044786986 0.95780545
6.6226559 -8.2133789 0.043845557 0.95867467
6.2858591 -8.2096577 0.042966995 0.95948428
6.1223826 -8.2078514 0.042551458 0.95986813
5.8047071 -8.2043362 0.041765213 0.96059632
5.650166 -8.2026367 0.041390952 0.96094167
5.3491502 -8.199297 0.040682793 0.96159697
4.7760935 -8.1929684 0.039410513 0.96277636
4.6382713 -8.1914549 0.039118424 0.9630459
4.5024805 -8.1899414 0.038837813 0.96330589
4.3685546 -8.188467 0.0385672 0.96355671
4.1061621 -8.1855659 0.038056068 0.96403158
3.7250097 -8.1813574 0.037355918 0.96468067
3.600996 -8.1799898 0.037140921 0.96488106
3.3570702 -8.1772852 0.03673416 0.96525925
3.1183007 -8.1746483 0.036357995 0.96560818
2.8842578 -8.17206 0.036012765 0.96592921
2.7688379 -8.1707907 0.035851631 0.96607959
2.6544139 -8.1695309 0.035696335 0.96622354
2.4284766 -8.1670218 0.035407525 0.96649224
2.2060156 -8.1645803 0.035145417 0.96673608
1.662832 -8.1585646 0.034600981 0.96724308
1.5560741 -8.157383 0.03451065 0.96732748
1.4498925 -8.1562109 0.034425277 0.96740639
1.1341602 -8.1527243 0.034205817 0.9676109
1.0297656 -8.1515722 0.034144517 0.96766847
0.92572266 -8.1504202 0.034087408 0.96772087
0.61541015 -8.1469822 0.033951987 0.96784723
0.51246095 -8.1458588 0.033918075 0.96787906
0.40973631 -8.1447067 0.033889618 0.967906
0.30711913 -8.1435843 0.03386547 0.96792781
0.20466797 -8.1424513 0.033847731 0.96794462
0.10229492 -8.1413183 0.033835296 0.96795648
-3.9062499e-05 -8.1401949 0.033827286 0.96796334
-0.30693358 -8.136797 0.033837281 0.9679541
-0.40933594 -8.1356735 0.033851661 0.96794099
-0.51182616 -8.134531 0.033871345 0.96792299
-0.71723634 -8.1322556 0.033925932 0.96787184
-0.92345703 -8.1299801 0.034002341 0.9678005
-1.0269531 -8.1288376 0.034049224 0.96775717
-1.2348828 -8.126543 0.034158591 0.96765506
-1.339375 -8.1253805 0.034222297 0.96759623
-1.4442577 -8.1242189 0.034290541 0.9675321
-1.5496191 -8.1230564 0.034365464 0.96746266
