# .PCD v0.7 - Point Cloud Data file format
VERSION 0.7
FIELDS x y z intensity
SIZE 4 4 4 4
TYPE F F F F
COUNT 1 1 1 1
WIDTH 1097
HEIGHT 1
VIEWPOINT 0 0 0 1 0 0 0
POINTS 1097
DATA ascii
-4.3438768 -8.1420898 0.57598233 0.96369028
-4.6087303 -8.1391602 0.58378571 0.96320748
-4.7439356 -8.1376753 0.5879094 0.96295244
-1.0987891 -0.90898436 0.089004971 0.99430102
-1.0981348 -0.88544917 0.088044696 0.99436241
-1.0975293 -0.86242187 0.087119251 0.99442142
-1.0963573 -0.8177734 0.085367583 0.99453336
-1.0958008 -0.7961328 0.084538952 0.99458623
-1.0947655 -0.75408202 0.082969055 0.99468642
-1.0942578 -0.7336328 0.08222656 0.99473393
-1.1187011 -0.70993161 0.082696185 0.99470395
-1.1504004 -0.70993161 0.084373437 0.99459684
-1.1833984 -0.70994139 0.086134374 0.99448448
-1.2538183 -0.70992184 0.089929692 0.99424201
-1.3307323 -0.70995116 0.094137497 0.99397343
-1.4152539 -0.70993161 0.098823734 0.99367446
-1.460791 -0.70994139 0.10137119 0.9935118
-1.5087206 -0.70995116 0.10407036 0.99333966
-1.6979198 -0.72211915 0.11515892 0.99263251
-1.6988964 -0.67264646 0.11404392 0.99270368
-1.6993847 -0.64825195 0.11351971 0.99273705
-1.7027637 0.6990332 0.10976486 0.9926514
-1.7022656 0.72395504 0.11031112 0.99261498
-1.5592968 0.70995116 0.10217041 0.9931581
-1.4607812 0.70996094 0.096855044 0.99351293
-1.2913867 0.70996094 0.087880515 0.99411219
-1.2537988 0.70996094 0.085923418 0.99424297
-1.1503906 0.70996094 0.080614738 0.99459773
-1.1186913 0.70995116 0.079012185 0.99470484
-1.0912304 0.71191406 0.077697411 0.99479264
-1.0921484 0.75232422 0.079084925 0.9946999
-1.0926367 0.77307618 0.079817697 0.99465096
-1.0947949 0.8602832 0.083031081 0.9944362
-1.0959862 0.90667969 0.084823489 0.99431646
-7.3914742 8.0720406 0.65268004 0.95709032
-7.2052636 8.0699806 0.64514118 0.95757526
-6.6711912 8.0640917 0.62411201 0.95892936
-6.3362985 8.275547 0.62153894 0.95909512
-2.2742383 8.0155563 0.49685699 0.96716422
-2.1654491 8.0143452 0.49505705 0.96728128
-1.9501855 8.0119629 0.49172652 0.96749777
-1.7376171 8.0096188 0.48874763 0.96769148
-1.4232519 8.0061522 0.48491439 0.96794069
-1.2187696 8.0206442 0.4837853 0.96801424
2.7701561 8.1747561 0.51471311 0.96600449
2.80916 7.9594235 0.50333917 0.96674317
2.921699 7.9581833 0.50554168 0.96660006
3.1498241 7.9556637 0.51025158 0.96629429
3.265537 7.9543848 0.512761 0.96613133
3.8626366 7.947793 0.52695978 0.96520996
7.8881836 7.987998 0.66946489 0.95601153
8.001914 7.9020801 0.67063928 0.95593619
8.2033396 7.8998437 0.67914557 0.95538998
8.4099798 7.8975973 0.68798107 0.95482278
8.6221094 7.8952341 0.69716084 0.95423394
8.8399801 7.8928318 0.70670378 0.9536224
5.0639453 4.4082322 0.40035689 0.97345549
1.3357812 0.92013669 0.096725687 0.99352145
1.3351953 0.89519531 0.095861584 0.99357921
1.3346288 0.8707031 0.095028684 0.99363488
1.3340918 0.84666014 0.094225578 0.99368846
1.333584 0.82299805 0.093451075 0.9937402
1.3330859 0.7997461 0.09270443 0.99379003
1.3312597 0.71023434 0.08997944 0.99397206
1.3719823 0.70997071 0.0921207 0.99382895
1.4608008 0.70996094 0.096854858 0.99351287
1.5087304 0.70996094 0.099433474 0.99334073
1.7931249 0.70995116 0.1150069 0.99230188
1.8611034 0.70995116 0.11878631 0.99204993
1.9113379 0.70172852 0.12141845 0.9918744
1.9122461 0.64799803 0.12040283 0.99194205
1.9122363 -0.64799803 0.1204029 0.99194211
1.9113476 -0.70172852 0.1214183 0.99187434
1.8610938 -0.70995116 0.11878566 0.99204999
1.6692675 -0.70995116 0.1081744 0.99275756
1.5087206 -0.70993161 0.099433556 0.99334079
1.4152832 -0.70994139 0.094420776 0.99367535
1.3719823 -0.70993161 0.092120245 0.99382901
1.3326074 -0.77682614 0.091984935 0.99383813
1.3330859 -0.79972655 0.092704393 0.99379003
1.333584 -0.82298827 0.093451232 0.9937402
1.3341016 -0.84664059 0.094225384 0.99368846
1.3346484 -0.87068355 0.095028684 0.99363488
6.1598535 -8.2580662 0.61437017 0.95955771
5.9985547 -8.2562885 0.6085816 0.95993102
5.8402147 -8.2545509 0.60299557 0.96029139
5.5320215 -8.2511425 0.59240079 0.96097523
1.0360742 -8.2014942 0.49297225 0.96741718
0.515625 -8.1957417 0.48970869 0.96762937
0.41223633 -8.1946096 0.48929343 0.96765643
0.30902344 -8.1934662 0.48895401 0.96767843
-3.9605956 -8.4166012 0.5547052 0.9634124
-3.959209 -8.1463375 0.54013085 0.96435642
-4.0858593 -8.1449318 0.54340017 0.96414459
-4.2140427 -8.1435251 0.5467962 0.96392465
-4.3438673 -8.1420898 0.55032158 0.9636963
-4.47541 -8.1406441 0.55398071 0.96345931
-4.6087108 -8.1391602 0.5577774 0.96321362
-4.7439356 -8.1376657 0.56171739 0.96295863
-1.096621 -0.93066406 0.085770793 0.99425316
-1.0953516 -0.88321286 0.083910637 0.99437755
-1.0942187 -0.83779293 0.082182884 0.99449295
-1.0936816 -0.81579101 0.08136528 0.99454755
-1.0931348 -0.79421872 0.080577388 0.99460024
-1.0926269 -0.77305663 0.079817735 0.99465102
-1.0921484 -0.7522949 0.079084851 0.99469995
-1.1187011 -0.70993161 0.079011954 0.99470484
-1.1504004 -0.70993161 0.080614507 0.99459773
-1.1833984 -0.70994139 0.082296789 0.99448538
-1.2178613 -0.70993161 0.08406429 0.99436718
-1.2538183 -0.70992184 0.085923344 0.99424297
-1.3719727 -0.70994139 0.092120394 0.99382907
-1.4152539 -0.70993161 0.094420813 0.99367547
-1.5592773 -0.70994139 0.10217007 0.99315816
-1.6127441 -0.70996094 0.10507843 0.99296397
-1.703662 -0.64989257 0.10873687 0.99272001
-1.7075585 0.67607421 0.10441349 0.99266905
-1.612705 0.70997071 0.10018047 0.99296522
-1.5592968 0.70995116 0.097407684 0.99315917
-1.5087109 0.70996094 0.094798617 0.99334186
-1.3719629 0.70997071 0.087826692 0.99383003
-1.3307226 0.70996094 0.085750885 0.9939754
-1.2913867 0.70996094 0.083783984 0.99411315
-1.2537988 0.70996094 0.081918068 0.99424392
-1.2178613 0.70995116 0.080145799 0.99436808
-1.1186913 0.70995116 0.075329013 0.99470568
-1.0886914 0.71027344 0.073903464 0.99480557
-1.0891016 0.73020506 0.07454998 0.99476033
-1.0895605 0.7505371 0.07522022 0.99471331
-1.0926269 0.88102537 0.079798505 0.9943924
-1.0944335 0.95273435 0.082495913 0.99420339
-6.8453317 8.0660057 0.60146093 0.95850062
-6.6711912 8.0640917 0.59501821 0.95893586
-6.3386035 8.0665236 0.58325589 0.95973104
-2.1654491 8.0143452 0.47197983 0.96728647
-1.9501855 8.0119629 0.46880585 0.96750289
-1.6322851 8.0084467 0.46466735 0.96778512
-1.5275195 8.0072947 0.46344954 0.96786815
-1.4232519 8.0061522 0.46231085 0.96794575
-1.2187793 8.0206347 0.46123382 0.96801931
2.7701561 8.1747656 0.49072212 0.96600986
2.80916 7.9594235 0.47987694 0.96674848
3.0352342 7.9569235 0.48417282 0.96645582
3.1498241 7.9556637 0.48646614 0.96629959
7.8904295 8.1937208 0.64672124 0.95544851
8.0019531 7.9020801 0.63937718 0.95594305
8.2033396 7.8998437 0.64748704 0.95539701
8.6221094 7.8952246 0.66466397 0.95424122
8.8399801 7.8928223 0.67376012 0.95362973
1.331543 0.86869138 0.09038841 0.99365056
1.3305273 0.82111329 0.088891141 0.99375546
1.3287598 0.73048824 0.086207233 0.99394333
1.3719823 0.70997071 0.087826498 0.99382997
1.6127245 0.70994139 0.10018051 0.99296516
1.6693066 0.70995116 0.10313217 0.99275863
1.7931249 0.70995116 0.10964581 0.99230307
1.8611034 0.70995116 0.11324928 0.99205124
1.9160839 0.703457 0.11604729 0.99185562
1.9169433 0.64958984 0.11507412 0.99192363
1.9169531 -0.64959961 0.11507416 0.99192363
1.9165527 -0.67642576 0.11555 0.99189025
1.9160937 -0.70348632 0.11604743 0.99185556
1.8610938 -0.70995116 0.11324886 0.99205124
1.5592871 -0.70993161 0.097407304 0.99315923
1.460791 -0.70994139 0.092339784 0.99351394
1.3307421 -0.70994139 0.085750617 0.9939754
1.3291699 -0.75262696 0.086841315 0.99389899
1.3305371 -0.82110351 0.088891298 0.99375546
1.3310254 -0.84469724 0.089626461 0.99370396
1.3326269 -0.91791987 0.09199886 0.99353784
5.8402343 -8.2545309 0.57488805 0.9602977
5.6847653 -8.2528028 0.56974721 0.96064562
5.5320215 -8.2511225 0.56478727 0.96098149
5.3818946 -8.2494726 0.56 0.96130568
5.2342482 -8.2478514 0.55537885 0.96161872
1.1411133 -8.2026463 0.47084516 0.96736437
1.0360742 -8.2014942 0.4699932 0.96742237
0.93138671 -8.2003317 0.46921936 0.96747518
0.82705075 -8.1991892 0.46852195 0.96752268
0.72298825 -8.1980371 0.46789938 0.96756506
0.515625 -8.1957417 0.46688178 0.9676345
0.41223633 -8.1945992 0.46648476 0.96766162
0.20591797 -8.1923342 0.4659127 0.96770054
-4.2140427 -8.1435251 0.52130705 0.96393037
-4.47541 -8.1406345 0.5281567 0.96346515
-5.020195 -8.1346283 0.54346508 0.9624263
-9.0795898 -8.3139839 0.69992554 0.95187306
-1.094414 -0.95270509 0.082495838 0.99420351
-1.0938085 -0.92825192 0.081563108 0.99426883
-1.0932226 -0.90436524 0.080664404 0.99433172
-1.0926269 -0.88099605 0.079798505 0.99439245
-1.0920606 -0.85813475 0.078963809 0.99445093
-1.090039 -0.77121091 0.075915299 0.99466455
-1.0895605 -0.75051755 0.075220183 0.99471337
-1.0891211 -0.73019528 0.074549943 0.99476033
-1.0886816 -0.71023434 0.073903464 0.99480563
-1.1187011 -0.70993161 0.075328939 0.99470568
-1.1833984 -0.70994139 0.0784605 0.99448627
-1.2178613 -0.70993161 0.080145679 0.99436808
-1.2913672 -0.70993161 0.083783872 0.99411327
-1.3719727 -0.70994139 0.087826647 0.99383003
-1.4152539 -0.70993161 0.090019718 0.99367654
-1.460791 -0.70994139 0.09233997 0.99351394
-1.5592773 -0.70994139 0.09740749 0.99315929
-1.612705 -0.70994139 0.10018036 0.99296528
-1.7066406 -0.72583985 0.1054396 0.99259722
-1.7071191 -0.70083982 0.10491645 0.99263382
-1.7123535 0.6532129 0.099102549 0.99268532
-1.7110351 0.72772461 0.10054466 0.99257934
-1.612705 0.70997071 0.09528362 0.99296629
-1.5087109 0.70996094 0.090165444 0.99334288
-1.4607812 0.70996094 0.087827034 0.99351496
-1.4152637 0.70996094 0.085619695 0.99367738
-1.3307226 0.70996094 0.081559755 0.99397635
-1.2537988 0.70996094 0.077914163 0.99424481
-1.2178613 0.70995116 0.076228559 0.99436891
-1.1834375 0.70996094 0.074625544 0.99448693
-1.1503906 0.70996094 0.07310047 0.9945994
-1.1186913 0.70995116 0.071647219 0.99470651
-1.0882324 0.70995116 0.070261456 0.99480855
-1.0865625 0.72851562 0.070740275 0.99477333
-1.0874317 0.76938474 0.072032854 0.99467808
-1.0879004 0.79041988 0.072715454 0.99462771
-1.0888476 0.83372068 0.074157104 0.99452156
-1.0898925 0.87880856 0.075708464 0.9944073
-1.0904394 0.90210938 0.076527596 0.99434686
-1.0910058 0.92590821 0.077378154 0.99428427
-1.0916113 0.9502539 0.078260764 0.99421924
-7.3914742 8.072031 0.5918411 0.95710355
-7.0232716 8.0679884 0.57841551 0.95805585
-6.8453121 8.0660152 0.57206196 0.95850688
-6.3385935 8.0665131 0.55474645 0.95973718
-2.0574608 8.0131445 0.4473609 0.96740252
-1.8435742 8.0107908 0.44450051 0.96760744
-1.6322851 8.0084572 0.44195479 0.96778995
-1.5275195 8.0072947 0.44079748 0.96787298
-1.3195214 8.0050001 0.43870598 0.96802294
-1.2187598 8.0206146 0.43868804 0.96802425
2.7701464 8.1747847 0.46673819 0.96601492
2.80916 7.9594235 0.45642003 0.96675348
2.921699 7.9581833 0.45841932 0.96661037
3.1498241 7.9556637 0.46268898 0.96630472
3.2655175 7.9543748 0.46496359 0.96614188
3.3823826 7.9530859 0.46733719 0.96597207
3.5004687 7.951787 0.46980819 0.96579522
3.6198339 7.9504685 0.47238144 0.96561122
3.7405467 7.9491501 0.47505638 0.96541971
3.862617 7.947793 0.47783867 0.96522075
7.8904295 8.1937304 0.61511171 0.95545518
8.6221094 7.8952246 0.63217574 0.95424807
8.8399801 7.8928223 0.64082921 0.95363665
5.0638185 4.4081249 0.36302274 0.97346437
1.3300195 0.94100583 0.088100471 0.99349475
1.3294727 0.91577148 0.0872958 0.993554
1.3289746 0.89101559 0.086519696 0.99361104
1.3275195 0.8192578 0.084354021 0.99377048
1.3266211 0.77335936 0.083036304 0.99386758
1.3262109 0.75095701 0.082413211 0.99391341
1.3719823 0.70997071 0.083533816 0.99383092
1.4152637 0.70996094 0.085619658 0.99367738
1.5592968 0.70997071 0.092646599 0.99316019
1.9208789 0.7052148 0.11065082 0.99183661
1.9212987 0.6780957 0.11017555 0.99187154
1.9216992 -0.65122068 0.10972092 0.99190491
1.9208887 -0.70522457 0.11065079 0.99183655
1.8610938 -0.70995116 0.1077132 0.9920525
1.7293066 -0.70994139 0.10108593 0.99253958
1.5087206 -0.70993161 0.090164758 0.99334288
1.460791 -0.70994139 0.087826535 0.99351496
1.4152637 -0.70995116 0.085619427 0.99367744
1.3258008 -0.7288574 0.08181259 0.99395776
1.3262012 -0.75094724 0.082413249 0.99391347
1.328457 -0.86665034 0.085771181 0.99366629
10.57125 -8.3067865 0.72700816 0.94756806
10.298398 -8.3037596 0.71536088 0.94838595
10.248008 -8.4778509 0.71920872 0.94811589
6.159863 -8.2580662 0.55710226 0.95957017
5.9985547 -8.2562885 0.55185235 0.95994335
5.8402343 -8.2545309 0.54678696 0.96030366
5.6847754 -8.2528219 0.54189849 0.96065146
5.5320311 -8.251133 0.5371809 0.96098727
5.3818946 -8.2494726 0.53262627 0.96131152
1.1411133 -8.2026558 0.4478305 0.96736926
1.0360742 -8.2014942 0.44702139 0.96742725
0.93138671 -8.2003317 0.44628447 0.96748006
0.82705075 -8.1991892 0.44562116 0.96752757
0.41223633 -8.1945992 0.44368452 0.96766651
-3.9606054 -8.4165821 0.50299805 0.96342373
-4.0858593 -8.1449318 0.49274787 0.96415567
-5.020195 -8.1346283 0.51690221 0.96243197
-9.0795898 -8.3139839 0.6657148 0.95188028
-9.0772753 -8.1045408 0.65802616 0.95242256
-1.0915917 -0.95023435 0.078260571 0.99421936
-1.0904394 -0.90208006 0.076527864 0.99434692
-1.0899023 -0.87879878 0.075708427 0.9944073
-1.0893457 -0.85600585 0.074918404 0.99446553
-1.088877 -0.83370113 0.074157067 0.9945215
-1.0883789 -0.81182617 0.073423229 0.99457562
-1.0874511 -0.76937497 0.072032966 0.99467802
-1.0870019 -0.7487402 0.07137493 0.99472654
-1.0882324 -0.70993161 0.070261307 0.99480861
-1.1187011 -0.70993161 0.07164707 0.99470651
-1.2178613 -0.70993161 0.076228365 0.99436897
-1.3307323 -0.70995116 0.081559673 0.99397629
-1.4152539 -0.70993161 0.085619695 0.9936775
-1.5087206 -0.70993161 0.090165019 0.99334288
-1.612705 -0.70994139 0.095283814 0.99296635
-1.7110449 -0.72769529 0.10054462 0.99257934
-1.7114843 -0.70261717 0.10004429 0.99261618
-1.7119141 -0.67779297 0.099563904 0.99265152
-1.7123241 -0.6531738 0.09910278 0.9926855
-1.7166991 0.65486324 0.094250947 0.99266791
-1.6693066 0.70997071 0.093052402 0.99276072
-1.4607812 0.70996094 0.083314627 0.99351591
-1.4152637 0.70996094 0.081221044 0.99367833
-1.3719629 0.70997071 0.079242475 0.99383187
-1.3307226 0.70996094 0.077369533 0.99397719
-1.2913867 0.70996094 0.075594902 0.99411494
-1.2537988 0.70996094 0.073911473 0.99424565
-1.1834375 0.70996094 0.07079193 0.99448776
-1.1503906 0.70996094 0.069344901 0.99460018
-1.1186913 0.70995116 0.067966424 0.99470729
-1.0882324 0.70995116 0.066651992 0.99480933
-1.0840429 0.72681642 0.066949651 0.9947862
-1.0852734 0.7885254 0.068814427 0.99464142
-1.0857227 0.80988282 0.069482498 0.99458951
-1.0866992 0.85391599 0.070894122 0.99447978
-1.0876855 0.89983398 0.072413139 0.99436194
-1.0887793 0.9478125 0.074048765 0.99423498
-7.3914742 8.072051 0.5614363 0.95710963
-7.2052636 8.0699806 0.55495155 0.95759439
-6.8453026 8.0660057 0.54267335 0.9585129
-6.6711912 8.0641012 0.53685987 0.9589479
-6.3385839 8.0665035 0.52624696 0.95974296
-6.3362694 8.2755365 0.53464776 0.95911372
-2.0559278 8.0072165 0.42406493 0.96743095
-1.5256348 7.9974313 0.41763565 0.96791655
-1.4214063 7.995615 0.41657546 0.96799666
-1.1116406 7.9904981 0.41383049 0.9682042
2.7701659 8.1747952 0.44275925 0.96601975
2.808877 7.9585838 0.43292686 0.96676171
3.3823826 7.9530859 0.44332725 0.96597695
3.5004687 7.951787 0.44567162 0.96580017
3.7405272 7.9491405 0.45065123 0.96542472
3.862617 7.947793 0.45329055 0.96522576
7.8881836 7.9880271 0.57587594 0.95603126
8.0019531 7.9020996 0.57688373 0.95595592
8.2033787 7.8998632 0.5842008 0.95540988
1.326875 0.93876952 0.083376154 0.99351102
1.3258691 0.88894528 0.081883542 0.99362683
1.3249414 0.84083009 0.080495372 0.99373454
1.3244922 0.8174023 0.079838447 0.99378556
1.3240722 0.79432613 0.079204828 0.99383473
1.3232715 0.74928707 0.078005672 0.99392778
1.3307519 0.70995116 0.077369571 0.99397713
1.4152637 0.70996094 0.081220932 0.99367833
1.4608008 0.70996094 0.083314739 0.99351585
1.6127245 0.70995116 0.090388566 0.99296725
1.6693066 0.70995116 0.093052134 0.99276078
1.7293164 0.70996094 0.09589275 0.9925406
1.9260937 0.67979491 0.104776 0.99185246
1.9264941 0.65283203 0.10434238 0.99188602
1.9264746 -0.65283203 0.10434242 0.99188608
1.7293066 -0.70994139 0.095892981 0.99254066
1.612705 -0.70993161 0.090388261 0.99296737
1.5087206 -0.70993161 0.085532717 0.99334383
1.3719823 -0.70992184 0.079241976 0.99383187
1.3307421 -0.70994139 0.077369116 0.99397719
1.3236718 -0.77161133 0.078594171 0.99388212
1.3240722 -0.79431641 0.079205051 0.99383473
1.3245116 -0.81736326 0.079838328 0.99378556
1.3249218 -0.84082031 0.080495335 0.99373466
1.3258691 -0.88891602 0.081883542 0.99362689
1.3268652 -0.93874997 0.083376274 0.99351114
11.144843 -8.3130951 0.71321905 0.94583398
10.298379 -8.3037596 0.67860848 0.94839334
6.1598825 -8.2580662 0.52848226 0.95957589
5.9985547 -8.2562885 0.52350181 0.95994908
5.8402343 -8.2545309 0.51869643 0.96030933
5.6847754 -8.2528219 0.51405942 0.96065706
5.2342482 -8.2478514 0.50109649 0.96162999
5.1477733 -8.3414354 0.50281239 0.96150112
1.140293 -8.196826 0.42452064 0.96739674
1.035293 -8.1951857 0.4237287 0.96745658
0.72232419 -8.1905661 0.421781 0.96760368
0.41181639 -8.186347 0.42046493 0.96770316
0.30870116 -8.1850386 0.42016622 0.96772581
0.20568359 -8.1837692 0.41993514 0.96774322
0.10280273 -8.1825485 0.41977295 0.9677555
-4.6087108 -8.1391602 0.47980002 0.96323025
-5.020195 -8.1346283 0.49034598 0.96243739
-9.0772753 -8.1045408 0.6242196 0.95242935
-1.0871778 -0.87660152 0.071639441 0.99442202
-1.0866601 -0.85388672 0.070894316 0.99447995
-1.0861914 -0.83166015 0.070175357 0.99453574
-1.0848535 -0.7675488 0.068170048 0.99469143
-1.0840429 -0.72678709 0.066949539 0.99478626
-1.0882324 -0.70993161 0.066651836 0.99480939
-1.1187011 -0.70993161 0.067966118 0.99470729
-1.1833984 -0.70994139 0.070791662 0.99448794
-1.2538183 -0.70992184 0.073911324 0.99424565
-1.3307323 -0.70995116 0.077369384 0.99397719
-1.5087206 -0.70993161 0.085532762 0.99334383
-1.5592773 -0.70994139 0.087886691 0.99316132
-1.7158886 -0.70442379 0.095148884 0.99259835
-1.7163184 -0.67953122 0.094690666 0.99263376
-1.7167089 -0.65485352 0.094251208 0.99266785
-1.7207031 0.68128908 0.089794002 0.992616
-1.7202929 0.7062695 0.090229563 0.99258041
-1.6693066 0.70997071 0.088014178 0.99276173
-1.5592968 0.70995116 0.083128661 0.99316216
-1.5087109 0.70997071 0.080902211 0.99334472
-1.2537988 0.70996094 0.069909781 0.99424642
-1.2178613 0.70995116 0.068397142 0.99437052
-1.1834375 0.70996094 0.066959076 0.99448848
-1.1503906 0.70996094 0.065590397 0.99460095
-1.0882324 0.70995116 0.063043132 0.99481004
-1.0815234 0.72511715 0.06317772 0.99479902
-1.0818847 0.74524415 0.063741758 0.99475276
-1.0823047 0.76574218 0.064326629 0.9947046
-1.0826855 0.78664058 0.064933129 0.99465489
-1.0860058 0.94537109 0.069859579 0.99425048
-7.3914742 8.072051 0.53104025 0.95711541
-7.0232615 8.0679779 0.5189923 0.9580676
-6.8453026 8.0660152 0.5132916 0.95851845
-6.6711912 8.0641012 0.50779426 0.95895344
-6.5007324 8.0622072 0.50249052 0.9593733
-6.3385739 8.066494 0.49775442 0.95974845
-6.3362694 8.2755365 0.50570047 0.95911926
-2.4891307 8.0013866 0.4065702 0.96699893
-2.2689648 7.996953 0.40332037 0.96725845
-2.1601856 7.9948435 0.40181175 0.9673788
-1.9450097 7.9907517 0.39902291 0.96760154
-1.8385253 7.9887791 0.39774001 0.967704
-1.6274999 7.9849997 0.39538962 0.96789175
-1.5229101 7.9831934 0.39432067 0.96797711
-1.3153417 7.9797068 0.39239272 0.96813124
-1.2122949 7.9780369 0.39152938 0.96820015
-1.109707 7.9764061 0.39073607 0.96826369
-1.0074805 7.974824 0.39000648 0.96832192
-0.80415034 7.9717965 0.38874671 0.96842259
2.8037012 7.9438963 0.40873176 0.9668265
3.0301659 7.9436812 0.41251081 0.96652514
3.1450779 7.9436426 0.41452795 0.96636415
3.3783789 7.9436717 0.41882887 0.96602118
3.4969237 7.9437399 0.42111647 0.96583879
3.6168261 7.9438572 0.4234986 0.96564889
3.8608885 7.9442382 0.4285568 0.96524578
7.890449 8.1937494 0.55192113 0.95546746
8.0019531 7.9020896 0.54564965 0.95596188
8.2033987 7.8998632 0.55257195 0.95541584
8.4099998 7.8975878 0.55976105 0.95484918
8.6221094 7.8952441 0.56722975 0.95426071
5.0637012 4.4080176 0.32572126 0.97347242
1.3237109 0.9365527 0.078675538 0.99352729
1.3223242 0.86267579 0.076604843 0.99369717
1.3219141 0.838916 0.075963363 0.99374968
1.3203321 0.74763668 0.073618963 0.99394202
1.4152637 0.70996094 0.076823726 0.99367917
1.5592968 0.70997071 0.083128624 0.99316216
1.7931249 0.70997071 0.093572579 0.99230641
1.9305469 0.7087695 0.099781953 0.99179798
1.9312891 0.65446287 0.09893886 0.99186701
1.9312987 -0.65444332 0.098938748 0.99186701
1.9305273 -0.70875973 0.099781908 0.99179804
1.7293066 -0.70994139 0.090701178 0.99254173
1.6693066 -0.70993161 0.088013954 0.99276179
1.460791 -0.70994139 0.078803636 0.9935168
1.3719823 -0.70992184 0.074951664 0.99383271
1.3307421 -0.70994139 0.073180504 0.99397802
1.3214941 -0.81551754 0.075344577 0.99380052
1.3219141 -0.83889645 0.0759634 0.99374974
1.3223144 -0.86266601 0.07660488 0.99369717
1.3232226 -0.91146481 0.077960089 0.99358606
10.853223 -8.3098927 0.66322327 0.94673026
10.57125 -8.3067865 0.65231961 0.9475826
6.1598825 -8.2580662 0.49986884 0.95958138
5.8402343 -8.2545309 0.49061325 0.96031475
5.6847363 -8.2528219 0.48622704 0.96066248
5.531992 -8.251133 0.48199385 0.96099824
5.1477733 -8.3414259 0.47558784 0.96150637
0.92899412 -8.1792088 0.39940399 0.96757156
0.61750001 -8.1747751 0.39776778 0.96770227
0.51421875 -8.173398 0.39735389 0.96773523
0.41111326 -8.17206 0.39700705 0.96776295
0.30815428 -8.1707516 0.39672333 0.9677856
0.10263672 -8.1682615 0.39635184 0.96781522
-1.953125e-05 -8.1670895 0.39626548 0.96782231
-0.20527343 -8.1648531 0.39628014 0.96782094
-3.9592481 -8.1463375 0.4394657 0.96437734
-4.47541 -8.1406345 0.45073441 0.96348083
-4.6087303 -8.1391697 0.45382339 0.96323514
-4.7439256 -8.1376657 0.45702919 0.96298039
-4.8810449 -8.1361713 0.46035132 0.96271622
-1.0849512 -0.89753902 0.068320505 0.9943769
-1.0844922 -0.8744238 0.067592502 0.99443656
-1.0840137 -0.85178709 0.066890717 0.9944942
-1.0835546 -0.82962888 0.066214181 0.99454975
-1.0831152 -0.80791014 0.065562248 0.99460328
-1.0823047 -0.76574218 0.064326555 0.9947046
-1.0819141 -0.7452246 0.063741833 0.99475271
-1.0815136 -0.72509766 0.06317772 0.99479908
-1.0882324 -0.70993161 0.063042909 0.9948101
-1.1187011 -0.70993161 0.064286537 0.994708
-1.1833984 -0.70994139 0.066959187 0.99448866
-1.2178613 -0.70993161 0.068397179 0.99437058
-1.2538183 -0.70992184 0.069909707 0.99424642
-1.3719727 -0.70994139 0.074951895 0.99383271
-1.4152539 -0.70993161 0.076823309 0.99367929
-1.460791 -0.70994139 0.078803897 0.9935168
-1.5087206 -0.70993161 0.080902174 0.99334478
-1.612705 -0.70994139 0.08549469 0.99296832
-1.6693066 -0.70994139 0.088013873 0.99276179
-1.7207129 -0.68125975 0.089793853 0.992616
-1.7211034 -0.65652341 0.089375913 0.99265021
-1.612705 0.70997071 0.080602609 0.99296921
-1.5592968 0.70995116 0.078371659 0.99316305
-1.4607812 0.70996094 0.074294545 0.99351764
-1.3307226 0.70996094 0.06899292 0.9939788
-1.2537988 0.70996094 0.065909229 0.9942472
-1.2178613 0.70995116 0.064483106 0.99437124
-1.1186913 0.70995116 0.060607795 0.99470872
-1.0882226 0.70994139 0.059435576 0.99481076
-1.0790137 0.72342771 0.059424322 0.99481171
-1.0793653 0.74348629 0.059953459 0.99476564
-1.0801075 0.78474605 0.06107147 0.9946683
-1.0813378 0.84972656 0.06290821 0.99450839
-1.0817871 0.87227535 0.063566513 0.99445105
-1.0822363 0.89532226 0.064249307 0.99439162
-1.082705 0.91886717 0.06495785 0.99432999
-1.0832031 0.94294918 0.065693207 0.99426597
-7.2052636 8.0699902 0.49486807 0.95760554
-7.0232615 8.0679779 0.48929343 0.95807296
-6.8453026 8.0660152 0.4839192 0.95852375
-6.5007324 8.0622072 0.47373649 0.95937848
-6.3385739 8.066494 0.46927106 0.95975363
-6.3362794 8.2755365 0.47676101 0.95912445
-2.7080274 7.9912596 0.385959 0.96677858
-2.5958006 7.988955 0.38424179 0.96692389
-2.3742578 7.9845505 0.38103935 0.96719503
-1.6246094 7.9707808 0.3721 0.96795213
-1.520205 7.9690137 0.37109673 0.96803713
-1.3129981 7.9655957 0.36928397 0.96819079
-1.210166 7.9639645 0.36847457 0.96825939
-1.0057226 7.9608297 0.36704308 0.96838069
-0.80274415 7.9578514 0.3658596 0.968481
-0.70171875 7.9564157 0.36535949 0.96852344
-0.60096681 7.955029 0.36491987 0.9685607
2.2501171 7.9307714 0.37709275 0.96752924
2.3580956 7.9304004 0.37845466 0.9674139
2.5764842 7.9297557 0.38139418 0.96716499
2.7985156 7.9292674 0.38463309 0.96689087
3.3720214 7.9286914 0.39411575 0.96608847
3.4903026 7.9286718 0.39626464 0.96590686
3.7309277 7.9287791 0.40083137 0.96552086
3.8534276 7.9288964 0.40325186 0.96531618
4.1030469 7.9292579 0.4083879 0.96488237
7.890449 8.1937494 0.52033722 0.95547312
8.4099998 7.8975878 0.52772903 0.95485497
1.320586 0.93433589 0.07399822 0.99354339
1.3201269 0.90935546 0.073326908 0.9936018
1.3184766 0.81369138 0.070872575 0.99381536
1.3307323 0.70995116 0.068992957 0.9939788
1.5592968 0.70997071 0.078371771 0.99316305
1.6127245 0.70995116 0.080602571 0.99296916
1.9353906 0.71057618 0.094308659 0.99177849
1.9357715 0.68321288 0.093900301 0.9918139
1.9361132 -0.65608394 0.093509749 0.99184781
1.9357617 -0.68319333 0.093900301 0.99181396
1.9354101 -0.71054685 0.094308391 0.99177849
1.7931151 -0.70994139 0.088217847 0.99230748
1.7293066 -0.70994139 0.08551044 0.99254268
1.6693066 -0.70993161 0.082977481 0.99276274
1.612705 -0.70993161 0.080602184 0.99296927
1.4152637 -0.70995116 0.072427064 0.99368
1.3307421 -0.70994139 0.068992652 0.9939788
1.3174218 -0.74595702 0.069252737 0.99395621
1.3181348 -0.79074216 0.070312575 0.993864
1.3188964 -0.83697265 0.071453057 0.99376476
1.3193066 -0.86067379 0.072055094 0.99371237
1.319707 -0.88478512 0.072679363 0.99365813
11.144804 -8.3131247 0.63599998 0.94584817
10.853223 -8.3098927 0.62526894 0.94673699
10.57125 -8.3067865 0.61499184 0.94758922
10.298379 -8.3037596 0.60513824 0.94840682
10.248008 -8.4778614 0.60839188 0.94813681
6.159863 -8.2580662 0.47126442 0.95958662
5.9985547 -8.256279 0.46682319 0.95995969
5.6847754 -8.2528219 0.4584021 0.96066743
5.5320311 -8.251133 0.45441252 0.96100312
5.3818946 -8.2494631 0.45055947 0.96132725
1.2413477 -8.1695795 0.37799186 0.96745348
1.0316211 -8.1663771 0.37652472 0.9675777
0.92736328 -8.1648436 0.37588736 0.9676317
0.82342774 -8.1633692 0.37531179 0.96768034
0.51330078 -8.1591406 0.37396294 0.96779472
0.41037109 -8.1578026 0.37363547 0.96782243
0.30760741 -8.1565132 0.37336981 0.96784496
0.20499022 -8.1552639 0.37316445 0.96786225
-1.953125e-05 -8.1528807 0.37293777 0.9678815
-0.10248046 -8.1517382 0.37291411 0.96788341
-0.30740234 -8.1495705 0.37305108 0.96787184
-0.40996093 -8.1485443 0.37321159 0.96785837
-3.8277147 -8.1341991 0.41122085 0.96464336
-3.9533985 -8.1343355 0.4137072 0.96443343
-4.0806251 -8.1345119 0.41629058 0.96421534
-4.4724998 -8.1353121 0.42466199 0.96350896
-4.7429786 -8.1360741 0.43079039 0.96299231
-4.8810349 -8.1361618 0.43400833 0.96272105
-9.0772552 -8.1045313 0.55663711 0.95244193
-1.0832031 -0.94292969 0.065692939 0.99426603
-1.0822461 -0.89529294 0.06424927 0.99439162
-1.0805175 -0.80596679 0.061661489 0.99461693
-1.0800977 -0.78473634 0.061071549 0.99466836
-1.0790039 -0.72342771 0.059424132 0.99481177
-1.2178613 -0.70993161 0.064483069 0.99437129
-1.2538183 -0.70992184 0.065908924 0.9942472
-1.3719727 -0.70994139 0.070662804 0.99383354
-1.5087206 -0.70994139 0.076272584 0.99334562
-1.612705 -0.70994139 0.080602415 0.99296927
-1.6693066 -0.70994139 0.082977332 0.99276274
-1.7251366 -0.68302733 0.084873237 0.99259806
-1.7254785 -0.65819335 0.08447735 0.99263257
-1.729912 0.65991211 0.079554483 0.99261457
-1.7295898 0.6847949 0.079928435 0.99257994
-1.7292187 0.70993161 0.080318294 0.99254394
-1.612705 0.70997071 0.075711325 0.99297005
-1.5087109 0.70997071 0.071644098 0.99334645
-1.1186913 0.70995116 0.056929968 0.99470931
-1.0882226 0.70994139 0.055828933 0.99481142
-1.0765136 0.72174805 0.055689123 0.99482435
-1.0768359 0.74175781 0.056184042 0.99477851
-1.0775391 0.78289062 0.057229154 0.9946816
-1.0779198 0.80404294 0.057780951 0.99463046
-1.0786914 0.84764647 0.058946189 0.99452245
-1.0791113 0.87011719 0.059561424 0.99446541
-7.3914742 8.072051 0.47026914 0.95712602
-7.2052636 8.0699902 0.4648371 0.95761061
-7.0232615 8.0679884 0.45960128 0.95807797
-6.8453221 8.0660152 0.45455322 0.9585287
-6.6711912 8.0641108 0.44968489 0.95896363
-6.5007324 8.0622072 0.44498894 0.95938337
-6.3385739 8.066494 0.44079331 0.95975846
-2.8160644 7.9788184 0.3635501 0.96669137
-2.5910254 7.9743066 0.36026281 0.96698749
-2.4800293 7.9721289 0.358729 0.96712577
-2.3699317 7.9700193 0.35726464 0.96725768
-2.2607617 7.9679785 0.35587135 0.96738321
-2.0452538 7.9655957 0.353358 0.96760994
-1.938623 7.9644237 0.35219672 0.96771455
-1.8326367 7.9632616 0.35109848 0.96781355
-1.7273241 7.9620895 0.350063 0.96790701
-1.6225976 7.9609275 0.34908789 0.96799493
-1.5184571 7.959785 0.34817359 0.96807742
-1.1067578 7.9552341 0.345103 0.96835446
-1.0048535 7.9541306 0.34447891 0.96841073
-0.90333009 7.9530172 0.34391233 0.96846187
-0.80213863 7.9518847 0.34340072 0.96850806
-0.39983398 7.9474511 0.34190726 0.96864277
0.099785157 7.9419336 0.34126547 0.96870071
0.19959961 7.9408298 0.3412998 0.96869773
0.39935547 7.938623 0.34152839 0.96867704
0.49937499 7.9375291 0.34172377 0.9686594
0.69980466 7.9353123 0.34227645 0.96860939
0.90102535 7.9330759 0.34304962 0.96853971
1.1032813 7.9308496 0.3440451 0.96845001
1.4092089 7.9274511 0.34595665 0.96827745
1.7189941 7.9240332 0.3483898 0.96805799
1.8232909 7.9228907 0.34931961 0.96797413
1.9281347 7.9217281 0.35030884 0.9678849
2.0336328 7.9205761 0.35136017 0.96779007
2.139746 7.9193945 0.35247269 0.96768975
2.2465527 7.9182224 0.3536492 0.96758366
2.3541112 7.9170213 0.35488975 0.9674719
2.4624317 7.9158301 0.35619444 0.96735418
2.5717969 7.9153223 0.35759789 0.96722776
2.9056346 7.914443 0.36225149 0.96680838
3.0189452 7.9142284 0.36395019 0.96665543
3.3656542 7.9137497 0.36950234 0.96615541
3.4836912 7.9136715 0.3715139 0.96597433
3.6030664 7.9136329 0.37360778 0.96578586
3.9697266 7.9136815 0.38040924 0.96517408
4.2220311 7.9139256 0.38540053 0.9647252
8.001914 7.9020896 0.48320928 0.95597291
8.2033596 7.8998632 0.48933777 0.95542699
8.4099998 7.8975878 0.4957054 0.95486039
4.9987693 4.3514938 0.28476226 0.97381467
5.1184568 4.3438282 0.28844702 0.97348028
1.3166602 0.8827734 0.06811104 0.99367344
1.3162695 0.85873044 0.067527615 0.99372751
1.3155273 0.81184566 0.06642139 0.99382997
1.3145117 0.74432617 0.064906843 0.99397022
1.3719823 0.70997071 0.066374779 0.9938342
1.4152637 0.70996094 0.068032376 0.99368078
1.5087304 0.70995116 0.071644172 0.99334639
1.6127245 0.70995116 0.075711213 0.99297005
1.6693066 0.70995116 0.077942424 0.99276358
1.861123 0.70996094 0.085587844 0.99205661
1.940625 0.68492186 0.088423647 0.99179447
1.9406152 -0.68491209 0.088423647 0.99179453
1.9402734 -0.71233398 0.088809013 0.99175894
1.8611132 -0.70994139 0.085587807 0.99205667
1.6693066 -0.70993161 0.077941857 0.99276364
1.5087206 -0.70993161 0.07164371 0.99334645
1.460791 -0.70994139 0.069785841 0.99351841
1.4152637 -0.70995116 0.068032376 0.99368078
1.3719823 -0.70992184 0.066374548 0.99383432
1.3307421 -0.70994139 0.064806171 0.99397951
1.3148534 -0.76646483 0.065393485 0.99392515
1.3151758 -0.78898436 0.065898053 0.99387842
1.3158886 -0.83506835 0.066964418 0.99377972
1.3162597 -0.85870117 0.067527466 0.99372756
1.3166602 -0.88275391 0.0681113 0.99367344
11.144804 -8.3131247 0.59740454 0.94585466
10.853223 -8.3098927 0.58732533 0.94674337
10.248047 -8.4778614 0.57147413 0.94814289
5.5287108 -8.2462111 0.42658234 0.96103066
5.3772068 -8.2422943 0.42284966 0.96136492
5.2283006 -8.2384567 0.41924933 0.96168751
1.6635156 -8.161972 0.35790733 0.96720016
1.5566406 -8.1602049 0.35694465 0.96728694
1.2393261 -8.1563377 0.354478 0.96750927
1.1345117 -8.1551752 0.35378042 0.96757221
0.92599607 -8.1528807 0.35255867 0.96768224
0.51262695 -8.1483107 0.35080323 0.96784067
0.40982422 -8.1471777 0.35050422 0.96786755
0.30719727 -8.1460447 0.35026175 0.96788943
-0.10232422 -8.1415234 0.34984687 0.96792692
-0.61463869 -8.1358595 0.35057211 0.96786147
-0.71746093 -8.134717 0.3508831 0.9678334
-0.82046872 -8.133584 0.35125235 0.9678002
-0.92376953 -8.1324415 0.35167587 0.96776193
-1.0272655 -8.131299 0.35215706 0.96771854
-1.1310937 -8.1301565 0.35269547 0.96767002
-1.2352539 -8.1290131 0.35329041 0.96761626
-1.3397851 -8.1278419 0.3539443 0.96755743
-1.4447266 -8.1266994 0.35465574 0.96749312
-3.452949 -8.1187201 0.37907806 0.965294
-3.5740623 -8.1186619 0.38114187 0.96510834
-3.6965234 -8.1186228 0.38329139 0.9649151
-3.9457812 -8.1186619 0.38785309 0.96450502
-4.0727148 -8.1187496 0.39027175 0.9642877
-4.2013087 -8.1188669 0.39278373 0.96406192
-4.3315721 -8.1190138 0.39539459 0.96382761
-4.4636521 -8.1192188 0.3981044 0.96358418
-4.7334766 -8.1197653 0.40383673 0.96306956
-4.8713965 -8.1200876 0.40686676 0.96279776
-5.0114646 -8.1204681 0.41000763 0.96251589
-1.0799707 -0.9165234 0.060861699 0.99434501
-1.0791113 -0.87010741 0.059561271 0.99446541
-1.0782715 -0.82560545 0.058352929 0.99457753
-1.0775489 -0.78288084 0.057229154 0.9946816
-1.0765136 -0.72175777 0.055689048 0.99482435
-1.1503906 -0.70994139 0.058084372 0.99460238
-1.1833886 -0.70994139 0.059296761 0.99449009
-1.4152539 -0.70993161 0.068032414 0.99368089
-1.5592773 -0.70994139 0.07361576 0.993164
-1.7292383 -0.70990235 0.080318332 0.99254388
-1.7295898 -0.68476564 0.079928473 0.99257994
-1.6693066 0.70997071 0.072908282 0.99276441
-1.5592968 0.70995116 0.068861388 0.99316466
-1.3719629 0.70997071 0.062087934 0.99383497
-1.3307421 0.70996094 0.060620572 0.99398017
-1.2537891 0.70995116 0.057911031 0.99424857
-1.1503808 0.70995116 0.054332998 0.99460298
-1.1186913 0.70995116 0.05325298 0.99470997
-1.0882226 0.70994139 0.052222975 0.99481201
-1.0743457 0.74003905 0.052432861 0.99479115
-1.0753516 0.80211914 0.053919408 0.99464381
-1.0756934 0.82361329 0.054452132 0.99459112
-1.0760547 0.84556639 0.055004463 0.99453646
-1.0772461 0.9142285 0.056787297 0.99435985
-7.0214648 8.0658979 0.42980611 0.95809323
-6.8409958 8.0609083 0.42492485 0.9585591
-6.6645899 8.0560837 0.42022359 0.95900816
-6.323154 8.046855 0.41132095 0.95985895
-3.2757909 7.9791894 0.34667 0.96605974
-3.1587012 7.9779 0.34486213 0.96623367
-3.042783 7.9766307 0.34312668 0.96640074
-2.8143847 7.9741111 0.33986786 0.9667145
-2.7017772 7.9728613 0.33834022 0.96686155
-2.5901465 7.9716306 0.33688033 0.96700215
-2.4794531 7.9704003 0.33548576 0.96713656
-2.3696778 7.9691992 0.33415419 0.96726471
-1.938584 7.9644432 0.3294487 0.96771818
-1.6225976 7.9609571 0.32654136 0.96799845
-1.3116796 7.9575195 0.32413977 0.96822995
-1.1067382 7.9552536 0.32281289 0.96835798
-1.0048535 7.9541306 0.32222924 0.96841431
-0.90334958 7.9530172 0.32169935 0.96846545
-0.80213863 7.9518847 0.3212207 0.96851164
-0.70123047 7.9507809 0.32079414 0.96855271
-0.39983398 7.9474511 0.31982368 0.96864635
-3.9062499e-05 7.943037 0.31924269 0.96870244
0.099785157 7.9419336 0.3192243 0.96870428
0.59950197 7.9364061 0.31988531 0.96864045
0.69980466 7.9353123 0.32017082 0.96861297
0.90102535 7.9330759 0.32089308 0.96854329
1.0020117 7.9319625 0.32133186 0.96850091
1.4092089 7.9274707 0.32361329 0.96828097
1.5119824 7.9263377 0.32431671 0.96821308
1.7189941 7.9240527 0.32588866 0.96806151
1.8232909 7.9229002 0.32675728 0.9679777
2.2465723 7.9182324 0.33080718 0.96758729
2.4624512 7.9158492 0.33318809 0.96735781
2.5715821 7.9146385 0.33447158 0.96723419
2.6816015 7.9134274 0.33581808 0.96710449
2.9043458 7.9109569 0.33870527 0.9668265
3.0172265 7.9097166 0.34024855 0.9666779
3.1311524 7.9084668 0.34186119 0.96652269
3.2461522 7.9071875 0.34354049 0.96636087
3.4797168 7.9046092 0.34711996 0.96601647
3.9624999 7.8992772 0.35519156 0.9652403
4.08707 7.8983884 0.35743254 0.96502483
4.213779 7.8984275 0.35980269 0.96479702
7.8881836 7.9880271 0.4512094 0.95605308
8.001914 7.9020896 0.45199874 0.95597786
8.4099998 7.8975778 0.46368819 0.95486546
4.9869919 4.3412399 0.26574156 0.9738785
5.0977244 4.3262501 0.26872483 0.97358924
5.2145019 4.3138084 0.27200043 0.97327155
1.3132422 0.85676754 0.063021429 0.99374253
1.3129003 0.83320308 0.062497251 0.99379444
1.3125585 0.81002927 0.061991919 0.99384451
1.3116308 0.74269527 0.060581092 0.9939841
1.3113281 0.72090816 0.060144577 0.99402738
1.3719823 0.70997071 0.062087897 0.99383491
1.4152637 0.70996094 0.063638456 0.99368149
1.4608008 0.70997071 0.065278627 0.99351907
1.5087304 0.70995116 0.067016639 0.99334717
1.6127245 0.70995116 0.070820995 0.99297082
1.6693066 0.70995116 0.072907865 0.99276441
1.861123 0.70996094 0.080060042 0.9920575
1.9451758 0.71415037 0.083282739 0.99173909
1.945498 0.6866504 0.082920566 0.99177486
1.9451855 -0.71414059 0.083282739 0.99173909
1.8611132 -0.70994139 0.080059931 0.99205756
1.7931151 -0.70994139 0.077512436 0.99230933
1.612705 -0.70993161 0.070821077 0.99297094
1.3307421 -0.70994139 0.060620308 0.99398023
1.3113378 -0.72089845 0.060144424 0.99402738
1.3122168 -0.78721678 0.06150417 0.99389285
1.3125683 -0.81001949 0.061991729 0.99384451
1.3136327 -0.88070309 0.063565135 0.9936887
10.57125 -8.306777 0.5403595 0.94760144
10.298379 -8.30375 0.53170377 0.9484188
10.248066 -8.4778709 0.53456366 0.94814861
6.3162599 -8.2493849 0.41758782 0.95926046
5.9872851 -8.2407904 0.40940329 0.9600426
5.6708789 -8.2326851 0.40179214 0.96077073
5.5170116 -8.2287893 0.39818725 0.96111584
5.3659372 -8.2250099 0.39471054 0.96144867
5.2174215 -8.2213478 0.39135581 0.96176988
4.7865624 -8.2109079 0.38199294 0.96266717
4.6474414 -8.2076263 0.37909347 0.96294522
3.0016112 -8.1757908 0.35004851 0.9657352
2.8850975 -8.1745119 0.34841332 0.96589243
2.7696679 -8.1732225 0.34684792 0.96604306
2.655205 -8.1719627 0.34535179 0.96618712
2.4291992 -8.1694632 0.34255669 0.96645606
2.317539 -8.1682224 0.3412573 0.96658123
1.9872851 -8.1645699 0.337733 0.96692055
1.8786523 -8.1633787 0.33667952 0.96702194
1.7706835 -8.1621771 0.3356874 0.96711767
1.6633496 -8.161006 0.33475202 0.96720767
1.2393457 -8.1563177 0.33158249 0.96751302
0.92599607 -8.1528511 0.32978705 0.96768606
0.71880859 -8.1505756 0.32886016 0.96777534
0.5126465 -8.1482906 0.3281453 0.96784437
0.40986326 -8.1471577 0.32786635 0.96787125
0.20473632 -8.1449022 0.32746384 0.96790993
-1.953125e-05 -8.1426363 0.32726982 0.96792871
-0.20464844 -8.1403713 0.32728279 0.96792752
-0.61461914 -8.135849 0.32792991 0.96786517
-0.92373043 -8.1324215 0.32896131 0.96776569
-1.2352539 -8.1290035 0.33047339 0.96762002
-1.3397655 -8.1278315 0.33108336 0.96756113
-1.7622656 -8.1231737 0.33408362 0.96727216
-1.8691796 -8.1219921 0.33497322 0.96718633
-1.9766992 -8.120801 0.3359217 0.9670949
-2.0848241 -8.1196089 0.33693093 0.9669978
-2.1936133 -8.1184177 0.33799782 0.96689498
-2.4133692 -8.1159859 0.34031525 0.96667188
-2.6362987 -8.1135254 0.34288305 0.9664247
-2.7490528 -8.1122751 0.34426206 0.9662919
-2.9774413 -8.1097651 0.34722129 0.96600705
-3.0931444 -8.1084862 0.34880438 0.96585482
-3.4469335 -8.1045799 0.35397711 0.9653573
-3.5672851 -8.1033201 0.35585189 0.96517706
-3.6894825 -8.1032028 0.35785347 0.96498454
-4.0648632 -8.1030464 0.36435837 0.96435952
-4.3230958 -8.1031246 0.36913162 0.96390116
-4.5884571 -8.1033592 0.3742784 0.96340716
-5.0012889 -8.1039743 0.38274854 0.96259481
-5.434082 -8.10499 0.39219651 0.96168929
-1.0772461 -0.9142285 0.056787338 0.99435985
-1.0768456 -0.89083982 0.056170922 0.99442083
-1.0764356 -0.86795896 0.055576894 0.99447972
-1.0749999 -0.78103513 0.053405873 0.99469471
-1.0746777 -0.76034176 0.052910574 0.99474376
-1.0740331 -0.72009766 0.051972196 0.99483681
-1.0882226 -0.70994139 0.052222669 0.99481201
-1.1187011 -0.70994139 0.053252831 0.99470991
-1.1833886 -0.70994139 0.055466805 0.99449074
-1.2913574 -0.70993161 0.059230115 0.99411803
-1.4152539 -0.70993161 0.063638344 0.99368161
-1.7343554 -0.66159177 0.074607812 0.99259651
-1.7382519 0.71362305 0.070308492 0.9925068
-1.5592968 0.70995116 0.064107738 0.99316543
-1.4607812 0.70996094 0.060772438 0.99351984
-1.2537891 0.70995116 0.053913381 0.99424922
-1.1834277 0.70995116 0.051637724 0.99449116
-1.1503808 0.70995116 0.050582465 0.99460357
-1.1186913 0.70995116 0.049576912 0.99471051
-1.0882226 0.70994139 0.048618011 0.99481255
-1.0718652 0.73832029 0.048699912 0.99480373
-1.0721484 0.75856441 0.049142648 0.99475664
-1.0724511 0.77919918 0.049601782 0.99470782
-1.0737695 0.86583006 0.051613271 0.9944939
-1.0749414 0.93576169 0.053326797 0.99431151
-7.3777342 8.0570211 0.40876678 0.9572134
-7.1891894 8.0519533 0.4038941 0.95771247
-6.8252149 8.0423145 0.39468023 0.95865703
-6.649375 8.0377045 0.39032248 0.95910406
-6.4773731 8.0332327 0.38612068 0.95953518
-5.9827147 8.0206051 0.37440169 0.9607389
-5.8055663 8.2055664 0.37610495 0.9605639
-4.6604004 7.994482 0.34624642 0.96363688
-4.1338573 7.9886813 0.33656135 0.96463579
-4.0067186 7.9872751 0.33435529 0.96486354
-3.8811815 7.9858885 0.33222899 0.965083
-3.7572265 7.9845214 0.33018127 0.96529442
-2.9280565 7.9753709 0.31789106 0.96656442
-2.7017772 7.9728613 0.31498444 0.966865
-2.4794531 7.9704003 0.31232688 0.96714002
-2.2607324 7.967988 0.3099063 0.96739036
-1.9386133 7.9644237 0.30670637 0.96772164
-1.7273145 7.9620895 0.30484831 0.96791404
-1.3116699 7.9575095 0.30176422 0.96823335
-1.2089844 7.9563766 0.30112198 0.96829998
-1.1067382 7.9552441 0.30052787 0.96836138
-0.9033398 7.9530077 0.29949111 0.96846884
-0.80212891 7.9518747 0.29904664 0.96851504
-0.50010741 7.9485545 0.29799971 0.9686234
-0.2997168 7.9463282 0.29754072 0.96867108
-0.099853516 7.9441209 0.29726997 0.9686991
-2.9296874e-05 7.943027 0.29720512 0.96870577
0.099794917 7.9419236 0.29718727 0.96870762
0.19959961 7.9408202 0.29721612 0.96870464
0.29943359 7.9397168 0.29729292 0.96869671
0.39936522 7.938623 0.29741508 0.96868396
0.69981444 7.9353027 0.29806823 0.96861631
0.90103513 7.9330759 0.29874146 0.96854663
1.0020214 7.9319625 0.29914999 0.96850425
1.1032813 7.9308395 0.29960686 0.96845692
1.2049023 7.9297266 0.30011344 0.96840447
1.3068554 7.9285936 0.30066741 0.96834701
1.4092187 7.9274707 0.30127311 0.96828431
1.5119921 7.9263282 0.30192795 0.96821648
1.6152442 7.9251852 0.30263343 0.96814334
1.7189941 7.9240527 0.30339226 0.9680649
1.9281445 7.9217381 0.30506223 0.96789187
2.246582 7.9182224 0.30797127 0.96759075
2.5715821 7.9146385 0.31138268 0.96723771
2.7924805 7.9122066 0.31394973 0.96697211
3.0172265 7.9097166 0.31675994 0.96668142
3.3623242 7.9059081 0.32145828 0.96619576
3.7183397 7.9019723 0.32676804 0.96564704
4.0868649 7.8979101 0.33273697 0.96503055
4.2127538 7.8965135 0.33488294 0.96480912
4.340322 7.8951073 0.33710906 0.96457928
4.4696093 7.8936815 0.33942115 0.96434093
4.7337208 7.8907714 0.34430313 0.96383727
4.8686523 7.8892674 0.34688056 0.96357167
5.0056543 7.8877439 0.3495523 0.96329635
5.144824 7.8862109 0.35232168 0.96301097
5.2862306 7.8846383 0.3551915 0.96271539
7.7936716 7.8922949 0.41502762 0.95657265
7.9930468 7.8933105 0.42032897 0.95603025
8.4078512 7.8955469 0.43156889 0.95488149
8.6220703 7.8952341 0.4374378 0.9542821
4.9980078 4.462451 0.25070488 0.97353667
4.9849119 4.3394337 0.24729423 0.97389203
5.2085838 4.3089161 0.25293708 0.97330433
1.3116699 0.95299804 0.060665891 0.99353117
1.3106054 0.87869138 0.059040908 0.99370384
1.3102636 0.85478514 0.05853733 0.99375749
1.3099219 0.8313086 0.058051184 0.99380916
1.3096288 0.80821288 0.057582702 0.99385887
1.3090332 0.7630859 0.056695443 0.99395329
1.3087499 0.74104488 0.05627529 0.99399793
1.3307323 0.70995116 0.05643589 0.99398088
1.3719921 0.70996094 0.057801779 0.99383557
1.5592968 0.70997071 0.064107552 0.99316537
1.6127245 0.70995116 0.065932542 0.9929716
1.6693066 0.70995116 0.067875214 0.99276519
1.7293164 0.70995116 0.069947317 0.99254519
1.7931249 0.70996094 0.072161824 0.99231011
1.9506934 0.66103512 0.077066801 0.99178952
1.9506738 -0.66101563 0.077066839 0.99178964
1.9500976 -0.71594727 0.077730104 0.99171919
1.8611132 -0.70994139 0.074532732 0.99205846
1.7931151 -0.70994139 0.072161406 0.99231017
1.7293066 -0.70994139 0.069946781 0.99254525
1.5592871 -0.70993161 0.064106978 0.99316549
1.5087206 -0.70993161 0.062390096 0.99334794
1.3719921 -0.70993161 0.057801627 0.99383563
1.3307421 -0.70995116 0.056435507 0.99398082
1.3090136 -0.76309568 0.056695249 0.99395329
1.3112988 -0.92776364 0.06010456 0.99359089
1.3116796 -0.95298827 0.060665853 0.99353117
11.144824 -8.3131151 0.5202446 0.94586635
10.57125 -8.306777 0.50305808 0.94760692
6.4713573 -8.2354488 0.39190382 0.95894206
6.3023047 -8.2311525 0.38789931 0.95935291
6.1366796 -8.2269726 0.38403913 0.95974928
5.9743066 -8.22293 0.38031554 0.96013165
5.8150778 -8.2189846 0.37672302 0.96050066
5.5054102 -8.2114553 0.36991736 0.96120018
5.3547068 -8.2078218 0.36669418 0.96153176
5.2066112 -8.2042971 0.36358383 0.96185166
4.6396484 -8.1938772 0.35233322 0.96301007
4.5037889 -8.1923628 0.34980795 0.96327037
4.3698435 -8.1908884 0.34737083 0.96352136
4.2377539 -8.189414 0.34502485 0.96376342
3.9787207 -8.1865721 0.34058174 0.96422142
3.85166 -8.1851559 0.3384842 0.96443796
3.6020508 -8.1824026 0.3345204 0.96484709
3.3580859 -8.1797066 0.33085349 0.96522552
3.2380469 -8.1783886 0.32912812 0.96540368
2.4291992 -8.1694632 0.31890953 0.96645963
2.317539 -8.1682224 0.31769913 0.96658474
2.2066894 -8.1670017 0.31654847 0.96670377
1.9872851 -8.1645699 0.31441796 0.96692407
1.7706835 -8.1621771 0.31251281 0.96712112
1.6633496 -8.1609955 0.31164283 0.96721119
1.5565722 -8.1598043 0.31082663 0.96729571
1.1345215 -8.1551657 0.30808571 0.96757931
1.0300878 -8.1540136 0.30752793 0.96763694
0.71879882 -8.1505861 0.30615881 0.96777874
0.61558592 -8.1494436 0.30580139 0.96781576
0.40986326 -8.1471577 0.30523247 0.96787465
0.20474608 -8.1449118 0.30485877 0.96791333
-9.7656248e-06 -8.1426458 0.30467817 0.96793205
-0.10232422 -8.1415234 0.30466017 0.96793389
-0.2046582 -8.1403809 0.30468926 0.96793085
-0.30700195 -8.1392574 0.30476746 0.96792275
-0.40941405 -8.1381149 0.30489492 0.96790975
-0.71745116 -8.134717 0.30556351 0.96784043
-0.92373043 -8.1324415 0.30625275 0.96776903
-1.2352539 -8.1290131 0.30765861 0.96762335
-1.3397461 -8.1278419 0.30822837 0.96756452
-1.6559374 -8.1243458 0.31024382 0.96735597
-1.7622851 -8.1231833 0.3110196 0.96727556
-1.8691796 -8.1219921 0.31184959 0.96718979
-1.9766992 -8.120801 0.31273261 0.96709836
-2.0848241 -8.1196089 0.31367141 0.96700132
-2.4133692 -8.1159859 0.31682196 0.9666754
-2.6362987 -8.1135254 0.31921166 0.96642828
-2.7490528 -8.1122751 0.32049721 0.96629548
-3.2099414 -8.1071873 0.32626295 0.96569955
-3.446914 -8.1045704 0.32954064 0.96536106
-3.5672753 -8.1032515 0.33128464 0.96518099
-3.6888769 -8.1019039 0.33309677 0.96499377
-3.8118944 -8.1005564 0.33498549 0.96479893
-3.9363086 -8.0991697 0.3369458 0.96459645
-4.0622067 -8.0977831 0.33898628 0.96438605
-4.1896482 -8.0963764 0.34110525 0.96416754
-4.3187404 -8.0949612 0.34330329 0.96394068
-4.4495311 -8.0935249 0.34558669 0.96370524
-4.5820704 -8.0920601 0.34795523 0.96346104
-4.9911718 -8.0875387 0.35560393 0.96267313
-5.1327047 -8.0877047 0.35841888 0.96238327
-5.2765427 -8.0879002 0.36133796 0.96208286
-5.4227929 -8.0881538 0.36436355 0.96177137
-9.0795698 -8.3139648 0.46064603 0.95191604
-9.0772457 -8.1045113 0.45532554 0.95245802
-1.0749218 -0.93574214 0.053326454 0.99431163
-1.0745312 -0.91191405 0.052734334 0.99437463
-1.0734277 -0.84349608 0.051082343 0.99455035
-1.0731055 -0.82164061 0.050570946 0.99460471
-1.0882226 -0.70994139 0.04861778 0.99481255
-1.1187011 -0.70994139 0.049576759 0.99471051
-1.1833886 -0.70994139 0.051637687 0.99449134
-1.2913574 -0.70993161 0.055141296 0.99411869
-1.3307226 -0.70994139 0.056435775 0.99398094
-1.5087206 -0.70994139 0.062390212 0.99334794
-1.612705 -0.70994139 0.065932155 0.99297166
-1.7382226 -0.7136035 0.07030838 0.99250692
-1.7388476 -0.66330075 0.069636457 0.99257821
-1.7433398 0.66503906 0.064640768 0.99255979
-1.7430663 0.69014645 0.064946823 0.99252468
-1.7427734 0.71548826 0.06526611 0.99248815
-1.5592871 0.70994139 0.059355009 0.99316615
-1.4607714 0.70995116 0.056267127 0.99352056
-1.4152539 0.70995116 0.054853097 0.99368286
-1.3307421 0.70995116 0.05225189 0.99398142
