# .PCD v0.7 - Point Cloud Data file format
VERSION 0.7
FIELDS x y z intensity
SIZE 4 4 4 4
TYPE F F F F
COUNT 1 1 1 1
WIDTH 1104
HEIGHT 1
VIEWPOINT 0 0 0 1 0 0 0
POINTS 1104
DATA ascii
-0.30737305 -8.1491995 0.32776588 0.96788085
-0.40994141 -8.148056 0.32790253 0.96786779
-0.51257813 -8.146924 0.32809004 0.96784967
-0.92483395 -8.1423731 0.32936317 0.96772689
-1.0285058 -8.1412306 0.32981321 0.96768343
-1.1324707 -8.1400776 0.33031821 0.96763486
-1.3413867 -8.1377535 0.33148849 0.9675222
-1.6579394 -8.1342573 0.33365485 0.96731335
-1.7644141 -8.1330862 0.33448952 0.96723288
-2.3059082 -8.1271191 0.33953878 0.96674651
-2.4162793 -8.1258783 0.34073105 0.96663195
-2.8662403 -8.1209078 0.34612989 0.9661122
-2.9810545 -8.1196289 0.34764519 0.9659664
-3.2138183 -8.1170702 0.35088432 0.96565485
-3.451123 -8.1144629 0.35440773 0.96531582
-4.4600096 -8.1126165 0.37208709 0.96361738
-5.1490817 -8.1135445 0.38622633 0.9622615
-5.2934861 -8.1138668 0.3893778 0.96195948
-5.5896192 -8.1146193 0.39603096 0.96132213
-5.8963571 -8.1155663 0.40318313 0.96063757
-6.0540333 -8.1161127 0.40695807 0.96027642
-1.0772461 -0.91419917 0.056786843 0.99435991
-1.0768164 -0.89081055 0.056170423 0.99442101
-1.0760351 -0.84554684 0.055003699 0.99453652
-1.0756738 -0.82358396 0.054451447 0.9945913
-1.075332 -0.80210936 0.05391895 0.99464393
-1.0746484 -0.7603125 0.052910004 0.99474394
-1.0743359 -0.7400195 0.052432325 0.99479121
-1.0740136 -0.72005856 0.051971778 0.99483699
-1.0882128 -0.70992184 0.05222271 0.99481207
-1.217832 -0.70992184 0.056657866 0.99437273
-1.2538086 -0.70993161 0.057910919 0.99424857
-1.3307323 -0.70991212 0.060620382 0.99398029
-1.4607617 -0.70992184 0.065278359 0.99351931
-1.5592577 -0.70992184 0.068860851 0.9931649
-1.6692969 -0.70994139 0.072907902 0.99276447
-1.7336913 -0.711748 0.075325355 0.99252558
-1.7385352 0.6883496 0.06996502 0.99254334
-1.7382226 0.71363282 0.070307963 0.99250692
-1.4607714 0.70997071 0.060771979 0.9935199
-1.3719629 0.70997071 0.057801511 0.99383563
-1.217832 0.70998043 0.052746542 0.99437326
-1.1503808 0.70997071 0.050582085 0.99460351
-1.1186817 0.70997071 0.049576528 0.99471051
-1.071543 0.71845704 0.048272666 0.99484926
-1.0724413 0.77919918 0.049601097 0.99470782
-1.0727441 0.8002246 0.050077096 0.99465722
-1.0730859 0.82165039 0.050570488 0.99460471
-1.0734277 0.84352535 0.051082116 0.99455029
-1.0737695 0.86584961 0.051612776 0.99449384
-1.0745116 0.91194332 0.052733954 0.99437463
-7.7579489 8.0560932 0.41848081 0.9562192
-7.5601172 8.0507326 0.41323286 0.956756
-5.0700488 7.989121 0.35404348 0.96283334
-4.6545701 7.9845214 0.34581366 0.9636814
-4.3879199 7.9815817 0.34080213 0.96419829
-4.0016894 7.9773045 0.33393708 0.96490663
-3.8763378 7.9759274 0.33181435 0.9651258
-3.7525487 7.9745407 0.32976905 0.96533698
-3.5093651 7.9718652 0.32590652 0.96573591
-3.3898535 7.9705367 0.32408461 0.96592408
-3.2716601 7.9692383 0.32233557 0.96610498
-3.1547363 7.9679394 0.32065451 0.96627873
-3.0389843 7.9666696 0.3190403 0.96644551
-2.6983886 7.9629002 0.31459099 0.96690577
-2.4763672 7.9604588 0.31193587 0.96718031
-2.3667188 7.9592481 0.31069899 0.9673084
-1.7251366 7.9521384 0.30446625 0.9679535
-1.6205664 7.9509959 0.30361861 0.96804124
-1.4130175 7.9487009 0.30207899 0.96820068
-1.105332 7.9453025 0.30015296 0.9684003
-0.90218747 7.9430466 0.29911628 0.96850771
-0.59979492 7.9397068 0.29792732 0.96863091
-0.39932618 7.93749 0.29737303 0.96868831
-0.099716797 7.9341793 0.29689735 0.96873766
0.099667966 7.931982 0.29681495 0.96874619
0.39886719 7.9286814 0.29704344 0.96872252
0.49874023 7.927568 0.29721367 0.96870494
0.69893551 7.9253516 0.29769462 0.96865505
0.89991212 7.9231443 0.29836601 0.96858537
1.0007617 7.9220214 0.29877433 0.96854311
1.1019043 7.920908 0.29923111 0.96849579
1.2034081 7.9197946 0.29973656 0.96844339
1.6132421 7.9152637 0.30225471 0.96818262
1.7168456 7.9141016 0.3030104 0.96810436
1.9257421 7.9117966 0.30468026 0.96793151
2.3511913 7.9071093 0.30866301 0.96751904
2.4593554 7.9058981 0.30979919 0.96740162
2.7889745 7.9022655 0.31355515 0.96701294
3.0134375 7.8997946 0.31636223 0.96672249
3.24208 7.8972559 0.31942388 0.96640599
3.3581054 7.8959961 0.32105392 0.96623743
3.4753613 7.8946776 0.32275191 0.96606201
3.9575293 7.8893552 0.33025527 0.96528685
4.0817184 7.8879786 0.33231863 0.96507376
4.2074509 7.8865914 0.33446297 0.96485257
4.3348632 7.8851757 0.33668563 0.96462309
4.7277536 7.8808494 0.3438707 0.96388197
4.8625488 7.8793554 0.34644485 0.96361655
4.9993749 7.8778319 0.3491123 0.96334159
5.1383691 7.8763084 0.35187835 0.96305656
6.5168653 7.8776269 0.38254607 0.95990217
7.0352635 7.8796678 0.39525092 0.95859855
4.0959082 4.4730177 0.22693634 0.97601527
4.0799122 4.3446484 0.2230072 0.97642565
4.1515722 4.3111134 0.22394469 0.9763276
4.2645993 4.3185544 0.22709724 0.97599846
1.3106054 0.8787207 0.059040945 0.99370378
1.3096582 0.80822265 0.057582967 0.99385875
1.3093555 0.78549802 0.057131078 0.9939068
1.3090527 0.763125 0.056695443 0.99395311
1.3087695 0.7410742 0.056275405 0.99399781
1.3307421 0.70997071 0.05643566 0.99398082
1.6127245 0.70997071 0.06593208 0.99297154
1.7293261 0.70997071 0.069947168 0.99254513
1.7931347 0.70997071 0.072161481 0.99231005
1.8611523 0.70997071 0.074533001 0.99205822
1.9501367 0.71597654 0.077730022 0.99171901
1.950703 -0.6610254 0.077066801 0.99178946
1.9504199 -0.68836915 0.077391125 0.99175507
1.9501367 -0.71594727 0.077729948 0.99171907
1.7931347 -0.70993161 0.072161369 0.99231011
1.7293164 -0.70992184 0.069947012 0.99254525
1.6693066 -0.70992184 0.067874834 0.99276525
1.6127245 -0.70993161 0.06593208 0.9929716
1.4608105 -0.70992184 0.060772207 0.99351984
1.3307519 -0.70992184 0.056435812 0.99398088
1.3084863 -0.71933591 0.055870667 0.99404091
1.3093457 -0.78545898 0.057131004 0.99390686
1.309961 -0.83127928 0.058051221 0.99380904
1.3102636 -0.85477537 0.058537368 0.99375749
1.3106152 -0.87867188 0.059040945 0.9937039
1.3113086 -0.92775387 0.060104523 0.99359083
9.5408888 -8.3054295 0.47331047 0.95062727
9.3495998 -8.3477049 0.46898696 0.95106697
5.8230371 -8.230195 0.37723762 0.96044779
5.5129004 -8.222578 0.37042114 0.96114856
5.2136817 -8.2153997 0.36407784 0.96180099
4.9244528 -8.2085743 0.35817611 0.96240836
4.7833691 -8.2054491 0.3553881 0.96269548
4.6453614 -8.2039156 0.35276556 0.96296555
4.3752246 -8.2009277 0.34779793 0.96347743
4.1124315 -8.1980276 0.34318313 0.96395332
3.8563769 -8.1951952 0.33889922 0.96439517
3.7307031 -8.193799 0.33687598 0.9646039
3.2420311 -8.1884079 0.32953179 0.96536201
3.1230762 -8.1870995 0.32787329 0.96553326
3.0053222 -8.185791 0.32628289 0.96569759
2.7730565 -8.1832123 0.32330015 0.96600586
2.6584961 -8.1819525 0.32190484 0.96614999
2.5449023 -8.1807127 0.32057112 0.96628773
2.3203905 -8.1782227 0.31808838 0.96654451
1.9897168 -8.1745701 0.31480247 0.96688426
1.6653906 -8.1709862 0.31202528 0.96717167
1.5584766 -8.1698141 0.31120735 0.96725625
1.4521289 -8.168623 0.31044272 0.9673354
1.3462793 -8.1674604 0.30973044 0.96740907
1.1359081 -8.1651363 0.30846235 0.96754032
0.92713863 -8.1628418 0.30739716 0.96765053
0.82330078 -8.1616793 0.30693978 0.96769786
0.71969724 -8.1605368 0.30653334 0.96774006
0.61635739 -8.1594038 0.30617508 0.96777707
0.51328123 -8.1582518 0.30586594 0.96780908
0.41036132 -8.1571093 0.30560577 0.96783608
0.30760741 -8.1559858 0.30539498 0.9678579
0.20499022 -8.1548433 0.30523193 0.96787483
0.1024707 -8.1537209 0.3051171 0.96788669
0 -8.1525879 0.30505064 0.96789354
-0.10245117 -8.1514645 0.3050321 0.96789539
-0.20489258 -8.1503029 0.30506203 0.96789241
-0.30737305 -8.149189 0.30513984 0.96788424
-0.51255858 -8.146924 0.30543983 0.96785307
-0.61536133 -8.1457815 0.30566475 0.96783
-0.71830076 -8.1446486 0.30593652 0.96780181
-0.82147461 -8.1435061 0.30625725 0.96776861
-0.92483395 -8.1423731 0.30662689 0.96773028
-1.2367284 -8.1389256 0.30803406 0.96758455
-1.6579394 -8.1342573 0.31062233 0.96731681
-1.7644141 -8.1330862 0.31140006 0.96723634
-1.8714551 -8.1318941 0.31223029 0.96715045
-1.979082 -8.1307125 0.31311432 0.9670589
-2.1962891 -8.1283302 0.31504861 0.96685874
-2.3059082 -8.1271191 0.31610024 0.96675003
-2.6395018 -8.1234179 0.3196016 0.96638805
-2.8662403 -8.1209173 0.32223526 0.96611571
-2.9810545 -8.1196289 0.32364684 0.96597004
-3.0968945 -8.1183596 0.32512152 0.96581763
-3.2138183 -8.1170797 0.32666153 0.96565849
-3.3318846 -8.1157618 0.32826698 0.96549255
-3.451123 -8.1144629 0.32994261 0.96531951
-3.5716112 -8.1131248 0.33168724 0.96513933
-3.8165135 -8.1104097 0.3353923 0.96475691
-4.0671387 -8.1076269 0.3393994 0.96434355
-4.194736 -8.1062307 0.34151962 0.96412474
-4.3239942 -8.104804 0.343721 0.96389765
-4.4549122 -8.1033497 0.34600693 0.96366203
-4.5876269 -8.1018944 0.34837881 0.96341753
-4.9971972 -8.097373 0.35603529 0.96262866
-5.1385837 -8.0969725 0.35882896 0.96234101
-5.2825685 -8.0971584 0.36175117 0.96204031
-5.4289842 -8.097353 0.36477959 0.96172869
-5.5779099 -8.0976171 0.3679193 0.96140563
-5.7294726 -8.0979195 0.37117544 0.9610709
-6.0410056 -8.0986328 0.37804991 0.9603644
-6.3646383 -8.0995312 0.38543776 0.95960557
-1.0749414 -0.93572265 0.053326111 0.99431163
-1.0745312 -0.9118945 0.052733727 0.99437469
-1.0741405 -0.88859373 0.052162893 0.99443543
-1.073789 -0.86580074 0.051612623 0.9944939
-1.0734375 -0.84347653 0.051081885 0.99455035
-1.0727637 -0.80017579 0.050077133 0.99465728
-1.0721289 -0.75853515 0.049142227 0.99475682
-1.071543 -0.71839839 0.048272513 0.99484938
-1.0882128 -0.70992184 0.04861759 0.99481267
-1.1186817 -0.70994139 0.049576644 0.99471056
-1.1504004 -0.70993161 0.050582159 0.99460351
-1.217832 -0.70992184 0.052746505 0.99437338
-1.2538086 -0.70993161 0.053912885 0.99424917
-1.3307323 -0.70991212 0.056435585 0.99398094
-1.3719531 -0.70993161 0.057801664 0.99383575
-1.4607617 -0.70992184 0.060772132 0.99352002
-1.5087206 -0.70992184 0.062390439 0.99334794
-1.5592577 -0.70992184 0.064107209 0.99316561
-1.6126952 -0.70994139 0.06593208 0.99297172
-1.7385254 -0.68832028 0.06996502 0.9925434
-1.7433202 0.66503906 0.064640157 0.99255991
-1.7427539 0.71549803 0.065265581 0.99248821
-1.5592577 0.70997071 0.059354551 0.99316621
-1.5087011 0.70997071 0.057764661 0.9933486
-1.4607714 0.70998043 0.056266442 0.9935205
-1.4152637 0.70997071 0.054852791 0.9936828
-1.2537891 0.70996094 0.049915925 0.99424976
-1.1834179 0.70997071 0.04780937 0.9944917
-1.1186817 0.70997071 0.045900915 0.99471104
-1.0882226 0.70996094 0.04501335 0.99481302
-1.069082 0.7167871 0.044591367 0.9948616
-1.0693359 0.73663086 0.044984818 0.99481636
-1.0701855 0.79831052 0.046254311 0.99467051
-1.0705175 0.81966794 0.046708677 0.99461818
-1.0714843 0.88643551 0.048176002 0.99444962
-1.0718261 0.90965819 0.048701897 0.99438918
-8.581562 8.0586424 0.40782568 0.95397568
-8.1488962 8.0471487 0.39675346 0.95519698
-7.9412398 8.0416889 0.39153159 0.95577329
-7.7390037 8.0364256 0.386509 0.95632797
-7.5418844 8.0312986 0.3816748 0.95686227
-6.4540915 8.0044041 0.35621056 0.95968145
-6.2883301 8.0025778 0.35258582 0.96008354
-6.1258788 8.0007811 0.34908652 0.96047169
-5.8103614 7.9972849 0.34245408 0.96120799
-5.6569824 7.9955859 0.33931038 0.96155721
-5.5064063 7.9939256 0.33627638 0.96189421
-5.2130466 7.9906836 0.33052406 0.96253377
-4.6545701 7.9845214 0.32017723 0.96368498
-4.5202341 7.983037 0.31781441 0.96394813
-4.3879199 7.9815817 0.31553724 0.96420175
-4.2574024 7.9801464 0.31333876 0.96444654
-4.1287012 7.9787207 0.31122091 0.96468252
-4.0016894 7.9773045 0.30918083 0.96491009
-3.7525291 7.9745507 0.30532181 0.96534038
-3.6302049 7.9732127 0.30349883 0.96554363
-3.3898535 7.9705367 0.30005988 0.96592748
-3.2716601 7.9692383 0.29843849 0.96610826
-3.1547363 7.9679394 0.29688215 0.96628207
-3.0389843 7.9666696 0.29538932 0.96644878
-2.6983886 7.9629102 0.29126891 0.96690893
-2.5869141 7.9616699 0.29001173 0.96704942
-2.3667188 7.9592481 0.28766471 0.96731156
-2.1499121 7.9568458 0.28553498 0.96754968
-2.0426855 7.9556637 0.2845484 0.96765989
-1.8303417 7.9533105 0.28272963 0.96786332
-1.6205566 7.9510055 0.28111008 0.96804434
-1.5165234 7.9498534 0.28037405 0.96812677
-1.4130273 7.9487109 0.27968451 0.96820378
-1.3100097 7.9475684 0.27904266 0.96827555
-1.2074609 7.9464355 0.2784484 0.96834207
-1.1053418 7.9453125 0.27790046 0.9684034
-0.80112302 7.9419336 0.27653 0.96855682
-0.2993457 7.9363961 0.27513602 0.96871269
-0.19948241 7.9353027 0.27499014 0.96872908
0.099658199 7.9319921 0.274811 0.96874923
0.19934569 7.9308786 0.27483687 0.96874624
0.29906249 7.9297848 0.27490655 0.96873832
0.69894528 7.9253707 0.27562523 0.96865803
0.79929686 7.9242578 0.27591446 0.96862572
1.0007617 7.9220409 0.2766259 0.96854615
1.1018945 7.920918 0.2770468 0.96849889
1.3052051 7.9186621 0.27802849 0.96838909
1.4074414 7.9175391 0.27858818 0.96832651
1.6132324 7.9152637 0.27984732 0.96818572
1.7168456 7.9141111 0.28054702 0.96810746
1.9257519 7.9118161 0.28209189 0.96793455
2.0310645 7.9106541 0.28293893 0.96783996
2.1370604 7.9094725 0.28383461 0.96773982
2.2437694 7.9082909 0.28478217 0.9676339
2.3511913 7.9071093 0.28578064 0.9675222
2.4593554 7.9058981 0.2868315 0.96740484
2.5683496 7.9046969 0.28793678 0.96728134
2.7890038 7.9022655 0.29030976 0.96701616
2.9007225 7.9010253 0.29158041 0.96687418
3.0134375 7.8997946 0.29290915 0.96672577
3.1272168 7.8985348 0.29429641 0.96657085
3.2420995 7.8972654 0.2957437 0.96640921
3.4753613 7.8946776 0.29882485 0.96606535
3.5938475 7.8933592 0.3004595 0.96588278
3.7136619 7.8920407 0.30216306 0.96569282
4.0817184 7.8879786 0.30768242 0.96507716
4.2074509 7.8865914 0.30966574 0.96485603
4.463994 7.8837595 0.31386214 0.96438843
4.5949316 7.8823142 0.31607848 0.96414149
4.8625488 7.8793554 0.32076019 0.96362013
4.9993749 7.8778319 0.32323113 0.96334517
5.1383691 7.8762984 0.32579109 0.9630602
5.2795801 7.8747363 0.32844549 0.96276498
5.4231639 7.8731637 0.33119613 0.96245909
5.5691795 7.8715429 0.33404562 0.96214229
5.7177634 7.8699121 0.33699819 0.96181399
6.0230565 7.8665233 0.34322968 0.96112198
6.1800294 7.8647947 0.34651381 0.9607572
6.5032711 7.8612204 0.35344785 0.95998794
6.6707907 7.8604684 0.357155 0.95957685
7.0190525 7.8614745 0.36510453 0.95869607
4.1496482 4.3091111 0.20724678 0.97634077
4.2637596 4.3176756 0.21022017 0.97600555
7.9643064 7.864912 0.3877677 0.95618916
8.1679592 7.8657713 0.39284018 0.95562899
8.377099 7.8666892 0.39811149 0.95504707
1.3086035 0.95078123 0.056035955 0.9935469
1.3079296 0.90094727 0.055019569 0.99366355
1.3075976 0.87669921 0.054538459 0.99371886
1.3072851 0.85287106 0.054073982 0.99377215
1.3067089 0.80641598 0.053194769 0.99387312
1.3064258 0.78375977 0.052777976 0.99392092
1.3059082 0.73946285 0.051989362 0.99401146
1.3056445 0.7178027 0.051616132 0.99405438
1.3307421 0.70997071 0.052251853 0.99398142
1.3719823 0.70997071 0.053516194 0.99383616
1.460791 0.70998043 0.056266669 0.99352044
1.6127245 0.70997071 0.061044082 0.99297225
1.7293261 0.70997071 0.064761691 0.99254584
1.8611425 0.70998043 0.069007568 0.99205905
1.9550781 0.71779293 0.072150037 0.99169892
1.9553417 0.69013673 0.071834601 0.9917351
1.9556152 0.66272461 0.071532823 0.99176967
1.9556249 -0.66266602 0.071533084 0.99176973
1.9553417 -0.69009763 0.07183475 0.99173516
1.8611425 -0.70993161 0.069007106 0.99205911
1.7293164 -0.70992184 0.064761393 0.99254596
1.6693066 -0.70993161 0.062842943 0.99276596
1.5592871 -0.70994139 0.059354629 0.99316615
1.5087304 -0.70993161 0.057764854 0.99334854
1.3719823 -0.70993161 0.053516272 0.99383628
1.3307519 -0.70992184 0.052251853 0.99398148
1.3056641 -0.71775389 0.051616132 0.99405438
1.3064258 -0.7837109 0.052777901 0.99392104
1.3076074 -0.87665039 0.054538269 0.99371892
1.3079296 -0.9008984 0.055019643 0.99366367
1.3082714 -0.92557615 0.055518761 0.99360633
1.3086035 -0.95072263 0.056036033 0.99354702
10.311006 -8.3139257 0.45886353 0.94836766
10.046357 -8.3110151 0.45169792 0.94915301
9.789834 -8.3081732 0.44482183 0.94990724
9.3472557 -8.5591402 0.43907166 0.95053869
6.1317477 -8.2203217 0.35528174 0.95978498
5.6587987 -8.2151175 0.34558639 0.96086067
5.5067673 -8.213418 0.34257591 0.96119481
5.3573046 -8.2117872 0.33967391 0.96151727
4.9234862 -8.2070017 0.33155876 0.96241915
4.6453614 -8.2039156 0.32661337 0.96296918
4.3752441 -8.2009277 0.32201454 0.96348101
4.1124511 -8.1980171 0.3177394 0.96395683
3.9836035 -8.1966009 0.31572035 0.9641819
3.8563769 -8.1951952 0.31377417 0.96439862
3.6064844 -8.1924314 0.31009948 0.96480817
3.4836912 -8.1910839 0.3083657 0.96500129
3.3622167 -8.1897268 0.30670181 0.96518707
3.2420311 -8.1884079 0.3051011 0.96536541
3.0053222 -8.185791 0.30209419 0.96570092
2.7730761 -8.1832323 0.29933143 0.96600908
2.6584961 -8.181963 0.2980397 0.96615332
2.4322166 -8.1794624 0.29562849 0.9664225
2.2093847 -8.177002 0.29343918 0.966667
2.0992088 -8.1757812 0.29242614 0.96678013
1.8809668 -8.1733789 0.2905567 0.96698892
1.4521289 -8.168623 0.28742713 0.96733862
1.3462793 -8.1674604 0.28676894 0.96741223
1.1359081 -8.1651363 0.28559372 0.96754354
1.0313574 -8.1639938 0.2850782 0.96760118
0.92713863 -8.1628418 0.2846086 0.96765369
0.82330078 -8.1616793 0.28418502 0.96770102
0.71969724 -8.1605463 0.28380874 0.96774316
0.61637694 -8.1593943 0.28347701 0.96778029
0.51327145 -8.1582422 0.28319085 0.9678123
0.20499022 -8.1548433 0.28260276 0.96787798
-9.7656248e-06 -8.1525879 0.28243506 0.9678967
-0.20491211 -8.1503029 0.28244644 0.96789557
-0.40993163 -8.1480465 0.28263533 0.96787435
-0.51256835 -8.1469135 0.28279716 0.96785629
-0.61538082 -8.1457815 0.28300378 0.96783316
-0.82148433 -8.1435061 0.283553 0.96777177
-0.92483395 -8.1423731 0.28389457 0.96773344
-1.0284668 -8.1412306 0.28428254 0.96769005
-1.5519238 -8.1354294 0.28692338 0.96739501
-1.6579199 -8.1342573 0.2875936 0.96732002
-1.7644141 -8.1330862 0.28831297 0.96723956
-1.8714551 -8.1318941 0.28908333 0.96715367
-1.979082 -8.1307125 0.28990194 0.96706218
-2.0873535 -8.1295214 0.2907711 0.96696496
-2.3058887 -8.1271095 0.29266533 0.96675336
-3.0968945 -8.1183596 0.30101815 0.96582097
-3.2138183 -8.1170797 0.30244377 0.96566182
-3.4511034 -8.1144629 0.30548155 0.96532291
-3.5716112 -8.1131248 0.30709693 0.96514279
-4.0671387 -8.1076365 0.31423745 0.964347
-4.194736 -8.1062307 0.31620026 0.96412826
-4.4549122 -8.1033497 0.32035574 0.9636656
-4.7221775 -8.1004 0.32482979 0.96316767
-5.1378222 -8.0958204 0.33218116 0.96235001
-5.4258299 -8.0926266 0.33753952 0.96175432
-5.8761034 -8.0876465 0.34632865 0.96077818
-6.1898336 -8.0841894 0.35273224 0.96006769
-1.0718359 -0.90960938 0.048701935 0.9943893
-1.0711523 -0.86368161 0.047669027 0.99450791
-1.070498 -0.81962889 0.046708908 0.99461836
-1.0701758 -0.79828125 0.046254158 0.99467057
-1.0696191 -0.75676757 0.0453928 0.99476951
-1.0882128 -0.70992184 0.045013387 0.99481314
-1.1186817 -0.70994139 0.045901183 0.9947111
-1.1504004 -0.70993161 0.046832006 0.99460405
-1.1834081 -0.70992184 0.047809485 0.99449188
-1.217832 -0.70992184 0.048836213 0.99437392
-1.2538086 -0.70993161 0.049916077 0.99424976
-1.2913574 -0.70993161 0.051053159 0.99411929
-1.5087206 -0.70992184 0.057765044 0.9933486
-1.6692969 -0.70994139 0.062843055 0.99276596
-1.7427539 -0.71544921 0.065265693 0.99248827
-1.74333 -0.66500974 0.064640194 0.99255991
-1.7475878 0.69195312 0.059902497 0.99250603
-1.6692871 0.70997071 0.057811812 0.99276662
-1.6126952 0.70998043 0.056157112 0.99297297
-1.5087011 0.70997071 0.053140335 0.99334919
-1.4607714 0.70997071 0.051762197 0.99352109
-1.4152637 0.70997071 0.050461311 0.9936834
-1.3719629 0.70997071 0.049231872 0.99383682
-1.3307031 0.70997071 0.048068505 0.99398208
-1.2913867 0.70997071 0.046966016 0.99411964
-1.217832 0.70998043 0.044926412 0.99437433
-1.0882226 0.70996094 0.041409604 0.9948135
-1.0666406 0.71515626 0.040927503 0.99487376
-1.0676563 0.79641598 0.042450063 0.99468356
-1.0679199 0.81771481 0.042866323 0.99463159
-1.0682031 0.83943355 0.04329792 0.99457771
-1.0691503 0.90739256 0.044690933 0.99440366
-8.7842579 8.0436621 0.37958947 0.9534514
-8.5594826 8.0379391 0.37421241 0.95409542
-8.3410158 8.032383 0.36904448 0.95471472
-7.9216404 8.0218353 0.35929832 0.95588398
-7.7216601 8.0184174 0.35476896 0.95642757
-7.5277538 8.0162697 0.3504625 0.95694518
-7.3384566 8.0141792 0.34631163 0.95744413
-6.7962399 8.008193 0.33473808 0.95883656
-6.4540915 8.0044041 0.32769415 0.95968509
-6.2883301 8.0025778 0.32435995 0.96008712
-6.1258788 8.0007811 0.32114035 0.96047527
-5.9666114 7.9990039 0.31803483 0.96084988
-5.6569824 7.9955859 0.31214705 0.96156067
-5.5063868 7.9939356 0.30935469 0.96189767
-5.3584275 7.9923143 0.30666283 0.96222305
-5.2130466 7.9906836 0.30406326 0.96253717
-5.0700488 7.989121 0.30155393 0.96284038
-4.6545506 7.9845214 0.29454535 0.96368831
-4.3879004 7.9815817 0.29027587 0.96420503
-3.6302147 7.9732127 0.27920097 0.96554673
-3.5093651 7.9718652 0.27758941 0.96574235
-3.3898633 7.9705467 0.27603865 0.96593046
-3.2716699 7.9692478 0.27454728 0.9661113
-2.9243846 7.9654098 0.27042189 0.9666118
-2.8108788 7.96416 0.26915902 0.96676511
-2.6983984 7.9629197 0.26795065 0.96691191
-2.25791 7.9580469 0.26363021 0.96743655
-2.0426757 7.9556737 0.26176703 0.96766281
-1.8303417 7.9533105 0.26009476 0.96786624
-1.6205566 7.9510055 0.25860488 0.96804726
-1.5165234 7.9498534 0.25792769 0.96812963
-1.3100097 7.9475684 0.25670385 0.96827841
-1.2074609 7.9464355 0.25615722 0.96834493
-1.1053418 7.9453025 0.25565314 0.96840626
-0.80112302 7.9419336 0.25439253 0.96855968
-0.3993164 7.9375 0.2532852 0.96869421
-0.2993457 7.9363961 0.25311005 0.96871555
-0.099726558 7.9341893 0.25288016 0.9687435
0.29906249 7.9297848 0.25289991 0.96874118
0.39885741 7.9286814 0.25300378 0.96872842
0.49874023 7.9275875 0.25314873 0.96871078
0.59875 7.9264841 0.25333381 0.96868831
0.69894528 7.9253707 0.25355926 0.96866089
0.79929686 7.9242578 0.25382531 0.96862859
0.89989257 7.9231443 0.254132 0.96859127
1.101914 7.920918 0.25486785 0.96850169
1.5101074 7.9164062 0.2568424 0.9682616
1.7168456 7.9141111 0.25808784 0.96811032
1.9257519 7.9118161 0.25950912 0.96793747
2.0310645 7.9106541 0.2602874 0.96784288
2.3511815 7.9071188 0.26290146 0.96752512
2.4593651 7.9059176 0.26386917 0.9674077
2.6782422 7.9034958 0.26595116 0.96715474
2.9007127 7.9010348 0.26823813 0.96687716
3.0134277 7.8997946 0.26945907 0.96672881
3.127207 7.8985348 0.27073538 0.96657389
3.2420897 7.8972754 0.27206695 0.96641225
3.3580956 7.8959861 0.27345428 0.96624386
3.5938377 7.8933787 0.27640724 0.96588582
3.9575391 7.8893652 0.2812925 0.96529335
4.2074704 7.8865914 0.28487539 0.96485919
4.3348632 7.8851852 0.28676963 0.96462971
4.463994 7.8837595 0.28873605 0.96439165
4.5949316 7.8823142 0.29077369 0.96414477
4.8625488 7.8793554 0.29508087 0.9636234
5.1383691 7.8762984 0.29970986 0.96306354
5.7177634 7.8699121 0.31001997 0.96181744
6.0230565 7.8665328 0.31575233 0.96112543
6.8400097 7.8575096 0.33200666 0.95916563
4.0923243 4.469131 0.19312201 0.97604048
4.0761328 4.3406248 0.1897676 0.97645164
4.2629099 4.3168259 0.19335158 0.97601241
7.9448338 7.8456931 0.35585266 0.95629781
8.1477242 7.8462987 0.36049613 0.95574039
1.3055469 0.94852537 0.051428564 0.99356258
1.3052148 0.9234668 0.050955083 0.99362171
1.3049023 0.89886719 0.050498046 0.99367875
1.3046191 0.87469727 0.050057143 0.9937337
1.3043457 0.85093749 0.049632337 0.99378675
1.3040429 0.82759762 0.04922222 0.99383795
1.3037988 0.80461913 0.048826523 0.99388731
1.3035351 0.78201169 0.048445359 0.99393493
1.3033007 0.75976562 0.048077431 0.99398077
1.3030468 0.73785156 0.047722928 0.99402505
1.3028222 0.71624023 0.04738117 0.99406773
1.3307421 0.70997071 0.048068732 0.99398196
1.3719823 0.70997071 0.049232062 0.99383676
1.5592871 0.70996094 0.05460266 0.99316674
1.6127441 0.70998043 0.056157071 0.99297279
1.960039 0.71962887 0.066543005 0.99167871
1.9603027 0.69189453 0.066251412 0.99171501
1.9603125 -0.69184572 0.066251449 0.99171501
1.960039 -0.71958005 0.066542968 0.99167877
1.8611425 -0.70993161 0.063482814 0.99205983
1.7293164 -0.70992184 0.059576757 0.99254668
1.6127245 -0.70993161 0.056157302 0.99297297
1.5592871 -0.70994139 0.054602966 0.9931668
1.5087304 -0.70993161 0.053140219 0.99334919
1.3035156 -0.78197265 0.048445396 0.99393505
1.303789 -0.80458003 0.048826523 0.99388742
1.3040723 -0.8275488 0.04922222 0.99383795
1.3049121 -0.89881831 0.050498161 0.99367881
1.3055176 -0.94847655 0.051428679 0.99356276
10.302647 -8.3071966 0.42178747 0.94841301
10.033115 -8.3000584 0.41498962 0.94922286
9.7721386 -8.2931833 0.40847319 0.94999987
9.519228 -8.2865524 0.4022232 0.95074582
9.2739553 -8.2801857 0.39622512 0.95146215
8.9710255 -8.4243164 0.3922064 0.95194238
6.6327243 -8.2258787 0.33676636 0.95859289
6.2954197 -8.2221479 0.33003142 0.95940405
5.8135448 -8.2168264 0.32078812 0.96051824
5.6588182 -8.2151175 0.31791946 0.96086419
5.5067673 -8.213418 0.3151519 0.96119827
4.9234862 -8.2070017 0.30501488 0.96242255
4.7833886 -8.2054491 0.30270025 0.96270245
4.1124511 -8.1980171 0.29230255 0.96396011
3.9836035 -8.1966114 0.29044449 0.96418512
3.8563769 -8.1951952 0.28865507 0.96440184
3.7307031 -8.193799 0.28693184 0.96461058
3.4836912 -8.1910839 0.28368026 0.96500444
3.3622167 -8.1897364 0.2821469 0.96519017
3.2420213 -8.1883984 0.28067535 0.96536863
3.123086 -8.1870899 0.27926368 0.96553981
3.0053222 -8.1857815 0.27790901 0.96570408
2.8886621 -8.1844921 0.27661109 0.9658615
2.7730565 -8.1832228 0.27536848 0.96601224
2.5448925 -8.1807032 0.2730439 0.96629411
2.2094042 -8.1769924 0.26994812 0.96667004
1.9897168 -8.1745701 0.26813179 0.96689051
1.4521191 -8.168623 0.26441717 0.9673416
1.3462695 -8.1674604 0.26381049 0.96741521
1.2408692 -8.1662989 0.26324815 0.96748346
1.1359081 -8.1651363 0.26272956 0.96754646
1.0313574 -8.1639748 0.26225638 0.96760422
0.823291 -8.1616793 0.2614347 0.967704
0.51327145 -8.1582518 0.26051909 0.96781516
0.30762693 -8.1559763 0.26011711 0.96786404
0.20499022 -8.1548529 0.25997809 0.96788085
-9.7656248e-06 -8.1525879 0.25982568 0.96789962
-0.10243164 -8.1514549 0.25980881 0.96790153
-0.20491211 -8.1503124 0.25983435 0.96789843
-0.30737305 -8.1491795 0.25990066 0.96789038
-0.40993163 -8.1480465 0.26000831 0.96787727
-0.51256835 -8.1469135 0.26015678 0.96785921
-0.61536133 -8.145771 0.26034689 0.96783608
-1.1324316 -8.1400681 0.26192451 0.96764445
-1.2367188 -8.138916 0.26236662 0.96759075
-1.3413965 -8.1377535 0.26285177 0.96753174
-1.5519433 -8.1354294 0.26395285 0.96739793
-1.8714551 -8.1319036 0.26594001 0.96715659
-1.9790918 -8.130703 0.26669297 0.96706516
-2.0873632 -8.1295118 0.2674925 0.966968
-2.1962793 -8.1283102 0.26834044 0.96686506
-2.7524023 -8.1221676 0.27331328 0.96626145
-3.2138281 -8.1170702 0.2782293 0.96566498
-3.3318748 -8.1157522 0.27959999 0.9654991
-3.6933887 -8.1117678 0.28405982 0.96495849
-3.8165135 -8.1104097 0.28566885 0.96476352
-4.0671387 -8.1076365 0.28908011 0.96435022
-4.8586817 -8.098896 0.3009986 0.96290815
-5.2806735 -8.0942383 0.3080081 0.96206087
-5.5733495 -8.0909958 0.31311622 0.96144384
-6.0315137 -8.085947 0.32149526 0.96043277
-6.5156345 -8.0805759 0.33081809 0.95930904
-6.8545799 -8.0768452 0.33761337 0.95849091
-7.5772557 -8.0688477 0.35276717 0.95666867
-7.7683105 -8.0667477 0.35691482 0.9561705
-1.0694824 -0.93099606 0.045190621 0.99434143
-1.0691503 -0.90733397 0.044691045 0.99440384
-1.0688281 -0.8841992 0.044209555 0.99446392
-1.0679394 -0.81767577 0.042866517 0.99463165
-1.0676563 -0.79637694 0.042450216 0.99468368
-1.0673828 -0.77548826 0.042048566 0.99473381
-1.0671191 -0.755 0.041661225 0.99478221
-1.066875 -0.73488277 0.041287918 0.99482888
-1.1186817 -0.70994139 0.042226486 0.99471158
-1.1504004 -0.70993161 0.043083001 0.99460459
-1.2538086 -0.70993161 0.045920104 0.9942503
-1.5592577 -0.70992184 0.05460304 0.99316692
-1.6126952 -0.70994139 0.056157224 0.99297303
-1.6692773 -0.70994139 0.057812002 0.99276668
-1.7518847 0.71925777 0.055104215 0.9924503
-1.6126952 0.70998043 0.051270865 0.99297357
-1.5086817 0.70997071 0.048516538 0.99334985
-1.4152637 0.70997071 0.0460709 0.99368393
-1.2913867 0.70997071 0.042879563 0.99412012
-1.2537891 0.70996094 0.041924514 0.99425077
-1.217832 0.70998043 0.041017417 0.99437481
-1.1186817 0.70997071 0.038552359 0.994712
-1.0882226 0.70996094 0.037806775 0.99481398
-1.064414 0.73323238 0.037608605 0.9948411
-1.0646288 0.75329101 0.03794815 0.99479467
-1.0649023 0.77372068 0.038299978 0.99474639
-1.0651171 0.79453123 0.038665045 0.99469662
-1.0653808 0.81576169 0.039043196 0.99464482
-1.0656543 0.83740234 0.039435197 0.99459118
-1.0659277 0.85949218 0.039841726 0.99453557
-8.5484276 8.0275488 0.34121245 0.95415711
-8.1242867 8.022871 0.33222732 0.95533681
-7.5277538 8.0162592 0.3199687 0.95694876
-7.153584 8.0121288 0.31252685 0.95792866
-6.4540915 8.0044041 0.29918265 0.95968843
-6.2883301 8.0025682 0.2961373 0.96009046
-6.1258788 8.0007906 0.29319793 0.96047848
-5.9666014 7.9990234 0.29036385 0.9608531
-5.8103614 7.9972849 0.2876277 0.96121472
-5.6569824 7.9955859 0.28498718 0.96156389
-5.3584375 7.9923143 0.27997902 0.96222615
-5.2130079 7.9907031 0.27760771 0.96254033
-5.0700488 7.989121 0.27531585 0.96284348
-4.9293652 7.9875584 0.27310616 0.9631362
-4.5202341 7.9830465 0.26693374 0.96395433
-4.3879004 7.9815817 0.26501906 0.96420801
-4.2573924 7.9801364 0.26317352 0.96445274
-4.1287107 7.9787107 0.26139578 0.96468866
-3.6302147 7.9732127 0.25490883 0.96554959
-2.9243846 7.9654098 0.24689361 0.9666146
-2.8108788 7.96416 0.24574035 0.96676785
-2.4763575 7.9604588 0.24257149 0.96718925
-2.366709 7.9592481 0.24160995 0.96731728
-1.8303223 7.95332 0.2374649 0.96786886
-1.7251464 7.9521484 0.23676459 0.96796215
-1.3100097 7.9475684 0.23436897 0.96828109
-1.2074609 7.9464355 0.23386894 0.96834755
-0.90221679 7.943037 0.23260352 0.96851629
-0.80112302 7.9419236 0.23225792 0.96856236
-0.59979492 7.9397068 0.23167808 0.96863949
-0.49946287 7.9385934 0.23144446 0.96867067
-0.39933592 7.93749 0.23124778 0.96869683
-0.19950195 7.9352732 0.23096366 0.96873462
-2.9296874e-05 7.9330759 0.23082794 0.96875286
0.099658199 7.9319625 0.23081321 0.96875477
0.19934569 7.9308691 0.23083679 0.96875173
0.29906249 7.9297752 0.23089615 0.9687438
0.39885741 7.9286718 0.23099075 0.96873111
0.49874023 7.927568 0.23112319 0.96871346
0.89989257 7.9231348 0.23202018 0.96859396
1.0007617 7.9220214 0.23233756 0.9685517
1.2033985 7.919785 0.23308593 0.96845204
1.6132324 7.9152637 0.23504318 0.96819127
1.8210254 7.9129686 0.23626059 0.96802926
2.0310645 7.9106445 0.23763977 0.96784562
2.1370897 7.9094725 0.23839293 0.96774536
2.4593651 7.9059176 0.24091002 0.96741039
2.5683594 7.904707 0.24183761 0.967287
2.6782422 7.9034958 0.24281181 0.96715748
2.7890038 7.9022851 0.24383163 0.96702176
3.127207 7.8985348 0.24717987 0.96657664
3.2420897 7.8972654 0.24839546 0.96641505
3.7136912 7.8920603 0.25378722 0.96569866
3.8348827 7.8907223 0.25527298 0.96550131
3.9575391 7.8893652 0.25681838 0.96529621
4.0817089 7.8879981 0.2584227 0.96508318
4.2074609 7.8866014 0.26008856 0.96486205
4.3348536 7.8851953 0.2618199 0.96463263
4.4640231 7.883779 0.26361319 0.96439445
4.8625584 7.879375 0.26940802 0.96362633
5.1383591 7.8763084 0.27363312 0.96306658
5.2796192 7.8747559 0.27586174 0.9627713
5.4231639 7.8731737 0.278171 0.96246552
5.5691895 7.8715525 0.28056633 0.96214879
6.3400683 7.8630271 0.293897 0.96038616
6.5033102 7.8612204 0.29686248 0.95999479
6.6698923 7.8593845 0.29993483 0.95958924
6.8400097 7.8575096 0.30311897 0.95916897
7.0137596 7.8555856 0.30642027 0.95873362
4.2615724 4.3154688 0.17647178 0.97602189
7.9444432 7.8452926 0.32487366 0.95630354
8.1444044 7.8430858 0.3289952 0.95576173
8.5601263 7.8384862 0.33772185 0.95461529
8.9987984 7.8336425 0.34715012 0.95337832
9.2275295 7.8311033 0.35214928 0.95272309
1.3024707 0.94628906 0.046843681 0.99357826
1.3019043 0.89678711 0.045998078 0.99369377
1.3013574 0.84900391 0.045211218 0.99380141
1.3011328 0.82572263 0.044838294 0.99385226
1.3008887 0.80281246 0.04447918 0.99390143
1.3006641 0.78028321 0.04413227 0.99394876
1.3002245 0.73624021 0.043475874 0.99403852
1.3307421 0.70997071 0.043886222 0.99398249
1.5087206 0.70996094 0.048516538 0.99334973
1.6693066 0.70997071 0.052781601 0.99276716
1.7293261 0.70997071 0.054393195 0.99254715
1.7931542 0.70997071 0.056115415 0.99231207
1.8611425 0.70998043 0.057959516 0.99206048
1.9648438 -0.66580075 0.060364265 0.99173254
1.9646777 -0.72126949 0.060896605 0.99165988
1.8611425 -0.70993161 0.057959516 0.99206054
1.7931347 -0.70993161 0.056115303 0.99231219
1.6693066 -0.70993161 0.052781675 0.99276721
1.6127245 -0.70993161 0.051271055 0.99297357
1.5592871 -0.70994139 0.04985176 0.99316734
1.4608105 -0.70992184 0.047258794 0.99352163
1.4152832 -0.70994139 0.046070937 0.99368387
1.3 -0.71464843 0.043164864 0.99408114
1.300205 -0.73618162 0.043475874 0.9940387
1.3004297 -0.75805664 0.043798104 0.99399459
1.3006641 -0.78023434 0.044132307 0.99394888
1.3008887 -0.80278319 0.044479139 0.99390149
1.301123 -0.82568359 0.0448386 0.99385238
1.3016406 -0.87264645 0.045597646 0.99374861
1.3021777 -0.92128903 0.046413422 0.99363708
10.273701 -8.2838764 0.38400581 0.94855833
10.005362 -8.2771187 0.37783384 0.94936383
9.2494631 -8.2583008 0.36079583 0.95159125
8.7850294 -8.2496576 0.35065794 0.95291883
8.3491697 -8.2448244 0.34142637 0.9541297
8.1396389 -8.2425289 0.33706748 0.95470172
7.9353805 -8.240283 0.33287054 0.95525289
7.5415916 -8.235918 0.32493293 0.95629615
7.1659079 -8.2317677 0.31756157 0.95726609
6.9843259 -8.2297754 0.31407356 0.95772541
6.8066697 -8.2278023 0.31071061 0.95816857
6.6327243 -8.2258787 0.30746421 0.95859629
6.4624119 -8.2240038 0.30433494 0.95900893
6.2954588 -8.2221384 0.30131537 0.95940733
5.9711618 -8.218564 0.29558998 0.96016312
5.8135448 -8.2168264 0.2928769 0.96052152
5.6588182 -8.2151175 0.29025733 0.9608674
5.3573241 -8.2117872 0.28529266 0.96152389
5.0657716 -8.2085638 0.28066695 0.96213573
4.7833886 -8.2054396 0.27636206 0.96270555
4.645381 -8.2038965 0.27432182 0.96297562
4.5093455 -8.2024021 0.27235556 0.96323609
4.3752246 -8.2009277 0.27045944 0.96348739
4.242959 -8.1994534 0.26863274 0.96372962
3.9836035 -8.1966009 0.26517388 0.9641881
3.4836817 -8.1910744 0.25899741 0.96500742
3.3622167 -8.1897364 0.25759849 0.96519303
3.2420213 -8.1883984 0.25625458 0.96537149
2.8886621 -8.1844921 0.25254324 0.9658643
2.7730663 -8.1832323 0.25140983 0.96601498
2.5448925 -8.1807032 0.24928749 0.96629691
2.0991991 -8.1757717 0.24560897 0.96678597
1.9897559 -8.1745701 0.24480155 0.9668932
1.8809668 -8.1733694 0.24403892 0.9669947
1.6653808 -8.1709766 0.24264121 0.96718067
1.4521191 -8.168623 0.24141121 0.96734428
1.3462695 -8.1674604 0.2408573 0.9674179
1.2408692 -8.1662989 0.2403437 0.9674862
1.1359277 -8.1651363 0.23987044 0.96754915
0.92717773 -8.1628218 0.23904297 0.96765935
0.823291 -8.1616793 0.23868735 0.96770668
0.20499022 -8.1548529 0.23735839 0.96788353
-0.10243164 -8.1514549 0.2372039 0.96790415
-0.30737305 -8.149189 0.23728774 0.967893
-0.51256835 -8.146924 0.23752166 0.96786183
-0.61536133 -8.145771 0.23769508 0.96783876
-0.82145506 -8.1435061 0.23815559 0.96777737
-0.92484373 -8.1423635 0.23844306 0.96773911
-1.0284863 -8.1412106 0.23876892 0.96769571
-1.2367188 -8.138916 0.23953819 0.96759343
-1.3413965 -8.137763 0.23998107 0.96753442
-1.6579297 -8.1342478 0.24155006 0.96732569
-1.7644238 -8.1330862 0.24215508 0.96724522
-1.8714551 -8.1318941 0.24280159 0.96715939
-2.3059082 -8.127099 0.24580985 0.96675915
-2.6395116 -8.1233978 0.24853362 0.96639723
-2.7524023 -8.1221676 0.24953315 0.96626425
-3.2138085 -8.1170607 0.25402167 0.9656679
-3.4511132 -8.1144533 0.25657439 0.96532893
-3.6933887 -8.1117678 0.25934273 0.96496141
-3.9410839 -8.1090431 0.26234001 0.96456373
-4.0671482 -8.1076269 0.2639282 0.9643532
-4.194746 -8.1062307 0.26557684 0.96413445
-4.3240037 -8.104785 0.26728958 0.96390748
-4.4549317 -8.1033497 0.26906723 0.96367186
-4.5876169 -8.1018744 0.27091065 0.96342754
-4.9971972 -8.0973635 0.27686584 0.96263885
-5.1378317 -8.0958004 0.27899835 0.96235657
-5.280654 -8.0942287 0.28120965 0.96206409
-5.4257908 -8.0926075 0.28349867 0.96176112
-5.7234082 -8.0893459 0.2883313 0.9611218
-6.0315137 -8.085947 0.29352331 0.96043605
-6.6833982 -8.0787401 0.30508131 0.95891052
-7.0293941 -8.0749121 0.31151146 0.95806295
-7.2079883 -8.0729294 0.31490424 0.95761597
-7.3905368 -8.0709076 0.31842369 0.95715261
-7.5772557 -8.0688477 0.32207426 0.95667225
-8.3699217 -8.0601072 0.33810386 0.95456547
-8.5807514 -8.0577536 0.34250069 0.95398819
-1.0667969 -0.92864257 0.041154288 0.99435616
-1.0664843 -0.90506834 0.04070076 0.9944182
-1.0662109 -0.88202149 0.040263519 0.99447793
-1.0659082 -0.85945308 0.039841916 0.99453568
-1.0653808 -0.81572264 0.039042931 0.99464488
-1.0651171 -0.79449219 0.038664781 0.99469668
-1.0648828 -0.77366209 0.038299941 0.99474663
-1.0641894 -0.71348631 0.037281111 0.99488604
-1.0882128 -0.70992184 0.037806891 0.9948141
-1.1186817 -0.70994139 0.038552396 0.99471205
-1.1504004 -0.70993161 0.039334372 0.994605
-1.2538086 -0.70993161 0.041924588 0.99425077
-1.3719531 -0.70993161 0.044948425 0.99383742
-1.4152539 -0.70994139 0.046071012 0.99368399
-1.5592577 -0.70992184 0.04985214 0.99316752
-1.6126952 -0.70994139 0.051271208 0.99297363
-1.7518945 -0.71920896 0.055103913 0.9924503
-1.7521484 -0.69370115 0.054833144 0.99248725
-1.7569336 0.67023438 0.049501877 0.99250388
-1.7567188 0.69556642 0.049738236 0.99246824
-1.7565038 0.72114259 0.049984589 0.99243104
-1.6692871 0.70997071 0.047752533 0.99276781
-1.6126952 0.70998043 0.046385612 0.9929741
-1.5592577 0.70997071 0.045101624 0.99316794
-1.4152637 0.70997071 0.041680869 0.99368441
-1.3719629 0.70997071 0.040665511 0.99383783
-1.2913867 0.70997071 0.038793791 0.9941206
-1.217832 0.70998043 0.037109107 0.99437523
-1.1834179 0.70997071 0.036328886 0.99449313
-1.1503808 0.70997071 0.035586432 0.99460542
-1.0628418 0.81380856 0.03523853 0.99465799
-1.0633203 0.85740232 0.035957716 0.99454927
-8.7692966 8.0299807 0.31300706 0.95353609
-8.5484276 8.0275393 0.3086994 0.95416057
-8.3335056 8.0251656 0.30455732 0.95476162
-7.721621 8.0184174 0.29303971 0.95643455
-7.5277538 8.0162592 0.28947997 0.95695198
-7.3384566 8.0141792 0.28605285 0.95745081
-7.1535935 8.0121288 0.28274825 0.95793182
-6.9729004 8.0101366 0.27956429 0.95839566
-5.9665918 7.9990234 0.26269606 0.96085608
-5.8103514 7.9972949 0.26022065 0.96121764
-5.656992 7.9955955 0.25783285 0.96156669
-5.5063868 7.9939451 0.25552726 0.96190369
-5.3584375 7.9923043 0.25330201 0.96222901
-5.2130079 7.9907031 0.25115439 0.96254313
-4.9293652 7.9875584 0.24708374 0.96313894
-4.7908888 7.9860349 0.24515487 0.9634214
-4.6545606 7.9845409 0.24329376 0.96369398
-4.5202341 7.9830465 0.24149756 0.96395701
-4.3879004 7.9815817 0.2397673 0.96421069
-4.2573924 7.9801364 0.23809783 0.96445543
-4.1287107 7.9787107 0.23648818 0.96469134
-3.7525389 7.9745507 0.23200591 0.96534902
-3.6302538 7.9732032 0.23061943 0.96555215
-3.2716699 7.9692383 0.22677535 0.96611673
-3.1547363 7.9679394 0.22559272 0.96629041
-3.0389941 7.9666696 0.22445755 0.96645713
-2.9244041 7.9653907 0.22336891 0.96661717
-2.5869238 7.9616699 0.2203714 0.96705759
-2.4763575 7.9604492 0.21945861 0.96719176
-2.25791 7.9580369 0.21775794 0.96744174
-1.5165429 7.9498339 0.21304771 0.96813476
-1.4130273 7.9487009 0.2125238 0.96821177
-1.3100293 7.9475489 0.2120378 0.96828353
-1.2074609 7.9464254 0.21158531 0.96834999
-0.90221679 7.943037 0.21043961 0.96851867
-0.59979492 7.9397068 0.20960334 0.96864182
-0.49946287 7.9385934 0.20939186 0.96867299
-0.39933592 7.93749 0.20921394 0.96869922
-0.19950195 7.9352732 0.20895682 0.96873701
-0.099726558 7.9341793 0.20887756 0.96874851
-9.7656248e-06 7.9330859 0.20883308 0.96875519
0.099658199 7.9319725 0.20881981 0.96875709
0.19934569 7.9308691 0.20884025 0.96875405
0.79930663 7.9242578 0.20965926 0.96863353
0.89989257 7.9231348 0.20991257 0.96859634
1.1018945 7.920908 0.21052024 0.96850675
1.3052051 7.9186521 0.2112664 0.96839702
1.4074414 7.9175291 0.21169174 0.96833444
1.5101074 7.9163961 0.21215133 0.96826667
1.6132324 7.9152536 0.21264771 0.96819371
1.7168456 7.9141016 0.21318023 0.96811545
2.1370506 7.9094529 0.21567726 0.96774793
2.2437596 7.9082909 0.21639755 0.96764195
2.3511424 7.9070897 0.21715713 0.96753043
2.5683594 7.9046969 0.2187947 0.96728951
2.6782422 7.9034863 0.2196749 0.96715999
3.0134277 7.899785 0.2225727 0.96673411
3.127207 7.8985252 0.22362702 0.9665792
3.2420702 7.8972459 0.22472678 0.96641767
3.3580956 7.8959665 0.22587326 0.96624923
3.8348632 7.8907027 0.23094992 0.96550399
3.9575391 7.8893552 0.2323471 0.96529883
4.0817089 7.8879881 0.23379943 0.96508586
4.2074609 7.8866014 0.23530762 0.96486473
4.3348727 7.8851953 0.23687111 0.96463525
4.4640136 7.8837695 0.23849441 0.96439719
4.5949512 7.8823142 0.24017958 0.96415037
4.8625584 7.879375 0.2437371 0.96362907
5.2796192 7.8747559 0.24957679 0.9627741
5.5691895 7.8715525 0.25383216 0.96215159
5.7177439 7.8699121 0.25607574 0.96182352
6.1800098 7.8648047 0.26330605 0.96076697
6.3400683 7.8630271 0.26589346 0.96038914
6.5033102 7.8612304 0.2685765 0.95999777
4.1438866 4.3031445 0.15726276 0.9763791
8.9987984 7.8336425 0.31407279 0.95338184
9.7054977 7.82583 0.3282032 0.95133638
1.299414 0.9440918 0.042281114 0.99359369
1.298916 0.89472651 0.04151943 0.99370867
1.2986621 0.8707031 0.041158829 0.99376321
1.2979883 0.80105466 0.040151559 0.99391538
1.2977929 0.77856445 0.039839208 0.99396253
1.2975879 0.75643551 0.039538 0.99400806
1.2972168 0.71315426 0.038967855 0.99409413
1.460791 0.70998043 0.042755544 0.99352205
1.6127441 0.70998043 0.046385497 0.99297392
1.6693066 0.70997071 0.047752455 0.99276769
1.7931542 0.70997071 0.050768431 0.99231267
1.9667187 0.72207028 0.055151138 0.99165183
1.966875 0.66653317 0.054668691 0.99172455
1.9668652 -0.66649413 0.054669037 0.99172467
1.9667969 -0.69413084 0.05490467 0.99168909
1.9666991 -0.72203124 0.055151097 0.99165195
1.8611425 -0.70993161 0.052436903 0.99206114
1.7931347 -0.70993161 0.050768547 0.99231279
1.6127245 -0.70993161 0.046385802 0.9929741
1.5592871 -0.70994139 0.045101777 0.99316788
1.5087304 -0.70993161 0.043893773 0.99335027
1.4608105 -0.70992184 0.042755622 0.99352211
1.4152832 -0.70993161 0.041680947 0.99368441
1.3719823 -0.70993161 0.040665627 0.99383783
1.3307519 -0.70992184 0.039704628 0.99398297
1.2971874 -0.71310544 0.038967781 0.99409437
1.297412 -0.73459959 0.039247818 0.99405193
1.2975781 -0.7563867 0.039538041 0.99400818
1.2977929 -0.77851564 0.039839249 0.99396265
1.2984277 -0.84705079 0.040811043 0.9938159
1.2989258 -0.8946777 0.041519582 0.99370879
1.2994238 -0.9440527 0.042281073 0.99359375
10.523056 -8.2688475 0.35230514 0.9478575
9.7331934 -8.2601166 0.33605385 0.95020199
9.4857321 -8.2573919 0.33106482 0.95092255
9.2454977 -8.254756 0.32627609 0.9516151
9.0120411 -8.2521677 0.32167265 0.95228136
8.7850685 -8.2496681 0.31724691 0.95292222
8.564209 -8.2472067 0.31298858 0.95353913
8.3491697 -8.2448244 0.30889168 0.95413309
8.1396389 -8.2425289 0.30494979 0.95470512
6.9843454 -8.2297659 0.28414819 0.95772856
6.4623923 -8.2239943 0.27533624 0.95901209
6.2954588 -8.2221384 0.27260521 0.95941043
6.1317477 -8.2203217 0.26996779 0.959795
5.6588182 -8.2151175 0.26260093 0.96087039
5.0657716 -8.2085543 0.25392464 0.96213859
4.645381 -8.2038965 0.24818413 0.96297842
4.5093455 -8.2024021 0.24640457 0.96323889
4.3752246 -8.2009182 0.24468803 0.96349013
4.2429786 -8.1994629 0.24303596 0.9637323
4.1124511 -8.1980171 0.24144141 0.96396583
3.8563964 -8.1951857 0.23842773 0.9644075
3.3622167 -8.1897364 0.23305373 0.96519566
3.2420213 -8.1884174 0.23183799 0.96537399
2.6584668 -8.1819725 0.22647239 0.96616173
2.4322069 -8.1794624 0.22463912 0.9664309
2.0991991 -8.1757908 0.22220688 0.96678841
1.8809668 -8.1733789 0.22078529 0.96699715
1.7728612 -8.1721773 0.22013344 0.96709293
1.6653808 -8.1709957 0.21952079 0.96718305
1.5584863 -8.1698046 0.21894614 0.96726763
1.4520996 -8.168642 0.2184082 0.96734673
1.2408496 -8.1663084 0.2174433 0.96748865
1.1359081 -8.1651459 0.217015 0.96755159
0.71967775 -8.1605463 0.2156578 0.9677512
0.4103418 -8.1571388 0.2150061 0.96784711
0.10246094 -8.1537209 0.21466155 0.96789783
-0.82147461 -8.1435156 0.21546364 0.96777976
-1.1324316 -8.1400776 0.21634826 0.96764958
-1.2367188 -8.1389256 0.21671332 0.96759582
-1.5519629 -8.1354494 0.21802528 0.96740299
-1.8714746 -8.1319141 0.2196659 0.96716177
-1.9790918 -8.1307125 0.22028777 0.96707034
-2.3059082 -8.1271095 0.22238845 0.96676159
-2.6395116 -8.1234083 0.22485076 0.96639973
-2.7524219 -8.1221771 0.22575691 0.96626669
-2.9810643 -8.1196585 0.22769699 0.96598172
-3.0969043 -8.1183596 0.22873443 0.96582943
-3.4511132 -8.1144629 0.23212737 0.96533155
-3.6933887 -8.1117678 0.23463188 0.96496403
-3.8165331 -8.1104002 0.23596099 0.96476912
-4.194746 -8.1062307 0.24027206 0.9641372
-4.4549317 -8.1033497 0.2434288 0.9636746
-4.5876169 -8.1018744 0.24509856 0.96343029
-4.7221875 -8.1003904 0.24682845 0.96317679
-5.1378317 -8.0958004 0.25241461 0.96235943
-5.5733299 -8.0909958 0.2586334 0.96144998
-6.0315137 -8.0859375 0.26555419 0.96043903
-6.515615 -8.0805759 0.27325514 0.95931548
-6.6834083 -8.0787401 0.27601227 0.95891362
-7.0294042 -8.0749121 0.28182724 0.95806611
-7.2079883 -8.0729389 0.28489822 0.95761913
-7.5772557 -8.0688572 0.29138473 0.95667547
-7.7683105 -8.0667477 0.29481223 0.95617741
-8.1644039 -8.0623732 0.30205595 0.95512497
-8.3699217 -8.0601072 0.30588722 0.95456886
-1.0643847 -0.95033199 0.037563056 0.99430668
-1.0641016 -0.92630857 0.037139624 0.99437076
-1.0635742 -0.87985349 0.036337432 0.99449193
-1.0633203 -0.857373 0.035957795 0.99454933
-1.0630761 -0.83534175 0.035591736 0.99460471
-1.0628515 -0.81376952 0.035238493 0.99465805
-1.062373 -0.77185547 0.034569435 0.99475932
-1.0619824 -0.73151368 0.033946991 0.99485332
-1.1186817 -0.70994139 0.034878921 0.99471241
-1.217832 -0.70992184 0.037109297 0.99437535
-1.2538086 -0.70993161 0.037929915 0.99425119
-1.2913574 -0.70993161 0.038793944 0.99412078
-1.5087206 -0.70992184 0.043893736 0.99335027
-1.6126952 -0.70994139 0.046385955 0.99297416
-1.7616992 0.64681637 0.044201203 0.99251926
-1.7611231 0.72303706 0.044838943 0.99241173
-1.5592577 0.70997071 0.040352326 0.99316841
-1.217832 0.70997071 0.033201482 0.99437565
-1.1834179 0.70997071 0.032503281 0.99449348
-1.0882226 0.70996094 0.030602492 0.99481469
-1.0593652 0.71028316 0.030039977 0.99490982
-1.0595214 0.729873 0.030302428 0.99486548
-1.0601074 0.79079098 0.031149443 0.99472225
-1.0612011 0.90062499 0.032781638 0.99444652
-1.0616797 0.94796872 0.033522453 0.99432135
-8.7692966 8.0299902 0.2800453 0.95353919
-8.5484276 8.0275488 0.27619264 0.95416367
-8.3335152 8.025176 0.27248544 0.95476466
-8.1242971 8.022871 0.26891968 0.95534319
-7.9204102 8.0206146 0.26548737 0.95590055
-7.721621 8.0184174 0.26218048 0.95643753
-7.5277634 8.0162697 0.25899702 0.95695484
-7.3384471 8.0141897 0.25593078 0.95745373
-7.1535935 8.0121288 0.2529743 0.95793462
-6.9729004 8.0101366 0.25012437 0.95839846
-6.2883396 8.0025778 0.23970565 0.96009612
-6.1258883 8.0007906 0.23732871 0.96048409
-5.656992 7.9955859 0.23068137 0.96156931
-5.5064063 7.993916 0.22861855 0.96190631
-5.2130079 7.9906931 0.22470719 0.96254569
-4.7908888 7.9860153 0.21933845 0.96342397
-4.6545606 7.9845214 0.21767341 0.96369648
-4.3879004 7.9815722 0.21451911 0.96421319
-4.257412 7.9801269 0.21302436 0.96445787
-4.001699 7.9773045 0.21019775 0.96492118
-3.8763475 7.9759178 0.20886077 0.96514028
-3.5093651 7.9718552 0.2051429 0.96575016
-3.3898633 7.9705367 0.20399688 0.96593821
-3.2716699 7.9692383 0.20289534 0.96611899
-2.8108788 7.9641309 0.19891326 0.96677274
-2.5869141 7.9616795 0.19716483 0.96705985
-2.366709 7.9592381 0.19557098 0.96732199
-2.0426953 7.9556441 0.1934513 0.96767026
-1.5165234 7.9498339 0.19061233 0.96813697
-1.2074609 7.9464254 0.18930489 0.96835214
-1.1053418 7.9452829 0.18893249 0.96841353
-1.0036132 7.94416 0.18859024 0.96846968
-0.90221679 7.943037 0.18827888 0.96852082
-0.70033199 7.9408102 0.18774962 0.9686079
-0.3993164 7.93749 0.18718246 0.96870136
-0.19948241 7.9352832 0.1869532 0.96873909
-9.7656248e-06 7.9330859 0.1868425 0.96875733
0.59875 7.926455 0.18721732 0.96869546
