# .PCD v0.7 - Point Cloud Data file format
VERSION 0.7
FIELDS x y z intensity
SIZE 4 4 4 4
TYPE F F F F
COUNT 1 1 1 1
WIDTH 1081
HEIGHT 1
VIEWPOINT 0 0 0 1 0 0 0
POINTS 1081
DATA ascii
4.5770116 -8.0832319 -0.39912406 0.96349233
4.4749122 -8.1398239 -0.39911148 0.96349359
4.3780079 -8.2061424 -0.399636 0.96344668
4.2456446 -8.2046967 -0.39693549 0.96368915
4.1150584 -8.2032518 -0.39433315 0.96392286
3.8588476 -8.2004099 -0.38941044 0.96436507
3.7330663 -8.1990137 -0.38708618 0.96457404
3.3643553 -8.194931 -0.38063282 0.96515429
3.2441015 -8.1936226 -0.37864748 0.96533275
2.5465038 -8.1858978 -0.36835137 0.96625936
2.3218749 -8.1834278 -0.36549881 0.96651626
2.1005273 -8.1809664 -0.36291638 0.96674889
1.8821875 -8.1785641 -0.36059612 0.96695787
1.7739843 -8.1773729 -0.35953337 0.96705371
1.5594531 -8.1750097 -0.35759196 0.96722859
1.4530468 -8.1738186 -0.35671386 0.96730781
1.2416406 -8.1714935 -0.35513762 0.9674499
0.92773438 -8.1680174 -0.35321411 0.96762323
0.7201367 -8.1657228 -0.35222191 0.96771282
0.61676759 -8.1645899 -0.35180938 0.96774983
0.51359373 -8.1634369 -0.35145432 0.9677819
0.30781248 -8.1611624 -0.35091236 0.96783078
0.20511718 -8.1600389 -0.35072598 0.96784765
0.10251953 -8.1588964 -0.35059401 0.96785957
-0.10250977 -8.1566305 -0.35049546 0.96786833
-0.51291013 -8.1521091 -0.35096619 0.96782589
-0.92542964 -8.1475391 -0.3523286 0.9677031
-1.133164 -8.1452637 -0.35334948 0.96761096
-1.2375195 -8.1440821 -0.35394713 0.96755725
-1.5529199 -8.1406155 -0.35608831 0.96736419
-1.7655272 -8.1382513 -0.35781321 0.96720874
-1.8726367 -8.1370802 -0.35876769 0.96712267
-1.9803516 -8.1358881 -0.35978431 0.96703106
-2.0886817 -8.134697 -0.36086303 0.96693379
-2.3073828 -8.1322756 -0.36321375 0.96672201
-2.6411719 -8.1285839 -0.36723724 0.96635967
-2.7541602 -8.1273432 -0.36871597 0.96622652
-3.0988672 -8.1235447 -0.37357908 0.96578866
-3.2158787 -8.1222458 -0.3753491 0.96562946
-3.5738475 -8.1182709 -0.38112521 0.96511006
-3.8189452 -8.1155758 -0.38538322 0.9647271
-4.069746 -8.112812 -0.38998473 0.96431333
-4.3267384 -8.1099806 -0.39495245 0.96386713
-4.6647558 -8.0019922 -0.39797598 0.96359545
-4.9625778 -7.8197556 -0.39793885 0.96359879
-5.1571679 -7.69208 -0.3979145 0.96360111
-5.2532616 -7.6264353 -0.39790252 0.96360224
-5.8117967 -7.2077928 -0.39783272 0.9636085
-5.9907422 -7.0590625 -0.39781028 0.96361053
-6.3371778 -6.7484179 -0.39776695 0.96361434
-6.4213281 -6.668066 -0.39775643 0.9636153
-6.5865135 -6.5042477 -0.39773571 0.96361721
-6.6675973 -6.4208398 -0.39772555 0.96361792
-1.031709 -0.9447363 -0.060108297 0.99441487
-1.0318652 -0.92130858 -0.059436988 0.99447697
-1.032002 -0.89835936 -0.058789328 0.994537
-1.0322266 -0.85394531 -0.057562064 0.99465072
-1.0323535 -0.83241206 -0.056980591 0.9947046
-1.0324512 -0.81130856 -0.056419715 0.99475664
-1.0325683 -0.79059571 -0.055878296 0.99480683
-1.0327734 -0.75036132 -0.054851264 0.99490201
-1.0328614 -0.73077148 -0.054364204 0.9949472
-1.0588964 -0.70994139 -0.054777641 0.99490887
-1.0882226 -0.70993161 -0.055828512 0.99481142
-1.1186719 -0.70993161 -0.056929283 0.99470943
-1.1503808 -0.70994139 -0.058084182 0.99460238
-1.2537891 -0.70993161 -0.061909065 0.99424797
-1.3719531 -0.70995116 -0.066374473 0.99383432
-1.4607519 -0.70994139 -0.069785766 0.99351859
-1.5087011 -0.70995116 -0.07164371 0.99334651
-1.612705 -0.70994139 -0.075710788 0.99297011
-1.6692773 -0.70995116 -0.077941969 0.9927637
-1.7844043 -0.70649415 -0.082462311 0.99234569
-1.7842773 -0.65507811 -0.081669614 0.99241894
-11.073154 -3.5978808 -0.50026512 0.95445484
-11.117333 -3.4583886 -0.50025946 0.95445544
-11.159775 -3.3183789 -0.50025403 0.95445603
-11.200557 -3.177871 -0.50024885 0.95445615
-11.239453 -3.0368555 -0.50024384 0.95445675
-11.311973 -2.7533691 -0.50023454 0.9544577
-11.435683 -2.1814551 -0.50021857 0.95445907
-11.462138 -2.0375879 -0.50021511 0.95445925
-11.486757 -1.8933789 -0.50021195 0.95445955
-11.509589 -1.7488769 -0.50020891 0.95445979
-11.530566 -1.6041015 -0.50020617 0.95446014
-11.567128 -1.3137988 -0.50020134 0.95446056
-11.582676 -1.1683301 -0.50019926 0.95446074
-11.608281 -0.87689453 -0.50019574 0.9544611
-11.637617 -0.29252928 -0.50019151 0.95446134
-11.640361 -0.14626953 -0.50019097 0.9544614
-10.936768 9.7656248e-06 -0.50027823 0.95715225
-10.933301 0.2748535 -0.50027835 0.95715231
-10.928984 0.41221678 -0.50027877 0.95715231
-10.905693 0.82384765 -0.50028121 0.95715225
-10.867031 1.2343066 -0.50028557 0.95715171
-10.850713 1.3707714 -0.50028747 0.95715153
-10.832665 1.5070117 -0.50028956 0.95715141
-10.81292 1.6430371 -0.50029182 0.95715123
-10.791484 1.778789 -0.50029439 0.95715094
-10.627246 2.5867188 -0.50031388 0.95714933
-10.593994 2.7200878 -0.50031793 0.95714897
-10.559082 2.8530176 -0.5003221 0.95714855
-10.522422 2.9855077 -0.50032651 0.95714843
-10.444297 3.2490625 -0.50033593 0.95714754
-10.402793 3.3800879 -0.50034094 0.95714694
-10.35958 3.510576 -0.50034618 0.95714658
-10.314755 3.6405175 -0.50035161 0.95714617
-1.7851367 0.6554004 -0.086987644 0.99241436
-1.7852832 0.70685548 -0.087832183 0.99234092
-1.6126856 0.70995116 -0.080602035 0.99296927
-1.559248 0.70997071 -0.078371197 0.99316323
-1.5087011 0.70997071 -0.076271892 0.99334562
-1.4607714 0.70996094 -0.074294053 0.99351764
-1.2913672 0.70994139 -0.067410164 0.9941166
-1.2537988 0.70996094 -0.065908663 0.9942472
-1.2178222 0.70996094 -0.064482763 0.99437135
-1.1833984 0.70996094 -0.063127019 0.99448937
-1.1503906 0.70996094 -0.061836585 0.99460167
-1.1186719 0.70995116 -0.060607299 0.99470878
-1.0588866 0.70995116 -0.058316421 0.99490821
-1.0321679 0.73029298 -0.057837792 0.99494994
-1.0319629 0.76978517 -0.058891755 0.99485809
-1.0318457 0.7900781 -0.059447248 0.99480975
-1.0317285 0.81076169 -0.060022887 0.99475962
-1.0316113 0.8318457 -0.060619429 0.99470764
-1.0310839 0.92064452 -0.063230552 0.99448037
-1.0309668 0.94407225 -0.06394428 0.99441814
-6.2623239 6.0305958 -0.39768618 0.96578681
-6.1861134 6.1088963 -0.3976922 0.9657864
-5.951787 6.338037 -0.39771122 0.96578467
-5.8717675 6.4124122 -0.39771789 0.96578413
-5.7908301 6.4858103 -0.39772472 0.96578354
-5.6261911 6.6295214 -0.39773884 0.9657824
-5.4580369 6.7690625 -0.39775357 0.96578109
-5.2857909 6.9035645 -0.39772189 0.96578372
-5.110908 7.0345702 -0.39774349 0.96578199
-5.0222459 7.0984278 -0.39775443 0.96578103
-4.9327927 7.1611814 -0.39776549 0.96578008
-4.7515526 7.2832909 -0.39778784 0.96577817
-4.3801074 7.513701 -0.39783376 0.9657743
-4.285459 7.5683594 -0.39784545 0.96577334
-4.1901364 7.6218748 -0.39785725 0.96577227
-3.9975097 7.7251854 -0.39788109 0.96577036
-3.8023436 7.8237009 -0.3979052 0.96576828
-3.7038476 7.8711133 -0.39791739 0.9657672
-3.5050879 7.9621778 -0.39794198 0.96576524
-3.2695312 7.9640036 -0.39379898 0.9661153
-3.0369921 7.9614549 -0.38977313 0.9664557
-2.9224803 7.9601951 -0.3878828 0.96661562
-2.6966112 7.9576855 -0.3843362 0.96691585
-2.5852246 7.9564743 -0.38267681 0.96705616
-2.3651659 7.9540234 -0.37958139 0.96731836
-2.2564161 7.9528317 -0.37814155 0.96744031
-2.0413475 7.950449 -0.37546915 0.96766663
-1.8291113 7.9481053 -0.37306952 0.96786994
-1.7240039 7.9469528 -0.37196845 0.96796316
-1.6194628 7.9457908 -0.37093222 0.96805102
-1.2066602 7.9412303 -0.36742035 0.96834862
-1.1046191 7.9400973 -0.36669776 0.96840996
-0.90159178 7.937861 -0.36543113 0.96851724
-0.69986326 7.9356246 -0.36440444 0.96860439
-0.49912107 7.9334178 -0.36361167 0.96867156
-0.39906248 7.9323144 -0.3633025 0.96869779
-1.953125e-05 7.9278903 -0.36264136 0.96875387
0.099609375 7.9267869 -0.36261955 0.96875572
0.29886717 7.9245996 -0.36274818 0.96874475
0.39859375 7.9234958 -0.36289856 0.96873206
0.49842772 7.9223924 -0.36310634 0.96871442
0.5983789 7.9212985 -0.36337173 0.96869189
0.69848633 7.9201756 -0.3636941 0.96866453
0.79878902 7.9190817 -0.36407545 0.96863216
1.000127 7.9168453 -0.3650147 0.96855265
1.3043652 7.913496 -0.36686724 0.96839553
1.4065331 7.9123535 -0.36760512 0.96833307
1.5091113 7.9112301 -0.36840549 0.96826524
1.6121777 7.910078 -0.36926559 0.96819228
1.8198144 7.9077926 -0.37117735 0.96803027
1.9244921 7.9066305 -0.37222892 0.96794122
2.1356835 7.9043064 -0.37452766 0.96774638
2.4577637 7.9007516 -0.37848219 0.9674114
2.898828 7.8958788 -0.38474903 0.96688092
3.0114648 7.8946385 -0.38650122 0.96673256
3.1251659 7.8933692 -0.3883332 0.96657771
3.2399805 7.8920994 -0.39024225 0.96641612
3.4730663 7.8895211 -0.39430651 0.96607232
3.5915039 7.8882127 -0.39646673 0.96588969
3.8113964 7.8422751 -0.39885092 0.96568835
3.9097655 7.794023 -0.39886323 0.96568727
4.0075097 7.7444921 -0.39887539 0.96568632
4.3921289 7.534287 -0.3989234 0.96568209
4.6733789 7.3640428 -0.3989585 0.96567917
4.8572559 7.2446876 -0.39898148 0.9656772
4.9480176 7.1832809 -0.39899281 0.96567631
5.0380564 7.1207519 -0.39900404 0.96567529
5.215703 6.9922848 -0.39902624 0.96567339
5.3032813 6.9263573 -0.39903724 0.96567261
3.5621874 4.5332322 -0.26372316 0.97717887
3.5763183 4.4353223 -0.26062059 0.97744423
3.5563378 4.2988572 -0.25520733 0.97790748
3.6105468 4.2544041 -0.25524279 0.97790456
3.8927343 4.2511325 -0.2636525 0.97718358
6.3612499 5.9736032 -0.39916965 0.96566147
6.7245703 5.5630369 -0.39921522 0.96565753
6.9299216 5.3059864 -0.39924103 0.96565527
1.2612207 0.94077146 -0.071973152 0.99371946
1.2613477 0.91641599 -0.07131771 0.9937765
1.2618262 0.82321286 -0.068916015 0.99398541
1.2620605 0.77885741 -0.067836873 0.99407923
1.262246 0.73582029 -0.0668322 0.99416673
1.3307323 0.70995116 -0.068992384 0.9939788
1.3719921 0.70995116 -0.070662379 0.99383342
1.415293 0.70995116 -0.072427176 0.99367994
1.5087304 0.70995116 -0.076271974 0.99334556
1.5592968 0.70997071 -0.078371048 0.99316305
1.6127441 0.70995116 -0.080602184 0.9929691
1.7931445 0.70996094 -0.088217653 0.99230736
1.8611425 0.70996094 -0.091116749 0.99205554
1.9337695 0.70995116 -0.09422832 0.99178541
2.0210838 0.71332031 -0.098037869 0.99145466
2.0207715 0.65659177 -0.097191811 0.99152815
10.577617 3.0011425 -0.50294745 0.95692861
10.614609 2.8680174 -0.50295216 0.95692813
10.649921 2.7344432 -0.50295675 0.95692772
10.745664 2.3311522 -0.50296903 0.9569267
10.871172 1.6518847 -0.50298536 0.95692539
10.891132 1.5151367 -0.50298798 0.95692521
10.909355 1.3781836 -0.50299042 0.95692503
10.925859 1.2409766 -0.50299257 0.95692486
10.940664 1.1035937 -0.50299454 0.95692456
10.953711 0.9660449 -0.50299639 0.95692438
10.96498 0.82832026 -0.50299788 0.95692438
10.97457 0.69045895 -0.50299925 0.9569242
10.982402 0.55250973 -0.50300038 0.95692414
10.988477 0.41448241 -0.50300121 0.95692414
10.995449 0.13818359 -0.50300241 0.95692402
10.996328 -0 -0.50300264 0.95692402
10.992851 -0.27631834 -0.50300252 0.95692402
10.974589 -0.69043946 -0.50300068 0.95692414
10.965039 -0.82830077 -0.50299966 0.9569242
10.940664 -1.1035937 -0.50299692 0.95692456
10.925918 -1.2409766 -0.50299525 0.95692462
10.891171 -1.5151465 -0.5029912 0.95692503
10.87125 -1.6518847 -0.50298887 0.95692509
10.801093 -2.0603905 -0.50298059 0.95692581
10.774258 -2.1959667 -0.50297743 0.95692617
10.745762 -2.3311522 -0.50297403 0.95692635
10.65 -2.734453 -0.50296253 0.95692742
10.539121 -3.1338282 -0.50294918 0.95692837
10.49875 -3.2659764 -0.50294435 0.95692903
2.0207715 -0.65656251 -0.097191848 0.99152815
2.0209081 -0.68481445 -0.097605206 0.99149233
1.7931445 -0.70994139 -0.088217542 0.99230736
1.6127343 -0.70994139 -0.080601692 0.99296916
1.5592968 -0.70994139 -0.078371048 0.99316311
1.5087304 -0.70994139 -0.07627216 0.99334562
1.4152637 -0.70995116 -0.072426945 0.99368
1.3719921 -0.70994139 -0.070662305 0.99383348
1.262334 -0.71475583 -0.066356391 0.99420822
1.2622364 -0.73580074 -0.0668322 0.99416679
1.2621679 -0.75715816 -0.067325741 0.99412376
1.262041 -0.77882808 -0.06783691 0.99407935
1.2618457 -0.8231836 -0.06891609 0.99398541
1.2617188 -0.84590816 -0.06948486 0.99393594
1.2615918 -0.86899412 -0.070074499 0.99388468
1.2614746 -0.89249998 -0.07068485 0.99383152
6.6568942 -5.6494336 -0.39937985 0.96564353
6.4388084 -5.8959274 -0.39935303 0.96564579
6.3640623 -5.9762301 -0.39934382 0.96564656
6.2115622 -6.1339841 -0.39932501 0.96564823
6.1338477 -6.2113962 -0.39931548 0.96564901
6.0551367 -6.2878222 -0.39930579 0.96564996
5.7310157 -6.5834765 -0.39926583 0.96565318
5.0402927 -7.1238961 -0.39918059 0.96566033
4.9502244 -7.1864548 -0.3991695 0.96566135
4.859365 -7.2478809 -0.39915824 0.96566242
4.6754489 -7.3672848 -0.3991355 0.96566427
4.3940625 -7.5376267 -0.39910078 0.96566719
4.2988672 -7.592031 -0.39908901 0.96566814
4.1064844 -7.697197 -0.39906523 0.96567017
4.0093164 -7.7479391 -0.39905319 0.9656713
3.8131151 -7.84582 -0.39902893 0.96567315
3.6145117 -7.9386425 -0.39900437 0.96567535
3.514375 -7.9831934 -0.39899197 0.96567637
3.4136717 -8.026474 -0.39897949 0.96567744
3.3124218 -8.0684662 -0.39896697 0.96567857
3.210664 -8.1091986 -0.39895439 0.96567965
3.1084082 -8.1486616 -0.39894173 0.96568066
2.7748241 -8.1884375 -0.395486 0.96597296
2.3218749 -8.1834278 -0.38911173 0.9665122
1.990996 -8.1797657 -0.38509262 0.96685225
1.6664453 -8.1761713 -0.38169304 0.96714002
1.3471289 -8.1726465 -0.37888747 0.9673776
1.2416406 -8.1714935 -0.37808025 0.96744597
0.92773438 -8.1680269 -0.37603354 0.9676193
0.82380855 -8.1668749 -0.37547439 0.96766669
0.51359373 -8.1634369 -0.37415999 0.96777803
0.30783203 -8.1611624 -0.37358302 0.9678269
0.20513672 -8.1600389 -0.37338364 0.96784377
0.10251953 -8.1588964 -0.37324309 0.96785569
0 -8.157773 -0.37316176 0.96786255
-0.20501953 -8.155508 -0.37317675 0.96786129
-0.41019529 -8.1532421 -0.37342575 0.96784014
-0.51289064 -8.1520996 -0.37364036 0.96782207
-0.71876949 -8.1498241 -0.37424591 0.96777076
-0.92542964 -8.1475391 -0.37509182 0.96769917
-1.2375195 -8.1440821 -0.37681288 0.96755332
-1.4473633 -8.1417866 -0.37826967 0.96742988
-1.7655272 -8.1382513 -0.38092878 0.96720475
-1.980332 -8.1358881 -0.3830272 0.96702713
-2.0886817 -8.1346874 -0.38417646 0.96692985
-2.1976757 -8.1334858 -0.38539398 0.9668268
-2.3073828 -8.1322756 -0.38667911 0.96671796
-2.5290723 -8.1298342 -0.38946226 0.96648246
-2.6411912 -8.128603 -0.39096266 0.9663555
-2.7541602 -8.1273537 -0.39253584 0.96622241
-2.8680565 -8.1260939 -0.39418527 0.96608299
-3.0988672 -8.1235542 -0.39771509 0.96578449
-3.3055761 -8.0518456 -0.3981449 0.96574807
-3.50666 -7.9657421 -0.39811984 0.96575016
-3.6063573 -7.9208102 -0.39810741 0.96575117
-3.705498 -7.874609 -0.39809504 0.96575224
-3.804033 -7.8271775 -0.39808273 0.96575332
-3.9019725 -7.7785058 -0.39807051 0.96575439
-3.9993064 -7.728652 -0.39805838 0.96575528
-4.0959764 -7.6775489 -0.39804634 0.96575636
-4.4760351 -7.4611716 -0.39799887 0.96576029
-4.9349704 -7.1643553 -0.39794153 0.96576524
-5.1131735 -7.0376949 -0.3979193 0.96576703
-5.2010641 -6.9726853 -0.39790833 0.96576798
-5.4597068 -6.7711425 -0.39787593 0.96577078
-5.544209 -6.7018261 -0.39786536 0.96577168
-5.7924314 -6.4875879 -0.3978343 0.9657743
-5.8733592 -6.4141307 -0.3978242 0.96577507
-6.1104493 -6.1877341 -0.39779449 0.9657777
-6.263711 -6.0319333 -0.39777529 0.96577936
-6.3388867 -5.9526072 -0.39776587 0.96578008
-1.030957 -0.9440527 -0.063944206 0.9944182
-1.0310937 -0.92063475 -0.063230395 0.99448037
-1.0312402 -0.89771485 -0.062542036 0.99454027
-1.0316113 -0.83182615 -0.060619507 0.9947077
-1.0318555 -0.79005855 -0.0594474 0.99480975
-1.0319629 -0.76975584 -0.058891829 0.99485815
-1.1503808 -0.70994139 -0.061836623 0.99460173
-1.2178417 -0.70995116 -0.064482875 0.99437129
-1.2537891 -0.70994139 -0.065908849 0.99424726
-1.2913672 -0.70994139 -0.067410007 0.9941166
-1.5087011 -0.70995116 -0.076272234 0.99334568
-1.5592675 -0.70995116 -0.078371234 0.99316317
-1.612705 -0.70994139 -0.080601998 0.99296927
-1.6692773 -0.70995116 -0.082977064 0.9927628
-1.785205 -0.68098629 -0.087400891 0.99237847
-10.359736 -3.5105956 -0.50035363 0.95714599
-10.484345 -3.1175487 -0.50033772 0.95714736
-10.522578 -2.9855273 -0.50033283 0.95714784
-10.559179 -2.8530371 -0.50032818 0.95714819
-10.594101 -2.7200975 -0.50032365 0.95714855
-10.658955 -2.4529686 -0.50031537 0.95714921
-10.688848 -2.3188183 -0.50031149 0.95714951
-10.717041 -2.1843066 -0.50030786 0.95714992
-10.791553 -1.778789 -0.50029814 0.9571507
-10.813007 -1.6430371 -0.50029534 0.95715088
-10.850801 -1.3707714 -0.50029033 0.95715117
-10.867089 -1.2342968 -0.50028819 0.95715147
-10.905742 -0.8238281 -0.50028294 0.95715207
-10.915235 -0.68671876 -0.50028163 0.95715207
-10.922988 -0.54949218 -0.5002805 0.95715213
-10.928994 -0.41218749 -0.50027961 0.95715225
-10.311699 0.1295996 -0.50035572 0.95954257
-10.305185 0.3886914 -0.50035626 0.95954257
-10.299492 0.51814455 -0.50035679 0.95954257
-10.292168 0.64753902 -0.50035763 0.95954257
-10.283232 0.77682614 -0.50035858 0.95954251
-10.231347 1.2925292 -0.50036448 0.95954198
-10.214335 1.4209961 -0.50036645 0.95954186
-10.195723 1.5492578 -0.5003686 0.95954168
-10.078613 2.1864452 -0.50038248 0.95954055
-10.0504 2.3129492 -0.50038582 0.95954031
-9.9892483 2.5648241 -0.50039315 0.95953971
-9.9562893 2.6901562 -0.50039715 0.95953947
-9.7681732 3.3101561 -0.50041986 0.95953768
-9.7259083 3.4326756 -0.50042498 0.95953727
-1.7860059 0.65572262 -0.092311971 0.99240971
-1.7861328 0.70720702 -0.093208805 0.99233627
-1.729287 0.70996094 -0.090700604 0.99254173
-1.6126856 0.70995116 -0.08549431 0.99296838
-1.5087011 0.70997071 -0.08090172 0.99334478
-1.4152441 0.70995116 -0.076823272 0.99367929
-1.2913672 0.70994139 -0.071501963 0.99411583
-1.1833984 0.70996094 -0.066958658 0.99448866
-1.1186719 0.70995116 -0.064285964 0.99470806
-1.0588866 0.70995116 -0.061856076 0.99490756
-1.0314941 0.72980469 -0.061307523 0.99495256
-1.0313672 0.74936521 -0.061855923 0.99490756
-1.0312793 0.76925778 -0.062423743 0.99486089
-1.0311328 0.78954101 -0.063012198 0.99481261
-1.0310059 0.81019527 -0.063622132 0.9947626
-1.0309082 0.83124024 -0.064253919 0.99471068
-1.0306348 0.87468749 -0.06558723 0.99460119
-1.0304883 0.89708984 -0.066290319 0.99454343
-1.0303515 0.91996092 -0.067019425 0.99448365
-1.0302148 0.9433496 -0.067775421 0.99442154
-5.9048438 5.6863279 -0.39774534 0.96770382
-5.8329978 5.7601461 -0.39775103 0.96770346
-5.6120114 5.9762011 -0.39776897 0.96770191
-5.5365524 6.0463476 -0.39777526 0.96770144
-5.3819919 6.1825585 -0.39771071 0.96770662
-5.2251954 6.3161716 -0.39773005 0.96770501
-5.0650487 6.4458008 -0.39774981 0.96770346
-4.8188868 6.6326365 -0.39778021 0.96770102
-4.7352829 6.692832 -0.39779052 0.96770018
-4.5658202 6.8100781 -0.39781141 0.96769857
-4.4800196 6.8670897 -0.39782202 0.96769768
-4.393496 6.9230371 -0.39783272 0.96769679
-4.1297851 7.0842772 -0.3978653 0.96769422
-3.9506445 7.1862402 -0.39788744 0.96769249
-3.769043 7.2836523 -0.39790991 0.96769065
-3.5850096 7.3765135 -0.39793265 0.9676888
-3.4921386 7.4211621 -0.39794418 0.96768796
-3.3047361 7.507031 -0.39796737 0.96768606
-3.0196874 7.626914 -0.39800262 0.96768332
-2.9237206 7.6644921 -0.39801452 0.9676823
-2.632998 7.7699509 -0.39805049 0.96767944
-1.7240039 7.9469433 -0.39454669 0.96795911
-1.5155274 7.9446387 -0.39241776 0.96812928
-1.4120996 7.9434762 -0.3914527 0.96820635
-0.69986326 7.9356246 -0.38652268 0.96860033
-0.59940428 7.9345312 -0.38607237 0.96863639
-0.49912107 7.9334178 -0.3856819 0.96866757
-0.39906248 7.9323144 -0.38535392 0.96869373
-0.29914063 7.931201 -0.38508826 0.96871513
0 7.9279003 -0.38465449 0.96874982
0.29888672 7.9245996 -0.38476706 0.96874076
0.39861327 7.9234958 -0.38492626 0.96872801
0.49842772 7.9223924 -0.38514668 0.96871042
0.5983789 7.9212985 -0.38542739 0.96868783
1.000127 7.9168453 -0.38717094 0.9685486
1.3043652 7.913496 -0.38913608 0.96839148
1.5091113 7.9112206 -0.39076576 0.96826118
1.7157323 7.9089355 -0.3926599 0.96810991
1.8198144 7.907783 -0.39370593 0.96802622
2.3419237 7.8758883 -0.39866835 0.96763003
2.4408007 7.8460641 -0.39868069 0.96762908
2.539248 7.8150001 -0.39869294 0.96762818
2.6373436 7.7827244 -0.39870512 0.96762717
2.9290917 7.6784959 -0.39874148 0.96762419
3.0254102 7.6413183 -0.39875349 0.96762329
3.1213086 7.60291 -0.39876547 0.96762234
3.6857812 7.3475094 -0.39883587 0.96761668
3.8694921 7.2529783 -0.39885879 0.96761483
4.6644821 6.7716308 -0.39895806 0.9676069
4.7493358 6.712666 -0.39896864 0.96760601
4.9167676 6.5915427 -0.39898956 0.96760434
4.9993262 6.5293941 -0.3989999 0.96760362
3.5614746 4.5323048 -0.27967346 0.97718048
3.5746288 4.4332423 -0.27631158 0.9774518
3.8118553 4.2693067 -0.27769431 0.97734016
3.8903711 4.2485642 -0.27950945 0.97719431
5.7055469 5.9248047 -0.39908823 0.96759647
5.85291 5.7798047 -0.39910671 0.96759504
6.0669923 5.5554686 -0.39913353 0.9675929
6.1364841 5.4789062 -0.39914227 0.96759218
6.2049608 5.401494 -0.39915085 0.96759152
6.2724609 5.3231931 -0.39915931 0.96759093
6.404531 5.1641016 -0.39917585 0.96758956
1.2605078 0.91581053 -0.075595357 0.99377978
1.2606348 0.89192379 -0.074925423 0.99383479
1.260752 0.86844724 -0.074278526 0.9938879
1.2613477 0.7566992 -0.07136669 0.99412674
1.2615625 0.71433592 -0.070340157 0.99421096
1.2913965 0.70996094 -0.071501657 0.99411571
1.3307714 0.70995116 -0.07318031 0.9939779
1.415293 0.70995116 -0.076823309 0.99367911
1.5087304 0.70995116 -0.080901638 0.99334472
1.6127441 0.70995116 -0.085494459 0.9929682
1.6693066 0.70994139 -0.08801353 0.99276179
1.7293359 0.70995116 -0.090700984 0.99254155
1.7931445 0.70996094 -0.093572423 0.99230635
1.8611425 0.70996094 -0.096647531 0.99205452
1.9337695 0.70995116 -0.099947624 0.99178433
2.0230663 0.68554688 -0.10363933 0.9914822
9.8963861 3.0786035 -0.50286275 0.95934409
9.9708204 2.8289843 -0.50287229 0.95934331
10.038945 2.5775683 -0.50288099 0.9593426
10.070605 2.4512305 -0.50288504 0.9593423
10.100703 2.3245118 -0.50288892 0.95934194
10.156034 2.0699608 -0.50289607 0.95934159
10.181367 1.942207 -0.50289935 0.95934105
10.205 1.814121 -0.50290245 0.95934093
10.22707 1.6857617 -0.50290531 0.95934063
10.24748 1.5570996 -0.50290799 0.95934051
10.266289 1.4282227 -0.50291044 0.95934033
10.325274 0.91060543 -0.50291836 0.95933956
10.352304 0.52081054 -0.50292212 0.95933938
10.362187 0.26049805 -0.50292361 0.95933914
10.364648 -0.13023438 -0.50292432 0.95933914
10.362148 -0.26046875 -0.5029242 0.95933932
10.358086 -0.39067382 -0.50292379 0.9593392
10.352344 -0.52080077 -0.50292325 0.95933926
10.344961 -0.65084958 -0.50292248 0.95933932
10.335957 -0.78079098 -0.50292146 0.95933938
10.325293 -0.91058594 -0.50292027 0.9593395
10.313007 -1.0402832 -0.5029189 0.95933962
10.299101 -1.1697949 -0.50291729 0.95933968
10.266328 -1.4282227 -0.50291348 0.95934016
10.247578 -1.5571191 -0.50291133 0.95934016
10.205097 -1.8141112 -0.50290632 0.95934057
10.156152 -2.0699804 -0.50290048 0.95934111
10.100821 -2.3245313 -0.50289387 0.95934153
10.070703 -2.4512401 -0.50289029 0.95934194
10.039062 -2.5775781 -0.50288647 0.95934212
10.005761 -2.7035155 -0.50288248 0.9593426
9.9709377 -2.828994 -0.50287831 0.95934284
9.9345112 -2.9540625 -0.5028739 0.95934319
2.0229199 -0.65727538 -0.1032 0.99151808
2.0230761 -0.6855371 -0.1036393 0.99148214
1.9337695 -0.70995116 -0.099947736 0.99178433
1.8611425 -0.70994139 -0.096646994 0.99205458
1.7931445 -0.70994139 -0.09357208 0.99230641
1.6127539 -0.70993161 -0.085494265 0.99296814
1.5592968 -0.70994139 -0.08312843 0.99316221
1.4608008 -0.70995116 -0.078803517 0.99351674
1.4152637 -0.70995116 -0.076823078 0.99367923
1.3307519 -0.70995116 -0.073180199 0.99397796
1.2913965 -0.70994139 -0.071501844 0.99411577
1.2615625 -0.71432614 -0.070340037 0.99421096
1.2614453 -0.73534179 -0.070844077 0.99416965
1.26125 -0.77833009 -0.071908452 0.99408227
1.2611425 -0.80032223 -0.072469711 0.9940362
1.2606446 -0.89190429 -0.074925385 0.99383479
1.2605078 -0.9157812 -0.075595476 0.9937799
1.2603711 -0.94011718 -0.076289788 0.99372292
6.5353904 -5.0038962 -0.39936408 0.96757442
6.4718356 -5.0855174 -0.39935628 0.96757513
6.3417578 -5.2463379 -0.39934027 0.96757638
6.2751951 -5.3255076 -0.39933208 0.96757704
6.2076364 -5.4038086 -0.39932376 0.96757782
6.1391406 -5.4812989 -0.39931533 0.96757829
5.9991794 -5.6335936 -0.39929813 0.96757978
5.7080469 -5.9273729 -0.39926228 0.96758258
5.632988 -5.9985156 -0.39925304 0.96758324
5.480195 -6.1378613 -0.39923421 0.96758485
5.3239841 -6.2733493 -0.39921492 0.96758628
5.2445898 -6.3396091 -0.39920515 0.96758711
5.1643553 -6.4048142 -0.39919525 0.96758807
4.9189353 -6.5944138 -0.39916494 0.96759045
4.835547 -6.6555467 -0.39915466 0.96759123
4.4945703 -6.8893747 -0.39911255 0.96759456
4.4075193 -6.945117 -0.39910179 0.96759546
4.3197947 -6.9997559 -0.39909095 0.96759629
3.9621875 -7.2071481 -0.39904678 0.96759993
3.7795994 -7.3040524 -0.39902419 0.96760166
3.6873925 -7.3507614 -0.39901283 0.96760261
3.4074512 -7.4838767 -0.39897814 0.96760529
3.3130467 -7.5258689 -0.39896646 0.96760625
3.1226854 -7.6062889 -0.39894295 0.96760821
2.8335254 -7.7179098 -0.39890712 0.96761096
2.6385252 -7.786201 -0.39888299 0.96761292
2.5403905 -7.8184862 -0.39887086 0.96761394
2.1441114 -7.9352927 -0.39882171 0.96761781
1.336543 -8.1083593 -0.39872158 0.96762586
0.92771482 -8.1680365 -0.39885864 0.96761513
0.82378906 -8.166894 -0.39826468 0.96766245
0.7201367 -8.1657324 -0.39773589 0.96770471
0.61676759 -8.1645994 -0.39727244 0.96774179
0.30781248 -8.1611719 -0.39625943 0.96782273
-0.10250977 -8.1566505 -0.39578989 0.96786028
-0.61575192 -8.1509857 -0.39660993 0.96779472
-0.71876949 -8.1498432 -0.39696258 0.96776652
-0.92542964 -8.1475487 -0.39785874 0.967695
-1.0291797 -8.1464157 -0.39840296 0.96765149
-1.1331836 -8.1452827 -0.39901149 0.96760279
-1.2335352 -8.1180267 -0.39840236 0.96765131
-1.4370605 -8.0839357 -0.39837703 0.96765339
-1.538496 -8.0649996 -0.39836439 0.96765435
-2.2405565 -7.896914 -0.39827704 0.96766138
-2.3395312 -7.8679099 -0.39826468 0.96766227
-2.4381347 -7.8376365 -0.39825243 0.96766335
-2.5363574 -7.8061423 -0.39824021 0.9676643
-2.8285155 -7.7042871 -0.39820379 0.96766722
-2.9250195 -7.6679196 -0.39819175 0.96766812
-3.1165917 -7.5915136 -0.39816788 0.96767014
-3.2116504 -7.5515232 -0.39815605 0.9676711
-3.4002147 -7.4680176 -0.39813253 0.96767282
-3.5866015 -7.3797555 -0.39810929 0.96767479
-3.6789453 -7.3339157 -0.39809775 0.96767563
-3.7707031 -7.2868943 -0.39808631 0.96767658
-3.8618457 -7.2387009 -0.39807495 0.96767759
-3.9524024 -7.189404 -0.39806366 0.96767843
-4.0423241 -7.1389747 -0.39805239 0.96767932
-4.3081541 -6.980957 -0.39801922 0.967682
-4.3954391 -6.9261036 -0.39800835 0.96768272
-4.4819922 -6.8701172 -0.3979975 0.96768367
-4.5678415 -6.8130565 -0.3979868 0.96768463
-4.9038672 -6.5742674 -0.39794478 0.9676879
-4.9859667 -6.5119433 -0.39793453 0.9676888
-5.067275 -6.4486523 -0.39792433 0.96768945
-5.2274804 -6.3189454 -0.39790431 0.96769106
-5.384336 -6.1852732 -0.3978847 0.96769267
-5.4615135 -6.1169629 -0.39787504 0.96769345
-5.5378122 -6.0477052 -0.39786547 0.96769422
-5.6877732 -5.9063668 -0.3978467 0.96769571
-5.8341403 -5.7612891 -0.39782837 0.9676972
-1.0303417 -0.91995114 -0.067019463 0.99448371
-1.0304883 -0.89707029 -0.066290431 0.99454349
-1.030625 -0.87465817 -0.065586969 0.99460131
-1.0307617 -0.85273433 -0.064908601 0.99465698
-1.0308985 -0.83124024 -0.064253807 0.99471068
-1.0312696 -0.76923829 -0.062423781 0.99486095
-1.031377 -0.74933594 -0.061855812 0.99490762
-1.0314844 -0.72979492 -0.061307371 0.99495262
-1.1186719 -0.70993161 -0.064286157 0.99470812
-1.2178417 -0.70995116 -0.06839668 0.99437058
-1.2537891 -0.70994139 -0.069909476 0.99424648
-1.2913672 -0.70994139 -0.071501881 0.99411583
-1.3719531 -0.70995116 -0.074951895 0.99383277
-1.5592675 -0.70994139 -0.083128087 0.99316227
-1.7859961 -0.65569335 -0.092311822 0.99240977
-9.7260256 -3.4326952 -0.50043225 0.95953679
-9.809062 -3.1871483 -0.5004217 0.95953745
-9.8482418 -3.0636132 -0.5004167 0.9595378
-9.9893255 -2.5648241 -0.50039864 0.95953941
-10.050478 -2.3129492 -0.50039077 0.95954001
-10.078701 -2.1864452 -0.50038713 0.95954019
-10.105283 -2.0596192 -0.50038373 0.95954055
-10.15374 -1.8049902 -0.50037742 0.95954102
-10.175566 -1.6772461 -0.50037456 0.9595412
-10.195771 -1.549248 -0.50037193 0.95954144
-10.214395 -1.4209961 -0.50036949 0.95954162
-10.231367 -1.2925292 -0.50036722 0.95954192
-10.260595 -1.0349902 -0.50036329 0.95954204
-10.283252 -0.7767871 -0.50036019 0.95954245
-10.299521 -0.51813477 -0.50035793 0.95954245
-9.7555275 9.7656248e-06 -0.50042492 0.96168011
-9.7524214 0.24517578 -0.50042504 0.96168017
-9.7485743 0.3676953 -0.5004254 0.96168017
-9.7431927 0.49015623 -0.50042599 0.96168017
-9.736269 0.61256832 -0.50042671 0.96168011
-9.6933107 1.100996 -0.50043148 0.9616797
-9.67875 1.2227148 -0.50043321 0.96167952
-9.6450481 1.4655762 -0.50043714 0.96167922
-9.6258783 1.5866601 -0.50043935 0.96167916
-9.5830956 1.8280761 -0.50044441 0.96167868
-9.5594139 1.9483789 -0.50044721 0.96167845
-9.5075684 2.1880078 -0.50045341 0.96167797
-9.4793158 2.3073242 -0.50045681 0.96167797
-9.3858595 2.6630273 -0.50046802 0.96167701
-9.3517475 2.7807715 -0.50047213 0.96167666
-9.3161421 2.8981152 -0.50047642 0.9616763
-9.2790718 3.0149705 -0.50048089 0.961676
-9.2404976 3.1313574 -0.5004856 0.96167576
-1.787002 0.70752931 -0.098592073 0.99233156
-1.729287 0.70996094 -0.095892482 0.99254072
-1.559248 0.70997071 -0.087886348 0.99316138
-1.3307226 0.70996094 -0.077369153 0.99397719
-1.2913672 0.70994139 -0.075594291 0.99411505
-1.2537988 0.70996094 -0.07391075 0.99424565
-1.0881933 0.70996094 -0.06665127 0.99480945
-1.0588866 0.70995116 -0.065396726 0.99490684
-1.0308007 0.7293359 -0.064773366 0.99495524
-1.0306835 0.74884766 -0.065352403 0.9949103
-1.0305566 0.76874024 -0.065952107 0.99486369
-1.0303028 0.8096289 -0.06721729 0.99476546
-1.0301758 0.83068359 -0.067884177 0.9947136
-1.0300391 0.85212886 -0.068575248 0.99465996
-1.0297363 0.8964355 -0.070034213 0.99454665
-1.0294238 0.94267577 -0.071601793 0.99442494
-5.652988 5.308496 -0.39779288 0.96941757
-5.4476461 5.5165429 -0.39770329 0.96942437
-5.307539 5.6519532 -0.39772055 0.969423
-5.2361913 5.7183399 -0.39772934 0.9694224
-5.1640429 5.7838182 -0.39773822 0.96942168
-5.091084 5.8483787 -0.39774722 0.96942097
-4.7912402 6.0973434 -0.39778417 0.96941823
-4.4792771 6.330986 -0.39782271 0.96941531
-4.3189549 6.441875 -0.39784253 0.96941388
-4.237783 6.4958105 -0.39785254 0.96941304
-4.1559081 6.5486913 -0.39786261 0.96941239
-3.9902442 6.6514354 -0.39788309 0.96941072
-3.8220508 6.7499509 -0.39790389 0.96940917
-3.7370214 6.797627 -0.39791441 0.96940839
-3.4784374 6.9341793 -0.39794639 0.96940607
-3.3911328 6.9775586 -0.39795718 0.96940511
-3.2148829 7.0609469 -0.39797896 0.96940351
-2.8563378 7.214365 -0.39802337 0.96940023
-2.4905467 7.3496094 -0.39806864 0.96939671
-2.3051953 7.4102926 -0.39809161 0.96939504
-2.2119629 7.4389062 -0.39810318 0.96939409
-2.1183789 7.4663377 -0.39811477 0.96939319
-1.9301952 7.5176558 -0.39813808 0.96939141
-1.7407714 7.5642381 -0.39816153 0.96938962
-1.5502245 7.6060348 -0.39818519 0.96938789
-1.3586719 7.6430564 -0.39820892 0.96938604
-1.1662598 7.6752439 -0.39823279 0.96938425
-1.069746 7.6895018 -0.39824477 0.96938342
-0.87621093 7.7144237 -0.39826882 0.96938163
-0.77921873 7.7250485 -0.39828083 0.96938074
-0.68210936 7.7344723 -0.39829287 0.96937978
-0.48756835 7.7496676 -0.39831701 0.96937788
-0.39015624 7.7554002 -0.39832911 0.96937698
-0.19513671 7.7632422 -0.39835334 0.96937513
9.7656248e-06 7.7661719 -0.39837757 0.96937329
0.19517578 7.7641501 -0.39840183 0.96937162
0.29273435 7.7613473 -0.39841393 0.96937054
0.39027342 7.7573047 -0.39842606 0.96936959
0.48773438 7.7520118 -0.39843819 0.96936876
0.68241209 7.737793 -0.39846236 0.96936685
0.87672848 7.7186522 -0.39848652 0.96936506
0.97367185 7.7072754 -0.39849856 0.96936411
1.0704784 7.6946678 -0.39851061 0.96936315
1.4558984 7.6320605 -0.39855856 0.96935964
1.647334 7.5935154 -0.39858237 0.96935785
1.7426856 7.5724411 -0.39859429 0.96935689
2.0270312 7.5020504 -0.39862967 0.96935421
2.1212108 7.4762206 -0.39864135 0.96935326
2.5868261 7.3293357 -0.39869937 0.96934891
2.6788182 7.2964454 -0.39871082 0.96934807
2.9521387 7.1908884 -0.39874488 0.96934563
3.2213476 7.0751266 -0.39877844 0.96934301
3.4860253 6.9492774 -0.39881146 0.96934044
3.5731542 6.905117 -0.39882231 0.96933961
3.6597459 6.8598437 -0.39883316 0.96933883
3.9160156 6.7175584 -0.39886513 0.96933645
4.0002441 6.6680079 -0.39887565 0.96933556
4.0837989 6.6173825 -0.39888605 0.96933484
4.166738 6.565742 -0.39889643 0.96933401
4.3306446 6.4592772 -0.39891687 0.96933246
3.5607421 4.5313869 -0.29562169 0.97718197
3.5530078 4.2948241 -0.28593251 0.97792208
3.6076758 4.2510056 -0.28600404 0.97791612
3.7165039 4.2693067 -0.29035366 0.97758394
3.8104589 4.2677441 -0.29348028 0.97734529
5.3251758 5.6707129 -0.3990413 0.96932304
5.4662304 5.5353417 -0.39905894 0.96932173
5.5354881 5.4663477 -0.39906761 0.96932101
5.6038671 5.3964648 -0.39907619 0.96932042
5.6713672 5.3257518 -0.39908466 0.96931964
5.7379684 5.2541795 -0.399093 0.96931899
5.8036327 5.1817579 -0.39910126 0.96931851
5.9322653 5.0344629 -0.39911735 0.96931726
5.9951758 4.9596286 -0.39912528 0.96931666
6.0571289 4.8839941 -0.39913303 0.96931612
6.1782031 4.7304101 -0.39914826 0.96931493
1.259668 0.91519529 -0.079868734 0.99378312
1.2598046 0.89133787 -0.079160959 0.99383801
1.2599218 0.86787105 -0.078478046 0.99389106
1.2601953 0.82213867 -0.077182576 0.99399155
1.2605468 0.75621092 -0.075403593 0.99412966
1.2606348 0.73489255 -0.074851915 0.99417257
1.2607617 0.71387696 -0.074319609 0.99421382
1.2914063 0.70995116 -0.07559444 0.99411488
1.3307714 0.70995116 -0.077369079 0.99397707
1.3719921 0.70995116 -0.079242021 0.99383181
1.415293 0.70995116 -0.08122059 0.99367821
1.4608105 0.70995116 -0.083314165 0.99351579
1.5087304 0.70995116 -0.085532457 0.99334377
1.5592968 0.70997071 -0.087886199 0.9931612
1.6127441 0.70995116 -0.090388104 0.99296719
1.6693066 0.70994139 -0.093051754 0.99276078
1.7931445 0.70996094 -0.098928414 0.99230528
1.8611425 0.70996094 -0.10217953 0.99205345
1.9337695 0.70995116 -0.10566875 0.9917832
2.0242188 0.71442384 -0.110112 0.99143916
2.0242479 0.65771484 -0.10917881 0.99151134
9.359375 2.9115429 -0.50279623 0.96150196
9.3952732 2.7937207 -0.50280082 0.96150172
9.4297266 2.6754394 -0.50280517 0.96150142
9.6511517 1.7156543 -0.50283372 0.96149933
9.6913471 1.4726171 -0.50283903 0.96149886
9.7253904 1.2286133 -0.50284344 0.96149844
9.7649212 0.86121094 -0.50284874 0.96149796
9.7749605 0.73841792 -0.50285017 0.96149796
9.7834959 0.61552733 -0.50285137 0.9614979
9.7959175 0.36948243 -0.50285316 0.96149772
9.7997656 0.24635741 -0.50285375 0.96149778
9.7533007 -0.98382813 -0.50284928 0.96149808
9.7254295 -1.2286133 -0.50284612 0.96149832
9.6720705 -1.5942578 -0.50283986 0.96149886
9.6289062 -1.8368067 -0.50283474 0.96149904
9.6049995 -1.9576367 -0.50283188 0.96149933
9.5526562 -2.198369 -0.50282568 0.96149975
9.5241795 -2.3182127 -0.50282228 0.96150017
9.4628124 -2.5567968 -0.50281489 0.96150059
9.4298048 -2.6754785 -0.5028109 0.96150106
9.3594532 -2.9115527 -0.50280243 0.96150166
2.0242479 -0.65770507 -0.109179 0.99151134
2.0242286 -0.71441406 -0.1101123 0.99143916
1.9337695 -0.70995116 -0.10566863 0.9917832
1.8611425 -0.70994139 -0.10217945 0.99205345
1.6127343 -0.70994139 -0.090388142 0.99296725
1.4152637 -0.70995116 -0.08122059 0.99367833
1.3719921 -0.70994139 -0.07924179 0.99383181
1.2606446 -0.73488277 -0.074851833 0.99417257
1.2605468 -0.75619137 -0.075403742 0.99412972
1.260332 -0.79979491 -0.076568261 0.99403924
1.2600585 -0.84479493 -0.07781864 0.99394226
1.2599218 -0.86787105 -0.078478165 0.99389106
1.259795 -0.89129883 -0.079161301 0.99383813
1.2596582 -0.91516602 -0.079868771 0.99378318
6.0597458 -4.8860936 -0.39930484 0.96930313
5.9977536 -4.9617677 -0.39929724 0.96930367
5.9348044 -5.0366306 -0.39928946 0.96930432
5.8709569 -5.1107225 -0.39928165 0.9693048
5.8061328 -5.1839938 -0.39927366 0.96930546
5.6738086 -5.3280368 -0.39925739 0.96930671
5.6062694 -5.3987989 -0.39924908 0.96930736
5.5378709 -5.4686913 -0.39924064 0.96930808
5.4685936 -5.537744 -0.39923212 0.96930867
5.3274999 -5.6731834 -0.39921474 0.96930987
5.2556639 -5.7395606 -0.39920589 0.96931058
5.1830077 -5.8050098 -0.39919692 0.9693113
5.1095214 -5.8695407 -0.39918789 0.96931201
4.9601855 -5.99582 -0.39916945 0.96931338
4.884336 -6.057539 -0.39916006 0.96931404
4.6522069 -6.2368555 -0.39913142 0.96931636
4.4937892 -6.3515134 -0.3991119 0.96931773
4.2508883 -6.5158591 -0.39908186 0.96932006
4.1685839 -6.5685935 -0.39907172 0.96932077
3.6613672 -6.8628807 -0.39900905 0.96932548
3.3998437 -6.99541 -0.39897671 0.96932799
3.133496 -7.1180172 -0.39894375 0.96933043
3.0437109 -7.156621 -0.39893264 0.96933132
2.7715819 -7.265625 -0.39889896 0.96933389
2.6799707 -7.2996874 -0.39888763 0.96933472
2.5879686 -7.3325782 -0.39887622 0.96933556
2.4027538 -7.3948727 -0.39885324 0.96933728
2.0279295 -7.5053806 -0.39880684 0.96934086
1.7434765 -7.57582 -0.39877158 0.96934342
1.6480762 -7.5969138 -0.39875975 0.96934432
1.1676172 -7.684248 -0.39870018 0.96934891
0.97408199 -7.7106934 -0.39867613 0.96935076
0.58537108 -7.7489743 -0.39862788 0.96935433
0.3904492 -7.7607422 -0.39860371 0.96935624
0.19529296 -7.7676368 -0.39857948 0.96935803
-0.097617187 -7.7687793 -0.39854309 0.96936077
-0.19523437 -7.7666793 -0.39853096 0.96936178
-0.39031249 -7.7588573 -0.3985067 0.96936357
-0.77957028 -7.7285156 -0.39845833 0.96936721
-0.87661129 -7.7178707 -0.39844626 0.9693681
-0.9734863 -7.7060156 -0.39843422 0.96936905
-1.0702343 -7.6929488 -0.39842218 0.96936989
-1.1667676 -7.6786618 -0.39841017 0.96937084
-1.2631054 -7.6631541 -0.39839819 0.9693718
-1.3592774 -7.6464453 -0.39838621 0.96937269
-1.6463672 -7.5891113 -0.39835051 0.96937531
-1.8364452 -7.5448828 -0.39832687 0.96937716
-2.2129493 -7.4421973 -0.39827999 0.96938074
-2.3991406 -7.3838086 -0.39825678 0.96938252
-2.5837891 -7.3207712 -0.3982338 0.96938419
-3.4799609 -6.9372559 -0.39812204 0.96939272
-3.5667675 -6.8927927 -0.39811122 0.96939355
-3.6530175 -6.8472557 -0.39810047 0.96939427
-3.7386522 -6.8006053 -0.39808974 0.96939516
-3.8237109 -6.7529101 -0.39807913 0.969396
-3.908164 -6.7041602 -0.39806861 0.96939677
-3.9920115 -6.6543455 -0.39805815 0.96939749
-4.0751953 -6.6034861 -0.39804775 0.96939832
-4.1577539 -6.5515723 -0.39803743 0.96939915
-4.320869 -6.4446969 -0.39801705 0.96940064
-4.4013963 -6.3897362 -0.39800701 0.96940136
-4.4812207 -6.3337693 -0.39799705 0.96940213
-4.5603514 -6.2767968 -0.39798713 0.96940291
-4.6387596 -6.2188377 -0.39797735 0.96940362
-4.7933202 -6.1000195 -0.39795801 0.96940511
-4.8694825 -6.0391502 -0.39794847 0.96940583
-4.9448924 -5.9773436 -0.39793906 0.96940649
-5.4499998 -5.5189352 -0.39787582 0.96941137
-5.5188184 -5.4498925 -0.3978672 0.96941197
-5.5867286 -5.3800097 -0.39785874 0.96941262
-5.653779 -5.3092575 -0.3978503 0.96941328
-1.0301856 -0.83066404 -0.067884214 0.9947136
-1.0305469 -0.76871091 -0.065952145 0.99486381
-1.0306739 -0.74883789 -0.065352283 0.99491036
-1.0308007 -0.72929686 -0.064773329 0.9949553
-1.0309082 -0.71011716 -0.064214587 0.99499869
-1.0882226 -0.70993161 -0.066651493 0.99480939
-1.1186719 -0.70994139 -0.067965738 0.99470735
-1.1834081 -0.70994139 -0.070791513 0.99448788
-1.2178417 -0.70995116 -0.072311707 0.9943698
-1.3307031 -0.70994139 -0.077369116 0.99397731
-1.3719531 -0.70995116 -0.079242058 0.99383193
-1.4152637 -0.70994139 -0.081220627 0.99367833
-1.5592675 -0.70994139 -0.087886468 0.99316138
-1.7293066 -0.70994139 -0.095892675 0.99254066
-1.7869922 -0.70751953 -0.098591954 0.99233162
-1.7869238 -0.68164062 -0.098107181 0.99236912
-1.7868555 -0.65601563 -0.097642936 0.99240506
-9.200635 -3.2472656 -0.50049734 0.96167493
-9.2792091 -3.0149901 -0.50048733 0.96167547
-9.3518457 -2.780791 -0.50047803 0.96167624
-9.3859768 -2.6630273 -0.50047368 0.96167654
-9.418642 -2.544873 -0.50046951 0.96167678
-9.4497948 -2.4262891 -0.50046551 0.96167707
-9.5343065 -2.0683496 -0.5004546 0.96167797
-9.5594625 -1.9483691 -0.50045139 0.96167827
-9.6052923 -1.7075098 -0.50044543 0.96167874
-9.6450872 -1.4655566 -0.50044024 0.96167904
-9.6787891 -1.2226952 -0.50043577 0.9616794
-9.6933393 -1.1009766 -0.50043386 0.96167958
-9.7063866 -0.97909176 -0.50043207 0.96167964
-9.7278614 -0.73484373 -0.50042915 0.96167994
-9.7363186 -0.61254883 -0.50042802 0.96167994
-9.7486029 -0.36767578 -0.50042623 0.96168005
-9.7524214 -0.24514648 -0.50042558 0.96168017
-9.2554684 1.953125e-05 -0.50048703 0.96360296
-9.2437792 0.46504882 -0.50048798 0.9636029
-9.2292089 0.69719726 -0.50048959 0.96360278
-9.2197561 0.81312495 -0.50049061 0.96360266
-9.2088375 0.92891598 -0.50049186 0.96360254
-9.196455 1.0445508 -0.50049329 0.96360248
-9.1826267 1.1600391 -0.5004949 0.96360236
-9.1673632 1.2753515 -0.50049669 0.96360224
-9.1324701 1.5053222 -0.50050074 0.96360207
-9.091836 1.7343652 -0.50050557 0.96360171
-9.045517 1.9623241 -0.50051105 0.96360117
-9.0201654 2.0758593 -0.50051409 0.96360105
-8.9934273 2.1890526 -0.50051731 0.96360087
-8.904726 2.5265136 -0.50052792 0.9636001
-1.7876953 0.65634763 -0.10298031 0.99240041
-1.729287 0.70996094 -0.10108558 0.99253964
-1.6692675 0.70996094 -0.098090932 0.99275982
-1.6126856 0.70995116 -0.095283508 0.99296641
-1.3719434 0.70997071 -0.083533213 0.99383104
-1.3307226 0.70996094 -0.081559293 0.99397635
-1.2913672 0.70994139 -0.079688683 0.99411416
-1.2537988 0.70996094 -0.077913508 0.99424481
-1.1833984 0.70996094 -0.074625202 0.99448705
-1.1186719 0.70995116 -0.071646497 0.99470657
-1.0881933 0.70996094 -0.070260882 0.99480867
-1.0588866 0.70995116 -0.068938598 0.99490613
-1.0300878 0.7288574 -0.068235777 0.99495792
-1.0299902 0.74835938 -0.068845175 0.99491292
-1.0297265 0.78844726 -0.070130579 0.99481821
-1.0293164 0.85154295 -0.072238043 0.99466288
-1.0291601 0.87342769 -0.072992168 0.99460739
-1.0288379 0.91862303 -0.074583933 0.99449009
-1.0286719 0.9419629 -0.075423926 0.99442822
-5.3615036 5.0347948 -0.3977145 0.97096711
-5.168242 5.2335935 -0.39773831 0.97096545
-5.0352736 5.362041 -0.39775467 0.97096431
-4.967617 5.4249997 -0.39776301 0.97096372
-4.5454493 5.7845311 -0.39781508 0.97095996
-4.3988376 5.8972263 -0.39783317 0.97095859
-4.3244824 5.952158 -0.39784232 0.97095799
-4.2494531 6.0061817 -0.39785159 0.97095728
-4.0203419 6.1625094 -0.3978799 0.97095525
-3.9426854 6.2126951 -0.39788947 0.9709546
-3.7855175 6.3100977 -0.3979089 0.97095323
-3.7060058 6.3573337 -0.39791873 0.97095251
-3.6259179 6.403574 -0.39792863 0.97095174
-3.5452538 6.4487891 -0.39793861 0.97095102
-3.3822265 6.5361814 -0.39795876 0.97094959
-3.299912 6.57833 -0.39796892 0.97094887
-3.1337206 6.6595211 -0.39798948 0.97094744
-3.0498536 6.6985645 -0.39799988 0.97094667
-2.8807225 6.7734375 -0.39802077 0.97094512
-2.6235743 6.8777637 -0.39805263 0.97094285
-2.5370312 6.9103613 -0.39806333 0.97094208
-2.4500682 6.9418845 -0.39807409 0.97094131
-1.4706249 7.2154684 -0.39819548 0.97093254
-1.3798535 7.2335935 -0.39820674 0.97093171
-1.1977344 7.2663965 -0.39822933 0.9709301
-0.92308593 7.3069921 -0.39826339 0.97092766
-0.83121091 7.3182225 -0.39827481 0.97092682
-0.73919922 7.3283105 -0.39828619 0.97092599
-0.64706051 7.3372359 -0.39829764 0.97092515
-0.55483395 7.3449998 -0.39830908 0.97092432
-0.46251953 7.3515916 -0.39832059 0.97092354
9.7656248e-06 7.3671875 -0.39837798 0.97091943
0.092587888 7.3668065 -0.39838949 0.97091866
0.27770507 7.3625879 -0.3984125 0.97091693
0.3701953 7.3587303 -0.398424 0.97091609
0.46265623 7.3536911 -0.39843547 0.97091538
0.55507809 7.3475194 -0.39844695 0.97091448
0.64735353 7.3401852 -0.39845842 0.97091365
0.73955077 7.3316698 -0.39846992 0.97091287
1.1071386 7.2860742 -0.39851561 0.9709096
1.2899511 7.2563672 -0.39853835 0.97090799
1.5626855 7.2032323 -0.39857227 0.97090542
1.6531054 7.1832323 -0.39858353 0.97090459
1.8332129 7.1398144 -0.39860594 0.97090304
1.9228418 7.1164355 -0.39861709 0.97090214
2.189873 7.0394626 -0.39865035 0.97089988
2.2782226 7.0116014 -0.39866138 0.97089899
2.5410743 6.9213085 -0.3986941 0.97089672
2.7143457 6.8556542 -0.3987157 0.97089511
2.9710448 6.7490039 -0.39874771 0.97089285
3.3067381 6.5918941 -0.39878958 0.97088981
3.3894141 6.5499902 -0.3987999 0.97088909
3.4715331 6.5070605 -0.39881012 0.97088832
3.6341405 6.418066 -0.39883041 0.97088695
3.7146094 6.3720798 -0.39884049 0.97088611
3.7944822 6.3250389 -0.39885044 0.97088546
3.8737597 6.2770214 -0.39886031 0.97088474
4.030498 6.1780076 -0.39887992 0.97088319
4.1846189 6.0750389 -0.39889914 0.97088206
4.2607713 6.0221286 -0.39890867 0.97088122
4.3362012 5.9682617 -0.39891809 0.97088057
4.4850292 5.8576756 -0.39893672 0.9708792
3.5600195 4.5304589 -0.31156868 0.97718328
3.5513377 4.2928028 -0.30127105 0.97792917
3.8856444 4.2433982 -0.31111866 0.97721529
5.1184568 5.3151364 -0.39901596 0.97087359
5.2506247 5.1850586 -0.3990325 0.97087234
5.3154883 5.1187596 -0.39904067 0.97087175
5.442656 4.983779 -0.39905661 0.97087061
5.5049415 4.9150782 -0.39906439 0.97087014
5.6866212 4.7043748 -0.39908722 0.97086841
5.7454295 4.6326365 -0.39909458 0.97086775
1.2586621 0.93884766 -0.084908903 0.99372959
1.2588184 0.91458005 -0.084137574 0.99378633
1.2592382 0.84424806 -0.081979521 0.9939453
1.2594922 0.79929686 -0.080662876 0.99404228
1.2596191 0.77736324 -0.080038905 0.99408817
1.2597461 0.75572264 -0.079436719 0.99413252
1.2598535 0.73443359 -0.078855969 0.99417531
1.2913965 0.70996094 -0.079688452 0.99411404
1.3307714 0.70995116 -0.081559144 0.99397618
1.6693066 0.70994139 -0.09809082 0.9927597
1.7293359 0.70995116 -0.10108574 0.99253947
1.7931445 0.70996094 -0.10428593 0.99230421
1.8611425 0.70996094 -0.10771313 0.99205226
1.933789 0.70996094 -0.11139118 0.99178195
2.0241601 0.71441406 -0.11607162 0.99143815
2.0241699 0.68593746 -0.11556842 0.99147511
8.8774996 2.7616405 -0.50273651 0.96344215
8.9442186 2.5377049 -0.50274503 0.96344167
8.9754686 2.4251366 -0.50274903 0.96344137
9.005312 2.3121679 -0.5027529 0.96344107
9.0606642 2.085166 -0.50275999 0.96344072
9.133008 1.7422265 -0.50276935 0.96343994
9.1542578 1.6273242 -0.50277215 0.96343964
9.2246094 1.1653417 -0.50278133 0.96343905
9.2385931 1.0493457 -0.50278318 0.96343881
9.2716408 0.70039064 -0.50278771 0.96343857
9.2914448 0.3504492 -0.50279051 0.96343857
9.2973824 0.1168457 -0.50279152 0.96343833
9.2974024 -0.11682617 -0.50279176 0.96343827
9.291523 -0.35043946 -0.50279129 0.96343827
9.2863283 -0.4671582 -0.50279075 0.96343851
9.2797461 -0.58381838 -0.50279003 0.96343839
9.2621088 -0.81683594 -0.50278813 0.96343857
9.2510347 -0.93316406 -0.50278687 0.96343887
9.2385931 -1.0493262 -0.50278544 0.96343881
9.2246485 -1.1653417 -0.50278383 0.96343893
9.1923828 -1.3967773 -0.50278008 0.96343917
9.1542969 -1.6273242 -0.50277561 0.96343952
9.1104298 -1.8568358 -0.50277036 0.96343982
9.0862885 -1.9711621 -0.5027675 0.96344018
9.0607815 -2.085166 -0.50276446 0.96344024
9.0337887 -2.1988573 -0.50276124 0.96344054
8.9755468 -2.4251561 -0.50275421 0.96344107
8.9116602 -2.6498926 -0.50274652 0.96344149
2.0241504 -0.71438473 -0.11607162 0.99143827
1.9337695 -0.70995116 -0.11139145 0.99178201
1.8611425 -0.70994139 -0.10771313 0.99205232
1.7293457 -0.70994139 -0.1010857 0.99253947
1.6693164 -0.70993161 -0.098090969 0.9927597
1.5592968 -0.70994139 -0.09264572 0.99316025
1.5087304 -0.70994139 -0.090164602 0.99334282
1.4608008 -0.70995116 -0.087826267 0.9935149
1.3719921 -0.70994139 -0.083533399 0.99383092
1.3307519 -0.70995116 -0.081559107 0.99397624
1.2599707 -0.71341795 -0.078295402 0.99421662
1.2598437 -0.73441404 -0.078855783 0.99417537
1.2597558 -0.75570309 -0.079436757 0.99413252
1.2596191 -0.7773242 -0.080038905 0.99408823
1.2592285 -0.84423828 -0.081979409 0.99394536
1.2591113 -0.86727536 -0.082673259 0.99389422
1.2589452 -0.89070308 -0.083392754 0.99384135
1.2586523 -0.93882811 -0.08490894 0.99372965
5.8627148 -4.4888673 -0.39927998 0.97085458
5.8057618 -4.5620995 -0.39927295 0.97085506
5.7478514 -4.6346092 -0.39926586 0.97085559
5.6890626 -4.7063866 -0.39925864 0.97085613
5.5073438 -4.9171872 -0.39923626 0.97085768
5.3818164 -5.0538573 -0.39922079 0.97085875
5.1871872 -5.2527833 -0.39919683 0.97086054
5.1206932 -5.317451 -0.39918867 0.97086108
5.053369 -5.3812695 -0.39918035 0.97086161
4.9852247 -5.4442091 -0.39917198 0.97086233
4.7761717 -5.627871 -0.3991462 0.97086424
