# .PCD v0.7 - Point Cloud Data file format
VERSION 0.7
FIELDS x y z intensity
SIZE 4 4 4 4
TYPE F F F F
COUNT 1 1 1 1
WIDTH 1081
HEIGHT 1
VIEWPOINT 0 0 0 1 0 0 0
POINTS 1081
DATA ascii
4.0765038 7.877861 -0.18432464 0.96513426
4.458281 7.8736324 -0.18802728 0.96444672
4.7216992 7.8707128 -0.19073141 0.96394461
5.1317968 7.8661914 -0.19517437 0.96312058
3.1336131 4.4290233 -0.11274414 0.97852731
3.1857617 4.2709079 -0.11072265 0.97890818
3.3630469 4.2798142 -0.11311202 0.97845846
6.3319726 7.8529687 -0.20962976 0.96044385
6.4949803 7.8511519 -0.21174447 0.96005309
6.8312497 7.8474512 -0.21620779 0.95922846
7.1822457 7.8435645 -0.22100446 0.95834279
8.1340427 7.8330665 -0.23466335 0.95582581
8.5492382 7.8284764 -0.24088775 0.95468098
9.2157612 7.8211226 -0.25117835 0.95279145
10.200566 7.8102536 -0.26697385 0.9498986
1.2690723 0.92203122 -0.032597158 0.99374366
1.2691015 0.89791012 -0.032306176 0.99379945
1.2691504 0.87422848 -0.03202549 0.99385321
1.2692676 0.82806641 -0.031492803 0.99395502
1.2694336 0.76154298 -0.030761909 0.99409485
1.3307421 0.70996094 -0.031343002 0.99398375
1.3719727 0.70995116 -0.032101594 0.99383861
1.5087206 0.70995116 -0.034650192 0.9933511
1.7293457 0.70996094 -0.038847122 0.99254864
1.9337597 0.70996094 -0.042807426 0.9917922
2.0018651 0.67837888 -0.04392349 0.99157912
18.351387 5.4568553 -0.39785552 0.9262616
18.41836 5.225781 -0.39785364 0.92626214
18.482481 4.9938865 -0.39785185 0.9262625
18.657362 4.2936816 -0.39784712 0.92626333
19.202597 3.6631055 -0.40623969 0.92476803
20.470097 3.6389258 -0.43205386 0.9201836
21.956856 3.619199 -0.46243659 0.9148165
23.875801 3.3215528 -0.50093508 0.90806097
23.951679 2.7204883 -0.50093335 0.90806115
23.984022 2.4192967 -0.50093263 0.90806097
24.075098 1.2111719 -0.50093102 0.90806168
24.088457 0.90856445 -0.50093096 0.9080615
24.103807 0.30292967 -0.50093114 0.90806103
24.103807 -0.30291015 -0.50093174 0.90806103
24.088573 -0.90852535 -0.50093293 0.90806109
24.058144 -1.5135937 -0.50093454 0.90806109
24.037207 -1.8157812 -0.50093549 0.90806115
24.01252 -2.1176953 -0.50093657 0.90806103
23.984159 -2.4192967 -0.50093782 0.90806049
23.915918 -3.0212696 -0.50094056 0.90806001
23.876171 -3.3215625 -0.50094217 0.9080596
23.785292 -3.9205565 -0.50094563 0.90805912
23.734297 -4.2191892 -0.50094754 0.90805852
20.149649 -4.3712111 -0.42846358 0.92081958
18.60998 -4.5297265 -0.39801911 0.92623264
18.551699 -4.7632618 -0.39802116 0.92623222
18.490448 -4.9960251 -0.39802337 0.92623198
18.289354 -5.6894922 -0.3980304 0.92623061
2.0017869 -0.65041012 -0.043739129 0.99161434
2.0018651 -0.67835939 -0.04392349 0.99157912
2.0019238 -0.70655274 -0.044116057 0.99154234
1.8611132 -0.70995116 -0.041393697 0.99206227
1.7931151 -0.70994139 -0.040076867 0.99231386
1.7293066 -0.70995116 -0.038847122 0.99254882
1.6693066 -0.70992184 -0.037695959 0.9927687
1.5593066 -0.70994139 -0.035603676 0.99316871
1.460791 -0.70994139 -0.033751257 0.993523
1.2695215 -0.71881837 -0.030316543 0.99418014
1.269453 -0.74000973 -0.030535087 0.99413842
1.2694238 -0.76152343 -0.030761909 0.99409491
1.2693652 -0.78336912 -0.030996971 0.99404997
1.2693164 -0.80551755 -0.031240653 0.99400342
1.2692676 -0.82805663 -0.031492919 0.99395508
1.2690527 -0.92200196 -0.032597389 0.99374378
1.2689843 -0.94656247 -0.032898366 0.99368614
10.817129 -8.282217 -0.2831122 0.94695228
10.536113 -8.2791204 -0.27845517 0.94780111
10.264121 -8.2761135 -0.27399614 0.94861555
10.000664 -8.2731934 -0.26971656 0.94939733
9.7452927 -8.2703905 -0.2656129 0.95014793
9.2569532 -8.2649899 -0.25788394 0.95156276
9.023242 -8.2624121 -0.2542443 0.95222956
8.7959766 -8.2599115 -0.25074768 0.95287114
8.5748634 -8.2574701 -0.24738063 0.95348865
8.149785 -8.2527828 -0.24102765 0.95465583
7.9452734 -8.2505178 -0.23802727 0.95520753
6.9930468 -8.2400093 -0.2245868 0.95768243
6.6410351 -8.2361135 -0.21986173 0.95855415
6.4704685 -8.2342281 -0.21762319 0.95896727
6.1394138 -8.2305956 -0.21337968 0.95975089
5.8208203 -8.2270699 -0.20942941 0.96048123
5.3640232 -8.2220211 -0.20400661 0.96148467
5.2168751 -8.2203999 -0.2023235 0.96179628
5.0721288 -8.2188082 -0.20069934 0.96209699
4.9296679 -8.2172461 -0.19913225 0.96238726
3.8612304 -8.2054586 -0.18845247 0.96436828
3.6110156 -8.2026854 -0.1862445 0.96477818
3.4880664 -8.2013178 -0.18520495 0.96497148
3.366416 -8.1999903 -0.18420383 0.96515733
3.0090821 -8.1960449 -0.18143718 0.96567166
2.6618359 -8.1922064 -0.17900299 0.96612442
2.5481055 -8.1909475 -0.17826 0.96626228
2.4352734 -8.1897268 -0.17755413 0.96639377
2.3232911 -8.1884861 -0.17687964 0.96651918
1.9922656 -8.184824 -0.17505386 0.9668591
1.6674707 -8.1812401 -0.17350845 0.96714681
1.5604395 -8.180068 -0.17305411 0.96723145
1.4539453 -8.1788769 -0.17262931 0.96731067
1.3479882 -8.1777248 -0.17223278 0.96738428
1.2424512 -8.1765432 -0.17186615 0.9674527
1.0326562 -8.1742477 -0.17121731 0.9675734
0.92834961 -8.1730661 -0.17093471 0.96762604
0.72060543 -8.1707907 -0.17045555 0.96771556
0.61716795 -8.1696482 -0.17025588 0.96775264
0.51392579 -8.1684961 -0.17008331 0.9677847
9.7656248e-06 -8.1628418 -0.16963145 0.9678691
-0.20513672 -8.1605759 -0.16963668 0.96786791
-0.30775389 -8.1594334 -0.16968143 0.96785986
-0.82248044 -8.15376 -0.17030208 0.96774405
-1.0297754 -8.1514645 -0.17074062 0.96766233
-1.2382812 -8.1491699 -0.17128982 0.96755987
-1.4482422 -8.1468554 -0.17195262 0.96743655
-1.7666016 -8.1433401 -0.17316143 0.96721137
-1.9815625 -8.1409664 -0.17411552 0.96703374
-2.1990039 -8.1385641 -0.17519058 0.96683353
-2.3088086 -8.1373634 -0.17577632 0.96672463
-2.4193065 -8.1361322 -0.17639187 0.96661001
-2.5306444 -8.134902 -0.17704089 0.96648926
-2.7558789 -8.1324215 -0.17843826 0.96622926
-2.8698437 -8.1311617 -0.17918704 0.96608984
-3.1007812 -8.128603 -0.18079154 0.96579152
-3.217871 -8.1273241 -0.18164787 0.9656322
-3.3360546 -8.1260157 -0.18254234 0.9654662
-3.4554687 -8.1246967 -0.18347286 0.96529305
-3.5760741 -8.1233587 -0.18444301 0.96511281
-3.6980176 -8.1220112 -0.18545403 0.96492517
-3.8213184 -8.1206541 -0.18650363 0.96472996
-4.2000389 -8.1164846 -0.18991055 0.96409726
-4.460547 -8.1136131 -0.19240689 0.96363413
-4.5934081 -8.1121283 -0.19372566 0.96338958
-5.1443162 -8.1060543 -0.19950853 0.96231753
-5.4326758 -8.1028805 -0.202728 0.9617213
-5.5803905 -8.1012402 -0.20442501 0.96140707
-5.7306442 -8.0995893 -0.20618393 0.9610815
-5.8835154 -8.0979004 -0.20800723 0.96074432
-6.6918454 -8.088994 -0.21816081 0.95886791
-7.5868554 -8.0791206 -0.23031141 0.95662719
-7.9740624 -8.0748339 -0.23582998 0.95561153
-8.3805466 -8.0703421 -0.24177487 0.95451832
-8.59165 -8.0680075 -0.244922 0.95394039
-1.0379199 -0.92671871 -0.028915443 0.99444854
-1.0380566 -0.88095701 -0.028292922 0.99456769
-1.0382227 -0.81583983 -0.027439347 0.99473113
-1.038291 -0.79497069 -0.027174415 0.99478179
-1.0383301 -0.77451169 -0.026918907 0.99483079
-1.0383788 -0.7544238 -0.026672171 0.99487805
-1.0384864 -0.71532226 -0.026204528 0.99496758
-1.0882226 -0.70994139 -0.027001036 0.99481505
-1.1503808 -0.70993161 -0.02809185 0.9946062
-1.3307323 -0.70994139 -0.031342696 0.99398381
-1.3719727 -0.70993161 -0.032101516 0.99383867
-1.6692871 -0.70995116 -0.03769619 0.99276876
-1.7293164 -0.70995116 -0.038846701 0.99254876
-1.777539 -0.70377928 -0.03972847 0.99238038
-1.7774805 -0.65256834 -0.039348029 0.99245304
-18.113905 -6.3930955 -0.39917514 0.9260264
-18.47999 -5.2432323 -0.39918545 0.92602479
-18.544531 -5.0106344 -0.39918724 0.92602438
-17.728973 -4.3152833 -0.37917587 0.92959887
-18.780947 -4.0742869 -0.39935812 0.92599374
-20.141727 -3.8422363 -0.42610881 0.92123747
-21.511709 -3.8240526 -0.45403498 0.91629702
-23.068691 -3.8024414 -0.48585123 0.91070151
-23.904013 -3.6321874 -0.50244397 0.90779704
-24.056601 -2.4265916 -0.50244749 0.90779603
-24.109989 -1.8212988 -0.5024485 0.90779597
-24.148272 -1.2148144 -0.50244904 0.90779555
-24.161631 -0.91126949 -0.50244915 0.90779555
-24.171181 -0.6075781 -0.50244915 0.90779549
-24.176905 -0.30379882 -0.50244904 0.90779549
-21.327812 0.26804686 -0.50235885 0.91819853
-21.322744 0.5360254 -0.50235844 0.91819859
-21.314335 0.80393553 -0.50235784 0.91819853
-21.26878 1.606709 -0.50235558 0.91819894
-21.246817 1.8738085 -0.50235462 0.9181993
-21.221483 2.1406446 -0.50235355 0.91819972
-21.160879 2.6732616 -0.50235105 0.91820008
-21.125614 2.9389551 -0.50234967 0.91820014
-21.087021 3.2041795 -0.50234818 0.91820008
-21.04497 3.4689062 -0.50234658 0.91820055
-20.999725 3.7330859 -0.50234485 0.91820049
-20.951035 3.9966502 -0.50234306 0.91820097
-20.898983 4.2595606 -0.50234115 0.91820163
-20.843681 4.5217967 -0.50233912 0.9182021
-20.723358 5.0441794 -0.50233477 0.91820252
-16.301504 4.6251755 -0.39909601 0.93444866
-16.114365 5.2358985 -0.39906341 0.93445349
-16.046806 5.4378028 -0.39905247 0.93445545
-15.976846 5.6388965 -0.39904144 0.93445688
-1.7783399 0.65289062 -0.044617806 0.99244893
-1.6127148 0.70996094 -0.04150112 0.99297458
-1.5087011 0.70997071 -0.039271507 0.99335074
-1.3719531 0.70995116 -0.036383323 0.99383831
-1.2913769 0.70995116 -0.034708634 0.99412107
-1.2537891 0.70996094 -0.033935662 0.99425161
-1.2178515 0.70995116 -0.033201445 0.99437559
-1.0882226 0.70995116 -0.030602263 0.99481475
-1.0377831 0.71487302 -0.029679984 0.99497062
-1.0376757 0.75392574 -0.030209502 0.99488115
-1.0376172 0.77399415 -0.030488586 0.99483395
-1.0375879 0.79443359 -0.030778008 0.99478501
-1.0375098 0.81528318 -0.031077575 0.99473441
-1.0372363 0.90294921 -0.032389451 0.9945128
-1.0371777 0.92605466 -0.032747991 0.99445218
-8.5372162 8.0170412 -0.27582869 0.95422232
-7.328867 8.0037203 -0.25559568 0.95750809
-6.963779 7.9996872 -0.24979894 0.95845169
-6.787334 7.9977341 -0.24705316 0.95889854
-6.280127 7.9921384 -0.23939319 0.96014714
-5.9588084 7.9885936 -0.23472646 0.96090877
-5.4992089 7.9835153 -0.22832043 0.96195501
-4.9229198 7.9771676 -0.22077727 0.96318859
-4.6484861 7.9741406 -0.21738972 0.96374285
-4.5143456 7.9726562 -0.21578565 0.96400553
-4.2518554 7.9697556 -0.21274737 0.96450329
-4.1233006 7.9683495 -0.21130952 0.96473885
-3.9964843 7.9669237 -0.20992289 0.964966
-3.8712792 7.9655662 -0.20858911 0.96518481
-3.3854492 7.9601951 -0.20373188 0.96598166
-3.1506152 7.9576073 -0.20157366 0.96633571
-2.8071971 7.9538183 -0.19865492 0.96681511
-2.473125 7.9501171 -0.1960931 0.96723592
-2.3636327 7.9489059 -0.19531594 0.96736372
-2.1470897 7.9465332 -0.19386938 0.96760136
-1.8279394 7.9430075 -0.19196518 0.96791446
-1.7228613 7.9418454 -0.19139856 0.96800762
-1.5145313 7.9395504 -0.19036594 0.9681775
-1.3083007 7.9372654 -0.18946238 0.96832609
-1.2058789 7.9361424 -0.18905933 0.96839243
-1.1038769 7.9350195 -0.18868691 0.96845365
-1.0022558 7.9338865 -0.18834554 0.96850985
-0.29895508 7.9261327 -0.18681026 0.9687624
-0.19920897 7.9250388 -0.18671112 0.96877879
0.29870117 7.9195409 -0.18665576 0.96878797
0.39835936 7.9184275 -0.18673195 0.96877533
0.79830074 7.9140234 -0.18733869 0.96867555
0.8987695 7.91291 -0.18756478 0.9686383
0.99950194 7.9117966 -0.18782099 0.9685961
1.1005273 7.9106836 -0.18810874 0.96854889
1.3035547 7.9084473 -0.18877462 0.96843922
1.4056543 7.9073143 -0.18915415 0.96837676
1.8186816 7.9027538 -0.19099341 0.96807444
1.923291 7.9016113 -0.19153428 0.96798539
2.0284863 7.9004493 -0.19210775 0.96789092
2.134336 7.8992772 -0.19271711 0.9677909
2.2408788 7.8981152 -0.19336101 0.9676851
2.3481543 7.896904 -0.19403811 0.96757376
2.4562109 7.8957224 -0.19475175 0.9674564
2.7854297 7.8920898 -0.19711304 0.96706831
2.897002 7.8908591 -0.19797768 0.96692657
3.0095799 7.8896289 -0.19887874 0.96677834
3.1232226 7.8883591 -0.19982067 0.96662372
3.3538084 7.8858199 -0.201828 0.96629411
3.4708984 7.8845215 -0.20289534 0.96611899
3.5892479 7.8832126 -0.20400634 0.96593666
4.2020602 7.8764548 -0.21025661 0.96491146
5.1317773 7.8661914 -0.22120589 0.96311837
3.1181543 4.5267773 -0.12946254 0.97824687
3.1215918 4.296494 -0.12507901 0.97897524
3.1845117 4.2692676 -0.12544273 0.97891498
3.2812304 4.2854686 -0.127122 0.97863603
3.3624218 4.2790036 -0.12817654 0.97846115
6.4949803 7.8511519 -0.23998493 0.9600507
7.0048242 7.8455367 -0.24771354 0.95879108
7.1822457 7.8435645 -0.25048277 0.95834029
7.5493555 7.8395114 -0.25633308 0.9573884
7.9342966 7.8352828 -0.26263073 0.95636433
8.1340427 7.8330665 -0.26596358 0.95582318
8.5492382 7.8284664 -0.27301815 0.9546783
8.765254 7.8260937 -0.27675587 0.95407254
8.9873438 7.8236327 -0.28064147 0.95344299
9.4509182 7.8185449 -0.28888819 0.95210803
9.9429102 7.8130956 -0.29782778 0.95066303
10.200566 7.8102441 -0.30258355 0.94989562
1.2682617 0.89731443 -0.036590498 0.99380314
1.2683301 0.87365234 -0.036272619 0.99385679
1.2684375 0.82750976 -0.035669938 0.99395865
1.2685058 0.8050195 -0.035384294 0.99400681
1.2685937 0.76105469 -0.034842607 0.99409837
1.2686523 0.73955077 -0.034586105 0.9941417
1.2914159 0.70995116 -0.034708593 0.9941209
1.4152832 0.70994139 -0.037291832 0.99368483
1.5593066 0.70996094 -0.04035259 0.99316823
1.6127441 0.70996094 -0.041501008 0.99297446
1.7293457 0.70996094 -0.044028625 0.99254823
1.9337597 0.70996094 -0.048517037 0.99179173
2.0040233 0.70731443 -0.050053291 0.99153298
16.132715 5.0186133 -0.3979257 0.93463433
16.194433 4.8154688 -0.39792395 0.93463463
16.310175 4.4069433 -0.39792079 0.93463522
18.095274 3.6881249 -0.43495017 0.92877412
20.989492 3.4597654 -0.50102562 0.91840714
21.104961 2.6662011 -0.50102288 0.9184072
21.165195 2.1349707 -0.5010215 0.91840756
21.230625 1.3357323 -0.50102031 0.91840756
21.245722 1.0688281 -0.50102013 0.91840762
21.257481 0.80176759 -0.50102001 0.91840762
21.265879 0.53460938 -0.50102007 0.91840762
21.272596 9.7656248e-06 -0.50102043 0.91840762
21.26586 -0.53457028 -0.50102121 0.91840768
21.257481 -0.80175781 -0.50102174 0.91840762
21.230722 -1.3357323 -0.50102317 0.9184072
21.212265 -1.6024023 -0.50102401 0.9184072
21.070116 -2.9312108 -0.50102991 0.91840601
20.896425 -3.986201 -0.50103647 0.91840523
20.844687 -4.2484665 -0.50103837 0.91840523
20.14957 -4.3712306 -0.48561177 0.92081517
16.260527 -4.6135058 -0.39809301 0.93460798
16.139687 -5.0207615 -0.39809725 0.93460703
2.0038769 -0.65109372 -0.049624939 0.9916051
1.7931151 -0.70994139 -0.045422476 0.99231339
1.6693066 -0.70992184 -0.042724188 0.99276829
1.6127245 -0.70994139 -0.041501235 0.99297458
1.5593066 -0.70994139 -0.04035221 0.99316829
1.460791 -0.70994139 -0.038253136 0.99352258
1.3307519 -0.70994139 -0.035523452 0.99398339
1.2914159 -0.70994139 -0.034708634 0.99412096
1.2686914 -0.71836913 -0.034338646 0.99418354
1.2686034 -0.76103514 -0.034842681 0.99409837
1.2685449 -0.78286129 -0.035108756 0.99405342
1.2684863 -0.80500972 -0.035384368 0.99400693
1.2684375 -0.82749999 -0.035670128 0.99395865
10.817167 -8.282217 -0.32087269 0.94694901
10.536113 -8.2791204 -0.31559658 0.94779795
10.264121 -8.2761135 -0.31054077 0.94861245
10.000684 -8.2732029 -0.30569196 0.94939417
9.4975195 -8.2676458 -0.29657072 0.9508664
9.023242 -8.2624216 -0.28815624 0.9522267
8.7959957 -8.259922 -0.28419164 0.95286822
8.1498041 -8.2527924 -0.27317536 0.95465302
7.9452734 -8.2505178 -0.26977462 0.95520484
7.3607616 -8.244072 -0.26030031 0.95674342
7.1748633 -8.2420111 -0.25737065 0.95722008
6.9930663 -8.2400198 -0.25454167 0.95767981
6.8151755 -8.2380371 -0.25181741 0.95812356
6.4704294 -8.2342377 -0.24664906 0.95896488
6.3033204 -8.2324018 -0.24420269 0.95936352
5.8208203 -8.2270699 -0.23736255 0.9604789
5.6658788 -8.2253714 -0.23524137 0.96082515
5.5136523 -8.2236814 -0.2331931 0.96115953
5.0721288 -8.2188082 -0.22746898 0.96209472
4.9296679 -8.2172461 -0.22569306 0.962385
4.2483006 -8.2097168 -0.21771379 0.96369022
3.1270311 -8.1973534 -0.2066399 0.96550512
3.0090821 -8.1960449 -0.20563667 0.96566957
2.6618359 -8.1922169 -0.20287688 0.96612233
2.5481055 -8.1909475 -0.20203701 0.96626025
2.3232911 -8.1884861 -0.20047233 0.96651715
2.2121875 -8.1872463 -0.19974512 0.96663648
2.1018555 -8.1860256 -0.19905664 0.96674973
1.9922656 -8.184824 -0.19840188 0.96685714
1.6674707 -8.1812401 -0.19665146 0.96714485
1.5604395 -8.180068 -0.19613548 0.96722943
1.4539453 -8.1788769 -0.19565305 0.96730864
1.2424512 -8.1765432 -0.19478913 0.96745074
1.1373438 -8.1753807 -0.19440591 0.9675138
1.0326562 -8.1742477 -0.19405378 0.96757144
0.72060543 -8.1707907 -0.19319029 0.96771359
0.61716795 -8.1696482 -0.19296397 0.96775067
0.51392579 -8.1684961 -0.19276977 0.96778274
0.3080371 -8.1662207 -0.19247313 0.96783161
0.2052539 -8.1650972 -0.19236983 0.96784842
9.7656248e-06 -8.1628418 -0.19225629 0.9678672
-0.10257813 -8.1616993 -0.19224419 0.9678691
-0.20513672 -8.1605759 -0.19226246 0.96786594
-0.30775389 -8.1594334 -0.19231291 0.9678579
-0.41041014 -8.1583004 -0.19239284 0.96784478
-0.51319337 -8.1571779 -0.19250129 0.96782666
-0.6161328 -8.156045 -0.1926434 0.96780348
-0.71917969 -8.1549025 -0.19281496 0.96777534
-1.2382812 -8.1491699 -0.19413716 0.96755791
-1.3430469 -8.1480074 -0.19449656 0.9674989
-1.5538671 -8.1456738 -0.19531116 0.96736497
-1.6599804 -8.1445112 -0.19576809 0.96728987
-1.7666016 -8.1433401 -0.19625817 0.9672094
-1.8737987 -8.1421576 -0.19678091 0.96712333
-1.9815625 -8.1409664 -0.19733955 0.96703178
-2.089951 -8.1397848 -0.19793078 0.96693444
-2.1990039 -8.1385641 -0.198558 0.96683156
-2.3088086 -8.1373634 -0.19922182 0.96672267
-2.5306444 -8.134902 -0.20065416 0.96648723
-2.8698437 -8.1311617 -0.20308656 0.96608782
-3.1007812 -8.128603 -0.20490621 0.96578944
-3.6980176 -8.1220112 -0.21018934 0.96492302
-3.9460645 -8.1192865 -0.21261823 0.96452487
-4.2000389 -8.1164846 -0.21524154 0.96409512
-4.460547 -8.1136131 -0.21806966 0.96363193
-4.5934081 -8.1121283 -0.21956417 0.96338737
-4.7281446 -8.1106539 -0.22111572 0.96313357
-5.0034962 -8.1076069 -0.22439051 0.96259791
-5.287324 -8.1044922 -0.22791073 0.96202242
-5.4326758 -8.1028805 -0.22976714 0.96171898
-5.5803905 -8.1012402 -0.23169205 0.96140474
-5.7306442 -8.0995893 -0.23368409 0.96107912
-6.3591795 -8.0926466 -0.24240933 0.95965606
-6.8632712 -8.0870895 -0.24981716 0.95844871
-7.0383105 -8.085166 -0.25247145 0.95801687
-7.2171383 -8.0831833 -0.25521985 0.95756936
-7.5868554 -8.0791206 -0.26103154 0.95662457
-7.9740624 -8.0748339 -0.26728457 0.95560884
-8.1747847 -8.0726166 -0.27059191 0.95507228
-1.0370898 -0.94965816 -0.033119772 0.99438941
-1.0371581 -0.92603511 -0.03274807 0.99445224
-1.0373144 -0.88033199 -0.032043573 0.99457121
-1.0373828 -0.85819334 -0.031710014 0.99462759
-1.0375098 -0.81526363 -0.031077651 0.99473447
-1.0375586 -0.79442382 -0.030777778 0.99478513
-1.0376074 -0.77398437 -0.030488586 0.99483401
-1.0376855 -0.75391603 -0.030209349 0.99488115
-1.0377539 -0.73420894 -0.029940071 0.99492663
-1.0588964 -0.70994139 -0.030026359 0.99491209
-1.2178515 -0.70994139 -0.033201292 0.99437565
-1.2537891 -0.70994139 -0.033935357 0.99425167
-1.3719727 -0.70993161 -0.036383208 0.99383825
-1.5086914 -0.70993161 -0.039271735 0.99335086
-1.5592773 -0.70994139 -0.040352095 0.99316835
-1.6692871 -0.70994139 -0.042723808 0.99276835
-1.7783301 -0.65289062 -0.044617727 0.99244899
-16.049189 -5.4385839 -0.39910927 0.9344461
-16.116327 -5.2365036 -0.39911112 0.9344458
-16.180868 -5.0335836 -0.39911297 0.9344458
-16.242939 -4.8298631 -0.39911467 0.93444544
-16.413671 -4.2143164 -0.39911941 0.93444449
-16.46542 -4.0077243 -0.39912078 0.93444419
-20.999941 -3.7330663 -0.50235283 0.91819972
-21.045313 -3.4689257 -0.50235397 0.9181993
-21.125917 -2.9389648 -0.50235593 0.918199
-21.193222 -2.4071581 -0.50235748 0.91819859
-21.268906 -1.6066699 -0.50235897 0.91819853
-21.302559 -1.0716504 -0.50235951 0.91819853
-21.314335 -0.80388671 -0.50235957 0.91819853
-21.327812 -0.26800781 -0.50235939 0.91819853
-19.080664 1.953125e-05 -0.50228852 0.92649269
-19.066992 0.71916991 -0.50228733 0.92649311
-19.056475 0.95872068 -0.50228673 0.92649305
-19.042929 1.1980957 -0.50228608 0.92649305
-19.006708 1.6762598 -0.50228441 0.92649341
-18.958574 2.1533692 -0.50228238 0.92649341
-18.863808 2.8663671 -0.50227869 0.92649394
-18.742197 3.5752831 -0.5022741 0.92649454
-18.69577 3.8105273 -0.50227237 0.92649466
-18.64625 4.0450974 -0.50227058 0.92649525
-14.474355 4.5027537 -0.39904186 0.94114769
-14.356006 4.8648534 -0.39902228 0.94115019
-1.7791991 0.6532129 -0.049892921 0.99244475
-1.7792089 0.67871094 -0.050129127 0.99240923
-1.7792675 0.70446289 -0.050375707 0.99237198
-1.6692773 0.70994139 -0.047752533 0.99276787
-1.5592773 0.70995116 -0.045101967 0.99316788
-1.5087011 0.70997071 -0.043893926 0.99335027
-1.4152539 0.70996094 -0.041681137 0.99368447
-1.3307421 0.70995116 -0.039704286 0.99398297
-1.2178515 0.70995116 -0.03710907 0.99437523
-1.1834179 0.70995116 -0.036328927 0.99449313
-1.1504102 0.70995116 -0.035586357 0.99460536
-1.1187011 0.70996094 -0.034879074 0.99471235
-1.0588964 0.70996094 -0.033560447 0.99491173
-1.0370312 0.73373044 -0.033441391 0.99492973
-1.0369042 0.77347654 -0.034053765 0.99483711
-1.0368652 0.79388672 -0.03437645 0.99478829
-1.0366309 0.85759765 -0.03541702 0.99463105
-1.0365722 0.87969726 -0.035789374 0.99457473
-1.0364746 0.90229487 -0.036175422 0.99451637
-1.0363965 0.92537105 -0.036575623 0.99445593
-1.0363183 0.94897461 -0.036990508 0.99439317
-8.5372162 8.0170507 -0.30829558 0.95421916
-8.3226166 8.0146675 -0.30415794 0.95481944
-8.1136322 8.0123634 -0.30017832 0.95539737
-7.9100389 8.0101166 -0.29634586 0.95595402
-7.7115331 8.0079193 -0.29265553 0.95649028
-7.328867 8.0037107 -0.28567812 0.95750523
-6.787324 7.9977245 -0.27613291 0.9588958
-6.4456639 7.9939742 -0.27032131 0.9597429
-6.280127 7.9921384 -0.26757002 0.96014446
-6.1178708 7.9903512 -0.2649143 0.96053201
-5.8027439 7.9868846 -0.25988108 0.96126723
-5.0634375 7.9787107 -0.24875845 0.96289378
-4.784658 7.9756346 -0.24483423 0.96346813
-3.8712792 7.9655662 -0.23314039 0.96518242
-3.7476268 7.9641991 -0.23170263 0.96539325
-3.6255078 7.9628415 -0.23032054 0.9655962
-3.5047948 7.9615035 -0.22898997 0.96579152
-3.3854492 7.9601951 -0.22770937 0.9659794
-3.2673924 7.9588962 -0.22648044 0.96616
-3.0350194 7.9563379 -0.22416541 0.96649998
-2.6948633 7.9525781 -0.22103821 0.96695942
-2.473125 7.9501171 -0.21917453 0.96723366
-2.2549706 7.9477148 -0.21747543 0.96748328
-2.1471093 7.9465232 -0.21668813 0.96759921
-1.9336035 7.9441695 -0.21523006 0.96781361
-1.7228613 7.9418454 -0.21392645 0.96800548
-1.618418 7.9406934 -0.21333043 0.9680931
-1.5145313 7.9395504 -0.21277134 0.96817535
-1.4111718 7.9383984 -0.21224838 0.9682523
-1.1038769 7.9350195 -0.21089572 0.96845156
-1.0022558 7.9338865 -0.21051408 0.96850771
-0.90099609 7.9327731 -0.2101672 0.96855873
-0.80006832 7.9316502 -0.20985441 0.96860474
-0.6994043 7.9305468 -0.20957565 0.96864575
-0.59897459 7.9294529 -0.20933151 0.96868169
0 7.922822 -0.20856199 0.968795
0.19911133 7.9206347 -0.20857127 0.96879375
0.29870117 7.9195409 -0.20862347 0.96878588
0.39835936 7.9184275 -0.20871051 0.96877319
0.49812499 7.9173336 -0.20883065 0.9687556
0.79830074 7.9140329 -0.20938779 0.96867335
0.99950194 7.9117966 -0.20992796 0.96859396
1.1005273 7.9106932 -0.21024829 0.96854669
1.201875 7.9095602 -0.21060313 0.96849447
1.3035547 7.9084568 -0.21099359 0.96843708
1.4056543 7.9073143 -0.21141785 0.96837461
1.6111816 7.9050488 -0.21237275 0.968234
1.8186816 7.9027538 -0.21347237 0.9680723
2.134336 7.8992867 -0.21540022 0.96778864
2.4562109 7.8957224 -0.21767434 0.9674542
2.5650682 7.8945312 -0.21851248 0.96733087
2.6747949 7.8933201 -0.21939184 0.96720153
2.897002 7.8908591 -0.2212778 0.96692431
3.0095799 7.8896289 -0.22228593 0.96677613
3.1232226 7.8883591 -0.2233389 0.96662146
3.3538084 7.8858199 -0.22558337 0.96629184
3.5892479 7.8832126 -0.22801821 0.96593434
3.9524705 7.879209 -0.23204844 0.96534264
4.2020798 7.8764548 -0.23500419 0.96490908
4.3293066 7.8750486 -0.23656692 0.9646799
4.458281 7.8736424 -0.2381878 0.96444213
4.8563085 7.8692479 -0.24342334 0.96367496
4.9929686 7.8677149 -0.24529989 0.96340048
5.2728319 7.8646383 -0.24925706 0.96282107
3.13042 4.424531 -0.14267753 0.97854614
3.1833007 4.2676072 -0.14015266 0.97892159
6.6613474 7.8493261 -0.27100828 0.95964295
7.1822457 7.8435645 -0.27996343 0.95833749
7.5493555 7.8395114 -0.28650248 0.95738554
8.1340036 7.8330469 -0.29726633 0.95582032
8.3389254 7.8308005 -0.30113497 0.95525849
8.765254 7.8260937 -0.30932921 0.95406944
8.9873438 7.8236327 -0.31366986 0.95343989
9.2157812 7.8211226 -0.31818861 0.95278537
9.4509182 7.8185349 -0.32288972 0.95210487
10.200566 7.8102441 -0.33819634 0.94989222
1.2672558 0.94526362 -0.041618042 0.99369389
1.2674023 0.89670897 -0.040869787 0.9938069
1.2674609 0.87307614 -0.040514983 0.99386054
1.2675488 0.84984374 -0.040172689 0.99391216
1.2675977 0.82696289 -0.039842263 0.99396223
1.2677441 0.78235352 -0.039215621 0.99405682
1.2678027 0.76056641 -0.038918722 0.99410164
1.2679101 0.71792966 -0.038356017 0.9941867
1.2914159 0.70995116 -0.038793981 0.99412054
1.3307421 0.70995116 -0.039704513 0.99398297
1.3719727 0.70995116 -0.040665511 0.99383783
1.5593066 0.70996094 -0.045101814 0.99316776
1.6127441 0.70996094 -0.04638565 0.99297398
1.6693164 0.70995116 -0.04775257 0.99276769
1.7293457 0.70996094 -0.049210507 0.99254769
1.7931445 0.70995116 -0.050768927 0.99231273
1.8611327 0.70996094 -0.052436903 0.99206114
1.9337597 0.70996094 -0.054227561 0.99179113
2.0059764 0.65177733 -0.055523641 0.99159575
14.491074 4.3089647 -0.39797804 0.94129986
14.599628 3.9447753 -0.39810959 0.9412809
14.643027 3.7596874 -0.39797387 0.94130045
15.324141 3.7299707 -0.41517919 0.938842
16.137812 3.7138476 -0.43592426 0.93588609
17.049395 3.6986816 -0.45925748 0.93257278
18.698223 3.5668848 -0.5010975 0.92666054
18.741543 3.3316405 -0.50109643 0.92666066
18.781874 3.0958691 -0.50109535 0.92666084
18.819277 2.8595898 -0.50109446 0.9266609
18.939121 1.9104102 -0.50109172 0.92666113
18.961542 1.6722753 -0.50109124 0.92666149
18.981035 1.4338574 -0.50109094 0.92666161
19.011074 0.95642579 -0.50109047 0.92666155
19.021601 0.71744138 -0.50109041 0.92666155
19.029121 0.47835937 -0.50109041 0.92666155
19.033613 0.23920898 -0.50109053 0.92666155
19.033613 -0.23917969 -0.501091 0.92666155
18.997715 -1.1952245 -0.50109315 0.92666101
18.98123 -1.4338379 -0.50109398 0.9266609
18.939199 -1.9103906 -0.50109577 0.9266609
18.782129 -3.0958593 -0.50110197 0.92665994
18.741737 -3.3316503 -0.50110352 0.92665994
18.698456 -3.5669043 -0.50110513 0.9266597
16.051817 -4.3371091 -0.4377079 0.93563229
14.486953 -4.5066209 -0.39939025 0.94109803
2.0060449 -0.67978513 -0.055757903 0.99156052
1.8611132 -0.70995116 -0.05243656 0.9920612
1.7931151 -0.70994139 -0.050768394 0.99231285
1.6127245 -0.70994139 -0.046385497 0.99297404
1.5593066 -0.70994139 -0.045101661 0.99316782
1.4152637 -0.70994139 -0.041680831 0.99368447
1.3307519 -0.70994139 -0.039704435 0.99398297
1.2914159 -0.70994139 -0.038793791 0.99412054
1.2679003 -0.71791011 -0.038356055 0.99418676
1.2677832 -0.76054686 -0.038918838 0.99410176
1.2677149 -0.78233397 -0.039215468 0.99405694
1.267666 -0.8044824 -0.039523315 0.99401039
1.267539 -0.84981441 -0.040172651 0.99391228
1.2673827 -0.89669919 -0.04086975 0.99380702
1.267334 -0.92075193 -0.041237336 0.99375147
10.817167 -8.282217 -0.3586382 0.94694543
10.536113 -8.2791204 -0.35274282 0.9477945
10.264121 -8.2761135 -0.34709182 0.94860899
10.000684 -8.2732029 -0.34167254 0.94939077
9.7452927 -8.2704 -0.33647063 0.95014161
9.023242 -8.2624216 -0.32207263 0.95222348
8.7959957 -8.259922 -0.31763977 0.95286506
8.5748634 -8.2574806 -0.31337786 0.95348269
8.3595505 -8.2550879 -0.309277 0.95407736
7.7457418 -8.2483301 -0.2978653 0.9557336
7.3607616 -8.244072 -0.29093829 0.9567405
6.9930663 -8.2400198 -0.28450152 0.95767695
6.4704881 -8.2342377 -0.27568007 0.95896196
6.1394138 -8.2305956 -0.27030602 0.95974576
5.9786134 -8.2288275 -0.26775748 0.9601174
5.8208203 -8.2270699 -0.26530176 0.96047622
5.6658788 -8.2253714 -0.26292837 0.96082252
5.5136523 -8.2236814 -0.26064014 0.9611569
5.3640232 -8.2220211 -0.25843081 0.96147972
5.0721288 -8.2188177 -0.25424096 0.9620921
4.9296679 -8.2172461 -0.25225636 0.96238244
4.6511817 -8.21416 -0.24849394 0.962933
4.3807421 -8.2111816 -0.24499477 0.96344525
4.1176171 -8.2082815 -0.24174337 0.96392149
3.9886034 -8.2068453 -0.24020626 0.96414685
3.8612304 -8.2054491 -0.23872608 0.96436375
3.7353711 -8.2040625 -0.23730218 0.96457261
3.4880664 -8.2013178 -0.23461203 0.96496701
3.366416 -8.1999903 -0.23334625 0.96515286
3.2461035 -8.1986713 -0.23212728 0.96533138
3.0090821 -8.1960545 -0.22984029 0.96566725
2.8923047 -8.194746 -0.2287659 0.96582484
2.6618359 -8.1922169 -0.22675672 0.96612
2.5481055 -8.1909475 -0.22581704 0.96625793
2.2121875 -8.1872463 -0.22325654 0.96663421
1.9922656 -8.184824 -0.22175404 0.96685487
1.8833593 -8.1836233 -0.22106314 0.96695644
1.3479882 -8.1777248 -0.21818054 0.96738011
1.2424512 -8.1765432 -0.2177161 0.96744853
1.1373438 -8.1753807 -0.21728764 0.96751159
0.82432616 -8.1719332 -0.21621479 0.96766919
0.72060543 -8.1707907 -0.21592805 0.96771139
0.41089842 -8.1673727 -0.21527515 0.96780741
0.3080371 -8.1662207 -0.21512742 0.96782941
0.10262695 -8.1639547 -0.21493062 0.9678582
9.7656248e-06 -8.1628418 -0.21488412 0.96786499
-0.20513672 -8.1605759 -0.21489204 0.9678638
-0.41041014 -8.1583004 -0.21503676 0.96784264
-0.6161328 -8.156045 -0.21531671 0.96780133
-0.71917969 -8.1549025 -0.2155086 0.96777314
-0.82248044 -8.1537495 -0.21573479 0.96773994
-1.2382812 -8.1491699 -0.2169873 0.9675557
-1.3430469 -8.1480074 -0.21738805 0.96749669
-1.4482422 -8.1468458 -0.21782562 0.96743238
-1.5538671 -8.1456833 -0.21829867 0.9673627
-1.6599804 -8.1445112 -0.21880928 0.96728766
-2.1990039 -8.1385641 -0.2219276 0.9668293
-2.3088086 -8.1373634 -0.22266826 0.9667204
-2.4193065 -8.1361322 -0.22345033 0.96660572
-2.642832 -8.1336718 -0.22513425 0.96635801
-3.1007812 -8.128603 -0.22902381 0.96578711
-3.217871 -8.1273241 -0.23010878 0.96562785
-3.3360741 -8.1260157 -0.23124059 0.96546173
-3.4554687 -8.1247072 -0.23241939 0.96528852
-3.5760937 -8.1233587 -0.23364948 0.96510828
-3.6980369 -8.1220217 -0.23492891 0.96492058
-4.0722656 -8.1178904 -0.23908193 0.96431166
-4.3294334 -8.1150484 -0.24212682 0.9638654
-4.460547 -8.1136131 -0.24373691 0.96362948
-4.8648243 -8.1091404 -0.24893722 0.96286798
-5.0035157 -8.1076174 -0.25080162 0.96259528
-5.1443162 -8.1060543 -0.25273314 0.9623127
-5.4326758 -8.1028805 -0.25681108 0.96171635
-5.5803905 -8.1012497 -0.25896007 0.96140212
-5.8835349 -8.0979099 -0.26349774 0.9607392
-6.1976953 -8.0944433 -0.26836997 0.96002799
-6.3592186 -8.0926561 -0.2709398 0.9596532
-6.6918359 -8.0889845 -0.27636108 0.95886272
-6.8632617 -8.0870991 -0.27922091 0.95844591
-7.2171288 -8.0831928 -0.28526101 0.9575665
-7.3999023 -8.081172 -0.2884469 0.95710266
-7.7781835 -8.0770111 -0.2951844 0.95612293
-7.9740624 -8.0748434 -0.29874435 0.9556058
-8.1747847 -8.0726271 -0.3024396 0.95506924
-1.0363183 -0.94895506 -0.03699043 0.99439317
-1.0364941 -0.90228516 -0.03617527 0.99451637
-1.0365624 -0.87969726 -0.035789374 0.99457479
-1.036709 -0.83591795 -0.035057563 0.99468535
-1.0368457 -0.79387695 -0.034376677 0.99478835
-1.0369922 -0.75340819 -0.033742178 0.99488419
-1.1186817 -0.70993161 -0.034878768 0.99471247
-1.1503808 -0.70993161 -0.035586126 0.99460548
-1.1834277 -0.70994139 -0.036329079 0.99449313
-1.2178515 -0.70994139 -0.03710907 0.99437523
-1.2537891 -0.70994139 -0.037929799 0.99425125
-1.2913769 -0.70994139 -0.038793791 0.99412066
-1.4152637 -0.70993161 -0.041680906 0.99368447
-1.4607617 -0.70994139 -0.042755432 0.99352223
-1.7293164 -0.70995116 -0.049210243 0.99254781
-1.7791895 -0.65319335 -0.049892806 0.99244481
-14.417226 -4.6844435 -0.39905715 0.94114536
-14.634658 -3.9541991 -0.39906323 0.94114429
-15.229765 -3.9103222 -0.41391951 0.93902159
-16.013319 -3.8976855 -0.43384901 0.93618119
-16.890547 -3.8870506 -0.45625708 0.932998
-18.742519 -3.5753124 -0.50228173 0.92649335
-18.785957 -3.3395116 -0.5022828 0.92649341
-18.826445 -3.1031737 -0.50228387 0.92649341
-18.898584 -2.6290917 -0.5022856 0.92649299
-18.930126 -2.3914161 -0.50228637 0.92649305
-18.984257 -1.9149413 -0.50228757 0.92649299
-19.026455 -1.4372559 -0.50228834 0.92649269
-19.067129 -0.71913081 -0.50228888 0.92649263
-19.074638 -0.47947264 -0.50228882 0.92649269
-17.260633 2.9296874e-05 -0.5022313 0.93325973
-17.259268 0.21691406 -0.50223106 0.93325973
-17.23875 0.86726558 -0.50222969 0.93326002
-17.226435 1.0837988 -0.50222909 0.9332602
-17.211454 1.300205 -0.50222844 0.9332602
-17.193682 1.5163574 -0.5022276 0.9332605
-17.173281 1.7322949 -0.50222677 0.93326044
-17.150146 1.9479687 -0.50222582 0.9332605
-17.124336 2.1633301 -0.50222474 0.93326044
-17.064482 2.5929589 -0.50222242 0.93326074
-16.993769 3.0209472 -0.50221974 0.93326133
-16.954424 3.2342381 -0.50221825 0.93326151
-16.912363 3.447041 -0.5022167 0.93326181
-16.820341 3.8709276 -0.50221342 0.93326205
-16.770292 4.0819821 -0.50221157 0.93326235
-14.523613 4.1207519 -0.43927404 0.94137555
-13.837822 4.1147361 -0.42006236 0.94386607
-13.041698 4.2375293 -0.3990044 0.94660378
-12.987294 4.4010348 -0.39899868 0.94660431
-1.7800488 0.65351564 -0.055173911 0.99244064
-1.7800683 0.67904294 -0.055435713 0.992405
-1.7801172 0.70481443 -0.055708122 0.99236774
-1.6127148 0.70996094 -0.051270865 0.99297351
-1.5592773 0.70995116 -0.04985195 0.9931674
-1.4607617 0.70996094 -0.047258377 0.99352169
-1.3719531 0.70995116 -0.044948462 0.99383742
-1.3307421 0.70995116 -0.043886032 0.99398249
-1.2538086 0.70995116 -0.041924477 0.99425071
-1.1834179 0.70995116 -0.040155143 0.99449271
-1.1504102 0.70995116 -0.039334372 0.99460495
-1.1187011 0.70996094 -0.038552474 0.99471194
-1.0882226 0.70996094 -0.037806548 0.99481398
-1.0362891 0.75291991 -0.037270773 0.99488723
-1.0360644 0.81413084 -0.03834011 0.99474096
-1.0359863 0.83534175 -0.038722914 0.99468863
-1.0358105 0.87907225 -0.039530296 0.99457824
-8.1136522 8.0123634 -0.33179393 0.95539397
-7.9100389 8.0101166 -0.32755676 0.95595068
-7.1442285 8.0016603 -0.3121188 0.95798248
-6.787324 7.9977341 -0.30521318 0.9588927
-6.6146774 7.9958301 -0.30194479 0.95932388
-6.4456539 7.9939647 -0.29879111 0.95973992
-6.280127 7.9921288 -0.29574975 0.96014148
-6.1179004 7.9903417 -0.29281583 0.96052903
-5.8027344 7.9868751 -0.28725269 0.96126437
-5.4991989 7.9835057 -0.28207061 0.96194959
-5.2062302 7.9802732 -0.27724516 0.96258819
-4.9229198 7.9771676 -0.2727502 0.96318328
-4.784658 7.9756346 -0.27062196 0.96346539
-4.2518554 7.9697556 -0.26283127 0.96449816
-4.1233201 7.9683394 -0.2610549 0.96473378
-3.7476268 7.9641991 -0.25610608 0.96539062
-2.8072166 7.9538183 -0.24542123 0.96681029
-2.6948633 7.9525781 -0.2443185 0.96695697
-2.473125 7.9501171 -0.24225752 0.96723121
-2.3636327 7.9489059 -0.24129625 0.96735901
-2.2549706 7.9477148 -0.24037948 0.96748084
-2.1471093 7.9465232 -0.23950915 0.96759677
-2.0399902 7.9453416 -0.23868272 0.96770686
-1.9336425 7.9441695 -0.23789762 0.96781117
-1.8279394 7.9429979 -0.23715667 0.96790987
-1.7228613 7.9418454 -0.23645762 0.96800303
-1.618418 7.9406934 -0.23579793 0.96809071
-1.5145313 7.9395504 -0.23517978 0.96817297
-1.4111718 7.9383984 -0.23460297 0.96824992
-1.3083007 7.9372654 -0.23406568 0.9683215
-1.1038769 7.9350195 -0.23310666 0.96844918
-1.0022558 7.9338865 -0.232686 0.96850532
-0.90099609 7.9327731 -0.23230147 0.96855634
-0.80006832 7.9316502 -0.23195675 0.96860236
-0.6994043 7.9305468 -0.23164868 0.96864337
-0.29895508 7.9261327 -0.23078819 0.96875793
-0.19920897 7.9250388 -0.23066568 0.96877432
-0.099580079 7.9239354 -0.23057869 0.96878588
-9.7656248e-06 7.922822 -0.2305291 0.96879262
0.099550776 7.9217186 -0.23051418 0.96879447
0.19911133 7.9206347 -0.23053741 0.96879143
0.39835936 7.9184275 -0.23069148 0.96877086
0.49812499 7.9173336 -0.23082423 0.96875322
0.69805664 7.9151363 -0.23119776 0.96870333
0.79830074 7.9140329 -0.23144008 0.96867102
0.99950194 7.9117966 -0.2320369 0.96859157
1.1005273 7.9106932 -0.2323913 0.9685443
1.3035547 7.9084473 -0.23321596 0.96843469
1.4056543 7.9073143 -0.23368488 0.96837223
1.5081836 7.9061813 -0.23419298 0.96830457
1.8186816 7.9027538 -0.23595484 0.96806985
2.0284863 7.9004493 -0.23733291 0.96788633
2.134336 7.8992867 -0.23808555 0.96778625
2.2408788 7.8981051 -0.2388809 0.96768051
2.3481543 7.896904 -0.23971753 0.96756911
2.5650682 7.8945312 -0.24152654 0.96732843
2.7854004 7.8920898 -0.24351728 0.96706367
2.897002 7.8908591 -0.24458231 0.96692181
3.0095799 7.8896289 -0.24569671 0.96677363
3.1232226 7.8883591 -0.24686126 0.9666189
3.2379296 7.8870993 -0.24807559 0.96645755
4.2020798 7.8764548 -0.25975436 0.96490639
4.3293066 7.8750486 -0.26148278 0.96467727
4.458281 7.8736324 -0.2632741 0.96443945
4.5890527 7.8721972 -0.26513362 0.96419287
3.1168554 4.5248923 -0.15987304 0.97825271
3.1288476 4.4222946 -0.15762398 0.9785552
3.1189356 4.2928224 -0.15440723 0.97898996
3.2789745 4.2824998 -0.15693809 0.97864753
3.3611035 4.2773337 -0.1582894 0.97846639
3.4432616 4.2703223 -0.15961376 0.97828752
6.4949803 7.8511424 -0.29648095 0.96004498
6.6613669 7.8493161 -0.29954979 0.95963991
6.8312693 7.8474412 -0.30272982 0.95922017
7.0048046 7.8455176 -0.30602908 0.9587853
7.3636913 7.8415623 -0.31299695 0.95786697
7.5493164 7.8395114 -0.31667611 0.95738244
7.9342966 7.8352733 -0.32445934 0.95635813
8.1340036 7.8330469 -0.32857507 0.95581704
8.3389254 7.8308005 -0.33284956 0.95525509
9.2157812 7.8211226 -0.35170037 0.95278186
9.9429102 7.8130956 -0.36794105 0.95065606
10.200566 7.8102441 -0.37381569 0.94988847
1.2665527 0.8961035 -0.04514404 0.99381059
1.2667187 0.84927732 -0.044374425 0.99391574
1.2667675 0.82643551 -0.044009473 0.99396569
1.2668555 0.80397457 -0.043657683 0.99401373
1.2669824 0.76007813 -0.042990074 0.99410498
1.267041 0.73862302 -0.042673949 0.99414825
1.2670996 0.71748048 -0.042369001 0.99418998
1.2914159 0.70995116 -0.0428796 0.99412006
1.3307421 0.70996094 -0.043886185 0.99398249
1.3719727 0.70995116 -0.044948652 0.99383736
1.4608008 0.70995116 -0.047258262 0.99352157
1.5593066 0.70996094 -0.049851876 0.99316722
1.6127441 0.70996094 -0.05127098 0.99297345
1.7293457 0.70996094 -0.054393616 0.99254709
1.7931249 0.70995116 -0.056115303 0.99231219
1.8611327 0.70996094 -0.057959441 0.99206054
2.0082715 0.70879883 -0.061966781 0.99151385
2.0081444 0.68050778 -0.061695289 0.99155104
2.008086 0.65247071 -0.061435468 0.99158633
13.256016 3.7610741 -0.40093398 0.94635236
13.873144 3.7484765 -0.41814339 0.9441154
16.125195 3.7109473 -0.48145989 0.93592983
16.83209 3.6515429 -0.50115609 0.93339795
16.8766 3.4397266 -0.5011549 0.93339813
16.918516 3.2273729 -0.50115383 0.93339807
16.99416 2.8011913 -0.50115186 0.93339849
17.027988 2.5874023 -0.50115103 0.9333986
17.087559 2.1586719 -0.50114959 0.9333989
17.11334 1.943789 -0.50114906 0.93339884
17.136425 1.7285742 -0.50114858 0.93339884
17.174433 1.297412 -0.50114781 0.9333989
17.189394 1.0814648 -0.50114763 0.93339884
17.201542 0.8653906 -0.50114745 0.93339914
17.211054 0.64916992 -0.50114739 0.9333992
17.221972 0.21644531 -0.50114751 0.93339902
17.222012 -0.21642578 -0.50114793 0.9333989
17.217909 -0.43281248 -0.50114828 0.93339896
17.174511 -1.2973731 -0.50115055 0.9333986
17.156836 -1.513086 -0.50115138 0.93339866
17.136581 -1.7285644 -0.50115228 0.93339825
17.028183 -2.5874317 -0.50115657 0.93339789
16.994316 -2.8012207 -0.50115788 0.93339789
16.918692 -3.227412 -0.50116068 0.93339741
16.876894 -3.4397459 -0.50116223 0.93339705
16.04244 -4.3345995 -0.4835287 0.93566382
15.239863 -4.3239355 -0.46093792 0.93857509
13.86002 -4.3116112 -0.42234859 0.94356948
2.008086 -0.65246093 -0.061435621 0.99158633
2.0081639 -0.680498 -0.061694983 0.99155098
2.0082617 -0.70878905 -0.061966781 0.99151391
1.8611132 -0.70995116 -0.057959326 0.9920606
1.7931151 -0.70994139 -0.056115072 0.99231225
1.7293066 -0.70994139 -0.054393232 0.99254727
1.6127245 -0.70994139 -0.051271055 0.99297351
1.5593066 -0.70994139 -0.049851798 0.99316728
1.3719727 -0.70995116 -0.044948425 0.99383736
1.3307519 -0.70994139 -0.043886337 0.99398249
1.267041 -0.73860347 -0.042673912 0.99414831
1.2669238 -0.78183591 -0.043317869 0.99406022
1.2667773 -0.82642579 -0.044009704 0.99396569
1.2666992 -0.84925777 -0.044374425 0.9939158
1.2666211 -0.87248045 -0.044752311 0.99386418
1.2665527 -0.89609373 -0.045143891 0.99381059
10.817148 -8.2822266 -0.39640909 0.94694149
10.264121 -8.2761135 -0.38364673 0.94860518
9.7452927 -8.2704 -0.3719084 0.95013785
9.4975195 -8.2676458 -0.36638942 0.95085943
9.2569723 -8.2649994 -0.36108685 0.95155293
8.5748634 -8.2574806 -0.34638202 0.95347917
8.3595505 -8.2550879 -0.34184936 0.95407391
7.3607616 -8.244072 -0.32157901 0.95673722
7.1748438 -8.2420216 -0.31795895 0.957214
6.6410351 -8.2361231 -0.30784824 0.95854568
6.470449 -8.2342482 -0.30471399 0.95895892
6.1394138 -8.2305956 -0.29877377 0.95974272
5.8208203 -8.2270803 -0.29324251 0.96047318
5.5136719 -8.2236814 -0.28809008 0.96115392
5.3640428 -8.2220306 -0.28564799 0.96147674
5.0721483 -8.2188082 -0.2810185 0.96208924
4.6511912 -8.2141695 -0.27466583 0.96293014
4.5149803 -8.2126656 -0.27269703 0.96319097
4.3807225 -8.2111816 -0.27079815 0.9634425
4.2482615 -8.2097263 -0.26896679 0.96368504
3.9886034 -8.2068548 -0.26550421 0.96414411
3.6110156 -8.2026854 -0.26077798 0.96477097
3.2460938 -8.1986523 -0.25657541 0.96532887
3.1270311 -8.1973534 -0.25528571 0.96550018
2.8922949 -8.1947651 -0.25285921 0.96582222
2.6618359 -8.1922064 -0.25063813 0.9661175
2.5481055 -8.1909475 -0.24959959 0.96625543
2.4352734 -8.1897268 -0.24860962 0.96638691
2.3232911 -8.1884861 -0.24766651 0.96651232
1.9922656 -8.184824 -0.24510874 0.96685237
1.8833593 -8.1836233 -0.24434493 0.96695399
1.7750976 -8.1824312 -0.24362418 0.96704984
1.5604395 -8.180068 -0.24230872 0.96722472
1.4539453 -8.1788769 -0.24171279 0.96730399
1.3479882 -8.1777248 -0.24115989 0.9673776
1.2424512 -8.1765432 -0.24064527 0.96744603
1.1373438 -8.1753807 -0.24017192 0.96750909
1.0326562 -8.1742477 -0.23973812 0.96756679
0.92834961 -8.1730661 -0.23934259 0.96761942
0.72060543 -8.1707907 -0.23867024 0.96770895
0.61716795 -8.1696482 -0.23839182 0.96774602
0.51390624 -8.1685057 -0.23814961 0.96777809
0.41089842 -8.1673727 -0.23794842 0.96780503
0.3080371 -8.1662207 -0.23778407 0.96782696
-0.10257813 -8.1616993 -0.23750135 0.96786451
-0.41041014 -8.1583004 -0.23768382 0.96784019
-0.51319337 -8.1571779 -0.23782024 0.96782202
-0.6161328 -8.156045 -0.23799428 0.96779889
-0.82248044 -8.1537495 -0.23845553 0.9677375
-1.1338671 -8.150322 -0.23943524 0.96760708
-1.2382812 -8.1491699 -0.23984088 0.96755326
-1.3430469 -8.1480074 -0.24028383 0.96749425
-1.5538671 -8.1456833 -0.24128944 0.96736026
-1.8737987 -8.142148 -0.24310617 0.96711868
-1.9815625 -8.1409664 -0.24379608 0.96702701
-2.089951 -8.1397848 -0.24452665 0.96692973
-2.4193065 -8.1361322 -0.2469835 0.96660322
-2.642832 -8.1336718 -0.24884592 0.9663555
-3.1007812 -8.128603 -0.25314406 0.96578455
-3.217871 -8.1273241 -0.25434425 0.96562523
-3.3360546 -8.1260157 -0.25559425 0.96545917
-3.9460645 -8.1192865 -0.26267174 0.9645198
-4.0722656 -8.1178904 -0.26426035 0.96430898
-4.7281446 -8.1106634 -0.27316952 0.96312827
-5.2873144 -8.1044922 -0.28156435 0.962017
-5.5803809 -8.1012497 -0.28623459 0.9613992
-5.7306442 -8.0995998 -0.28869757 0.96107352
-6.0391793 -8.0962009 -0.29389408 0.96038687
-7.2171288 -8.0831928 -0.31530413 0.95756328
-7.3999023 -8.081172 -0.31882796 0.95709938
-7.7781835 -8.0770111 -0.32627404 0.95611966
-7.9740624 -8.0748434 -0.33020744 0.95560247
-8.1747847 -8.0726271 -0.33429167 0.95506585
-8.5916405 -8.0680275 -0.34293747 0.95393103
-1.0355567 -0.9482519 -0.040856093 0.99439687
-1.0356445 -0.9246875 -0.040398024 0.99445951
-1.0357226 -0.9016211 -0.039956398 0.99452001
-1.03583 -0.87906247 -0.03953018 0.99457818
-1.0358984 -0.85697263 -0.039119415 0.99463445
-1.0360644 -0.81414062 -0.038340263 0.99474096
-1.036123 -0.79333007 -0.037971038 0.99479157
-1.0362109 -0.77292967 -0.037614707 0.99484026
-1.0362891 -0.75289059 -0.037270699 0.99488729
-1.0363574 -0.73323238 -0.03693863 0.99493265
-1.0588964 -0.70994139 -0.037094992 0.99491137
-1.1186817 -0.70993161 -0.038552321 0.99471205
-1.1834277 -0.70994139 -0.040154837 0.99449271
-1.2178515 -0.70994139 -0.041017454 0.99437481
-1.2537891 -0.70994139 -0.041924629 0.99425083
-1.2913769 -0.70994139 -0.042879485 0.99412024
-1.3719727 -0.70993161 -0.044948347 0.99383736
-1.4152637 -0.70993161 -0.04607071 0.99368399
-1.7293164 -0.70995116 -0.054393195 0.99254721
-1.7800585 -0.67901367 -0.055435371 0.99240512
-1.7800293 -0.65350586 -0.055173796 0.9924407
-12.931309 -4.5639648 -0.39901033 0.94660294
-12.987705 -4.4011426 -0.39901191 0.9466027
-13.042089 -4.237617 -0.39901346 0.94660228
-13.094356 -4.0733981 -0.39901495 0.94660211
-13.831621 -3.9243846 -0.41834384 0.94408917
-15.218096 -3.9073436 -0.45716375 0.9390623
-16.013319 -3.8976855 -0.47954109 0.93617648
-16.820673 -3.870996 -0.50222164 0.9332608
-16.867989 -3.6593065 -0.5022229 0.9332608
-16.912724 -3.4470701 -0.50222409 0.93326044
-16.954706 -3.2342675 -0.50222516 0.93326044
-17.030624 -2.8071778 -0.50222707 0.93326044
-17.064629 -2.5929589 -0.5022279 0.9332602
-17.095869 -2.3783104 -0.50222868 0.9332602
-17.124403 -2.1633008 -0.50222939 0.9332602
-17.150303 -1.9479394 -0.50222993 0.93325996
-17.193907 -1.5163379 -0.50223088 0.93325967
-17.226562 -1.0837696 -0.50223142 0.93325979
-17.238848 -0.86722654 -0.5022316 0.93325967
-17.24836 -0.65052736 -0.50223166 0.93325973
-15.757304 1.953125e-05 -0.50218409 0.93888599
-15.756064 0.19801757 -0.50218385 0.93888599
-15.752275 0.39597654 -0.5021835 0.93888617
-15.696279 1.3842871 -0.5021807 0.9388864
-15.656513 1.7783203 -0.50217903 0.93888646
-15.632891 1.974912 -0.50217807 0.93888658
-15.606816 2.1712012 -0.50217706 0.9388867
-15.578242 2.3671386 -0.50217593 0.93888688
-15.51373 2.7578516 -0.50217348 0.9388873
-15.261641 3.9185545 -0.5021643 0.93888837
-15.211191 4.1100001 -0.50216252 0.93888837
-12.61166 4.0978122 -0.42261848 0.94831389
-11.804921 4.1664548 -0.3989656 0.95113444
-1.7808985 0.65383786 -0.060461156 0.99243635
-1.7809668 0.70514649 -0.061046753 0.99236351
-1.7293164 0.70995116 -0.059576683 0.99254662
-1.6127148 0.70996094 -0.056157034 0.99297297
-1.5087011 0.70997071 -0.053140298 0.99334919
-1.4607617 0.70996094 -0.051762007 0.99352115
-1.3719531 0.70995116 -0.04923214 0.99383688
-1.3307421 0.70995116 -0.048068464 0.99398202
-1.2913769 0.70995116 -0.046965942 0.9941197
-1.2538086 0.70995116 -0.045919988 0.99425024
-1.2178515 0.70996094 -0.044926528 0.99437428
-1.1834179 0.70995116 -0.043981742 0.99449229
-1.1504102 0.70995116 -0.043082848 0.99460453
-1.0356543 0.7327441 -0.040432088 0.99493563
-1.0355078 0.77240235 -0.041171264 0.9948433
-1.0353417 0.81356442 -0.041964643 0.99474418
-1.0349902 0.90098631 -0.0437323 0.99452341
-1.0347949 0.94756836 -0.04471653 0.9944005
-8.5372362 8.0170307 -0.37324047 0.95421195
-7.328867 8.0037107 -0.34585851 0.95749849
-6.9637694 7.9996777 -0.33801308 0.95844233
-5.9588184 7.988574 -0.31761938 0.96089995
-5.4991989 7.9835057 -0.30895239 0.96194643
-5.2062302 7.9802732 -0.30366597 0.96258509
-5.0634274 7.9787011 -0.30116108 0.96288794
-4.6484861 7.9741306 -0.29416144 0.96373469
-4.1233106 7.9683299 -0.28593308 0.96473092
-3.9964745 7.9669237 -0.28405902 0.96495813
-3.747617 7.9641891 -0.28051344 0.96538782
-3.6255078 7.962832 -0.27883908 0.96559078
-3.5047851 7.9615035 -0.27722827 0.96578616
-3.3854492 7.9601855 -0.27567908 0.96597403
-3.1506054 7.9575973 -0.27276006 0.96632814
-2.9205761 7.9550681 -0.27007076 0.96665442
-2.6949022 7.9525681 -0.26760256 0.96695417
-2.3636327 7.9489059 -0.26429233 0.96735632
-2.2549706 7.9477148 -0.26328814 0.96747816
-2.1471093 7.9465232 -0.26233491 0.96759403
-1.9336425 7.9441695 -0.26056975 0.96780849
-1.618418 7.9406934 -0.25826997 0.96808803
-1.4111718 7.9383984 -0.25696006 0.96824729
-1.2058789 7.9361424 -0.25582513 0.96838528
-1.1038769 7.9350195 -0.2553221 0.96844655
-1.0022558 7.9338865 -0.25486034 0.9685027
-0.90099609 7.9327731 -0.25443935 0.96855372
-0.80006832 7.9316502 -0.2540628 0.96859974
-0.6994043 7.9305563 -0.25372526 0.96864069
-0.59897459 7.9294529 -0.25342768 0.96867675
-0.49879882 7.9283299 -0.25317258 0.96870792
-0.19920897 7.9250388 -0.25264764 0.96877176
