# .PCD v0.7 - Point Cloud Data file format
VERSION 0.7
FIELDS x y z intensity
SIZE 4 4 4 4
TYPE F F F F
COUNT 1 1 1 1
WIDTH 1069
HEIGHT 1
VIEWPOINT 0 0 0 1 0 0 0
POINTS 1069
DATA ascii
2.6668162 -8.2076168 0.059771881 0.96606821
2.5528417 -8.206357 0.059524536 0.96620637
2.4398143 -8.2051172 0.059287831 0.9663381
2.1057422 -8.2014256 0.058646314 0.96669662
1.9959375 -8.2001953 0.05845356 0.96680427
1.8868457 -8.1989937 0.058271255 0.96690595
1.7784179 -8.1978025 0.0580994 0.96700197
1.5633398 -8.1954193 0.057785224 0.96717715
1.4566602 -8.1942377 0.057643738 0.96725643
1.3504492 -8.1930857 0.057512015 0.96733022
1.1394726 -8.190732 0.057275388 0.96746188
0.93002927 -8.1884279 0.057078131 0.96757233
0.82582027 -8.1872854 0.056993064 0.96761972
0.51487303 -8.1838379 0.056794278 0.96773124
0.41164061 -8.1826954 0.056744918 0.96775824
0.3085742 -8.1815624 0.056705665 0.96778017
0.205625 -8.1804104 0.0566753 0.96779716
0 -8.178154 0.056641769 0.96781588
-0.10279296 -8.177021 0.056639288 0.96781778
-0.20554687 -8.1758881 0.056644898 0.96781468
-0.30835935 -8.174736 0.056659393 0.96780664
-0.61730468 -8.1713381 0.056756627 0.96775216
-0.72057617 -8.1701851 0.056806982 0.96772397
-0.82405269 -8.1690521 0.056865424 0.96769065
-0.92777342 -8.1679001 0.056934889 0.96765226
-1.0317187 -8.166748 0.05701248 0.96760875
-1.3456055 -8.163271 0.057301674 0.9674471
-1.450996 -8.1621189 0.057417564 0.96738267
-1.9852929 -8.1562109 0.058138769 0.96697927
-2.0938768 -8.1550093 0.058313064 0.96688187
-2.4238868 -8.1513767 0.058898732 0.96655476
-2.7610352 -8.1476364 0.059583891 0.96617353
-2.8752148 -8.1463766 0.059833068 0.96603388
-3.2239063 -8.1425295 0.060654487 0.96557552
-3.3423338 -8.1412201 0.060953252 0.96540916
-3.4619141 -8.1398926 0.061263349 0.96523583
-3.8284862 -8.135849 0.062276646 0.96467179
-3.9534569 -8.1344528 0.062640719 0.9644686
-4.0798926 -8.1330662 0.063019939 0.96425742
-4.3375392 -8.1302242 0.063823238 0.9638105
-4.4688964 -8.1287689 0.064247094 0.96357429
-4.7370019 -8.1258001 0.065144576 0.96307516
-4.8739157 -8.1242971 0.0656192 0.96281165
-5.1539259 -8.1212006 0.066618152 0.9622556
-5.2972264 -8.1196194 0.067145921 0.96196228
-5.5908203 -8.1163673 0.068261258 0.96134365
-5.7413473 -8.1147165 0.068846546 0.96101755
-5.8945312 -8.1130075 0.069455072 0.96067983
-6.0504293 -8.1112986 0.070087776 0.96033001
-6.3710742 -8.1077538 0.071417846 0.95959222
-6.8760738 -8.1021576 0.073600426 0.9583832
-7.230566 -8.0982418 0.075192757 0.9575026
-7.413691 -8.096221 0.076033168 0.95703799
-7.600996 -8.0941505 0.076905131 0.95655638
-7.7926464 -8.092021 0.077808604 0.95605707
-8.3961525 -8.0853615 0.080731846 0.95444411
-8.607646 -8.0830374 0.081782378 0.95386529
-8.824707 -8.0806246 0.082872272 0.95326442
-1.0458106 -0.93374997 0.0097101592 0.99440753
-1.0456641 -0.88742185 0.0094987489 0.99452901
-1.0456054 -0.86500001 0.0093987267 0.99458647
-1.0455371 -0.84304684 0.0093023684 0.99464196
-1.045498 -0.77985352 0.009033775 0.99479622
-1.0454491 -0.7396875 0.0088700484 0.99489033
-1.0882422 -0.70997071 0.0089992136 0.99481595
-1.1504004 -0.70995116 0.0093628308 0.99460715
-1.1834375 -0.70996094 0.0095584486 0.99449486
-1.2178711 -0.70997071 0.0097636795 0.9943769
-1.2913965 -0.70996094 0.010206756 0.99412245
-1.3307519 -0.70996094 0.010446396 0.99398488
-1.3719921 -0.70995116 0.010699387 0.99383974
-1.4152832 -0.70995116 0.010966529 0.99368638
-1.5592968 -0.70996094 0.011866417 0.99317002
-1.6692969 -0.70995116 0.012563782 0.99277008
-1.7690234 -0.72625977 0.013244743 0.99237978
-1.7690527 -0.67484373 0.013113632 0.99245483
-1.7690625 -0.64948243 0.013052253 0.99249011
-19.156992 -4.1558986 0.13576935 0.9245832
-24.603106 -4.0553708 0.1727026 0.90507019
-1.7698926 0.67512691 0.0078720087 0.99245143
-1.7698926 0.70074219 0.0079106139 0.99241459
-1.460791 0.70992184 0.0067492295 0.99352437
-1.4152539 0.70993161 0.0065795896 0.99368662
-1.3307421 0.70992184 0.0062677381 0.99398506
-1.1834179 0.70993161 0.0057349778 0.99449503
-1.1504004 0.70994139 0.0056175613 0.99460721
-1.1187011 0.70994139 0.0055060959 0.99471414
-1.058916 0.70993161 0.0052977754 0.99491346
-1.0447558 0.7391699 0.0053184126 0.99489385
-1.0447754 0.79995114 0.0054681776 0.99475038
-1.0447949 0.82097656 0.0055218507 0.994699
-1.0448145 0.86434567 0.005634842 0.99459064
-8.7410736 8.0041113 0.049251862 0.95369744
-8.5209274 8.0016699 0.048574485 0.95431978
-7.8949313 7.9947653 0.046691205 0.95605087
-7.3148828 7.9883494 0.045011215 0.95759881
-7.1305957 7.9863181 0.04449112 0.95807815
-6.7743554 7.9823828 0.043506622 0.95898646
-6.6020312 7.9804783 0.043040503 0.95941669
-6.2681251 7.9767871 0.042157285 0.9602325
-6.1061816 7.9749999 0.041739158 0.96061921
-5.9474216 7.9732418 0.041336402 0.96099252
-5.4886913 7.9681735 0.04020771 0.96203661
-5.1962695 7.964941 0.039519843 0.96267384
-5.0537305 7.9633594 0.039193954 0.96297604
-4.9135251 7.9618063 0.038878057 0.96326762
-4.6395993 7.9587793 0.038281593 0.96382082
-4.3737793 7.9558592 0.037727661 0.96433574
-4.2437205 7.9544139 0.037465781 0.96457964
-3.9888475 7.9515915 0.036968078 0.9650414
-3.7404785 7.9488573 0.036507376 0.96547008
-3.6185448 7.9474998 0.036287878 0.96567273
-3.4980762 7.9461718 0.036078606 0.96586758
-3.3789356 7.9448533 0.03587715 0.9660551
-2.801826 7.9384861 0.034983404 0.9668867
-2.0361133 7.9300194 0.034022406 0.96778119
-1.615332 7.9253807 0.033612251 0.96816421
-1.5116503 7.9242282 0.033523977 0.96824628
-1.3058106 7.9219432 0.03336506 0.96839458
-1.203584 7.9208398 0.033293381 0.96846074
-1.0003711 7.9185839 0.033167496 0.96857792
-0.49787107 7.9130273 0.032947846 0.96878266
-0.39804688 7.9119239 0.032919884 0.96880883
-0.19887695 7.9097166 0.032879598 0.96884644
-0.099414058 7.9086328 0.032867201 0.96885794
0.099326171 7.9064255 0.03285801 0.96886647
0.19868164 7.9053221 0.032860372 0.96886349
0.2980957 7.9042282 0.032869719 0.96885562
0.39757812 7.9031248 0.03288326 0.96884298
0.59683591 7.9009275 0.032927245 0.96880299
0.69668943 7.8998241 0.032955587 0.96877563
0.89698243 7.8976169 0.033029478 0.96870625
0.99752927 7.8964939 0.033075791 0.96866417
1.0983593 7.8953905 0.033125687 0.96861702
1.1995019 7.8942676 0.033181913 0.96856493
1.4029003 7.8920212 0.033309247 0.9684453
1.5052148 7.8908887 0.033381157 0.96837783
1.711328 7.8886132 0.033543434 0.96822703
2.0245409 7.8851562 0.0338303 0.96796054
2.2365136 7.8828025 0.034050252 0.96775532
2.4514356 7.8804393 0.034295425 0.96752697
2.5600781 7.8792281 0.034428213 0.96740401
3.0037303 7.8743262 0.035023268 0.96685052
1.7647461 4.4572067 0.019920997 0.9810071
1.7648633 4.2988572 0.019311104 0.98158342
1.8931054 4.3003612 0.019525528 0.98138088
1.9575878 4.2995214 0.019632263 0.98128051
4.0685544 7.8625684 0.036788214 0.96520793
4.1939063 7.8611813 0.037025716 0.96498758
4.3209181 7.8597851 0.037272491 0.96475887
4.4496093 7.8583593 0.037527695 0.96452171
4.5801368 7.856914 0.037792701 0.96427566
4.8468943 7.8539648 0.038352087 0.9637562
5.2625976 7.8493748 0.039272077 0.96290416
5.4056835 7.8477926 0.039600372 0.96259946
5.5512304 7.8461814 0.039940871 0.96228379
5.8500977 7.8428903 0.040660284 0.96161801
6.4823241 7.8358984 0.042261504 0.96013731
6.8179493 7.8321872 0.043150824 0.95931441
7.1682615 7.8283005 0.044108544 0.95843059
7.5346875 7.8242579 0.045139197 0.95748067
7.7244334 7.8221579 0.045683213 0.95697916
7.9188671 7.8200097 0.046248246 0.95645881
8.1181831 7.8178024 0.046835363 0.95591891
8.3226757 7.8155661 0.047443923 0.95535833
8.5325584 7.813242 0.04807701 0.95477647
8.7481833 7.8108497 0.048736151 0.95417196
8.9698238 7.8083982 0.049419593 0.95354378
9.1978321 7.8058786 0.050131645 0.95289069
9.4324799 7.8032813 0.050871618 0.95221174
9.6742382 7.8006148 0.051642455 0.95150524
9.9235353 7.7978415 0.052444648 0.95076972
10.180683 7.7950191 0.053282697 0.95000386
1.2768261 0.90334958 0.0064997482 0.99376321
1.2767968 0.85601562 0.0063878628 0.99387002
1.2767773 0.83295894 0.0063353726 0.99392068
1.2767675 0.78791988 0.0062345886 0.99401665
1.2767578 0.76593751 0.0061872862 0.99406213
1.2767578 0.7442773 0.0061413189 0.99410594
1.3307226 0.70992184 0.0062678144 0.99398512
1.3719629 0.70993161 0.0064194105 0.99383998
1.4152539 0.70993161 0.0065797805 0.99368662
1.4607714 0.70993161 0.0067493818 0.99352443
1.5087206 0.70993161 0.0069289398 0.99335253
1.5592675 0.70994139 0.0071199033 0.99317026
1.612705 0.70994139 0.0073224255 0.99297649
1.6692773 0.70993161 0.0075381086 0.99277031
1.7931151 0.70994139 0.0080143353 0.99231541
1.9337401 0.70993161 0.0085603334 0.99179405
1.9831543 -0.672041 0.0087015918 0.99165916
1.9337597 -0.70996094 0.0085605998 0.99179393
1.7931347 -0.70996094 0.0080143353 0.99231535
1.7293261 -0.70997071 0.0077684401 0.99255025
1.6692871 -0.70995116 0.0075383759 0.99277025
1.6127245 -0.70996094 0.0073226546 0.99297643
1.4607714 -0.70996094 0.0067492295 0.99352437
1.4152637 -0.70998043 0.0065797805 0.9936865
1.2913965 -0.70996094 0.0061241151 0.99412256
1.2767383 -0.72293943 0.0060972213 0.99414831
1.2767481 -0.765957 0.006187248 0.99406213
1.2767675 -0.7879492 0.0062347031 0.99401659
1.2767675 -0.81026363 0.0062839505 0.9939695
1.2767968 -0.83295894 0.0063351057 0.99392056
1.2768261 -0.9033789 0.0064994809 0.99376309
1.2768261 -0.9276855 0.0065584565 0.99370682
10.83752 -8.2979002 0.056722336 0.9468655
10.283496 -8.2917871 0.054895781 0.94853133
10.019531 -8.2888765 0.054038506 0.94931436
9.7636719 -8.2860546 0.053214911 0.95006627
9.5153904 -8.2833099 0.052426223 0.95078886
9.0402536 -8.2780466 0.050937727 0.95215124
8.8125191 -8.2755365 0.050237998 0.95279396
8.5909958 -8.2730761 0.049562301 0.95341247
8.3752737 -8.2706833 0.048914604 0.95400798
8.1651173 -8.2683887 0.048289832 0.95458144
7.7603316 -8.263896 0.04710884 0.95566666
7.5651951 -8.2617483 0.046551056 0.95618004
7.1883202 -8.2575979 0.045495491 0.95715243
7.0061913 -8.2555857 0.044996679 0.95761293
6.3151364 -8.24792 0.043167684 0.95929939
6.150918 -8.2461233 0.042750664 0.95968491
5.831738 -8.242588 0.041959573 0.96041638
5.6765037 -8.240859 0.041583288 0.96076328
5.5239844 -8.2391891 0.041221693 0.96109813
5.3740625 -8.2375288 0.04087181 0.96142143
5.0816212 -8.2342873 0.040209349 0.96203482
4.9389062 -8.2327147 0.039895933 0.96232551
4.7983398 -8.2311621 0.039592706 0.96260613
4.5234375 -8.2281342 0.039018858 0.96313804
4.2562304 -8.2251654 0.038486328 0.96363288
4.1253123 -8.2237301 0.038233869 0.96386689
3.7423632 -8.219492 0.037530821 0.96451902
3.4945507 -8.2167578 0.037105065 0.96491402
3.0147069 -8.2114553 0.036351357 0.96561527
2.5528319 -8.206357 0.035714034 0.96620685
2.2163086 -8.2026272 0.035309333 0.96658373
2.1057813 -8.201416 0.035188138 0.9666971
1.9959375 -8.2002048 0.03507141 0.96680468
1.6705956 -8.1966114 0.034762077 0.96709281
1.3504688 -8.1930666 0.03450653 0.96733075
1.1394628 -8.1907415 0.034365349 0.96746236
0.93003905 -8.1884174 0.034247056 0.96757287
0.82583982 -8.1872749 0.034194868 0.96762025
0.7219336 -8.1861134 0.034150429 0.96766257
0.61828125 -8.1849709 0.034111287 0.96769971
0.51486325 -8.1838379 0.03407589 0.96773171
0.41162109 -8.1826849 0.034046937 0.96775877
0.30855468 -8.1815624 0.034023285 0.96778065
-0.10279296 -8.177021 0.033982925 0.96781826
-0.20555663 -8.1758881 0.033986356 0.96781516
-0.30835935 -8.1747456 0.033994902 0.96780705
-0.41123044 -8.173584 0.034009054 0.96779406
-0.5141992 -8.1724606 0.034028396 0.96777588
-0.61730468 -8.1713381 0.034053266 0.96775264
-1.0317383 -8.1667385 0.034208488 0.96760929
-1.2406055 -8.1644239 0.03431797 0.96750677
-1.5568359 -8.1609373 0.034525033 0.96731341
-2.0938866 -8.1550093 0.034987677 0.96688241
-2.4238672 -8.1513672 0.035339013 0.9665553
-2.5354102 -8.1501265 0.035469513 0.96643442
-2.6477733 -8.1488962 0.035606306 0.96630728
-2.761045 -8.1476364 0.0357497 0.96617401
-2.875205 -8.1463766 0.035898779 0.96603441
-2.9903905 -8.1450977 0.036056783 0.96588832
-3.2238867 -8.142519 0.036391638 0.96557611
-3.3423047 -8.1412201 0.036571007 0.9654097
-3.4619238 -8.1399021 0.036757734 0.96523631
-3.582793 -8.1385546 0.036952019 0.96505576
-5.7413473 -8.1147165 0.041307714 0.96101815
-5.8944921 -8.1130075 0.041672897 0.96068054
-6.0504394 -8.111289 0.042052001 0.96033061
-6.2092381 -8.1095314 0.042443465 0.95996827
-6.3710546 -8.1077442 0.042851105 0.95959294
-6.5360546 -8.1059179 0.043270722 0.95920402
-7.0514355 -8.1002245 0.044628866 0.95795137
-7.9889255 -8.0898628 0.047247618 0.9555397
-8.6076365 -8.0830269 0.049069863 0.953866
-8.8247261 -8.0806246 0.049723282 0.95326507
-1.0448632 -0.93291014 0.0058208085 0.99441266
-1.0448047 -0.84246093 0.0055773542 0.99464577
-1.0448047 -0.82099605 0.0055217743 0.99469894
-1.0447754 -0.75906247 0.005366554 0.99484766
-1.1187011 -0.70996094 0.0055060578 0.99471408
-1.1504004 -0.70995116 0.0056177899 0.99460721
-1.1834375 -0.70996094 0.0057349778 0.99449492
-1.2913965 -0.70996094 0.006123886 0.99412256
-1.4152832 -0.70995116 0.0065797805 0.9936865
-1.4607812 -0.70995116 0.0067493436 0.99352431
-1.5087109 -0.70995116 0.0069291303 0.99335253
-1.6127148 -0.70995116 0.0073223496 0.99297643
-1.7699023 -0.70076168 0.0079105375 0.99241453
-1.7699023 -0.67514646 0.0078719324 0.99245137
-1.7699121 -0.64981443 0.0078349682 0.9924866
-19.1521 -4.4075389 0.081667475 0.92439896
-23.109159 -4.1080565 0.097535931 0.91038597
-1.7707324 0.65007812 0.0026128769 0.9924832
-1.6692773 0.70994139 0.0025128173 0.99277037
-1.5087011 0.70994139 0.0023097992 0.99335259
-1.4152539 0.70993161 0.0021932982 0.99368668
-1.3307421 0.70993161 0.0020893477 0.99398506
-1.2538086 0.70993161 0.0019958497 0.99425316
-1.2178515 0.70994139 0.0019527435 0.9943772
-1.1834179 0.70993161 0.0019117355 0.99449509
-1.1187011 0.70994139 0.0018353652 0.9947142
-1.0882226 0.70994139 0.0017999267 0.99481618
-1.044082 0.86372066 0.0018770599 0.99459451
-1.0440723 0.90886718 0.0019176102 0.99447834
-8.3067284 7.9993162 0.015974807 0.95491904
-7.3148437 7.988359 0.015003319 0.95759922
-6.950459 7.9843359 0.014663353 0.95854086
-6.7743649 7.9823828 0.014501419 0.9589867
-6.6020408 7.9804883 0.014345932 0.95941693
-6.2680955 7.9767871 0.014051666 0.96023285
-5.9473925 7.9732518 0.013778687 0.96099281
-5.7916894 7.9715233 0.013648223 0.96135312
-5.6387987 7.9698434 0.013523178 0.96170098
-5.4887009 7.9681735 0.0134021 0.96203685
-5.3412108 7.9665527 0.013285064 0.9623611
-4.7754784 7.9603024 0.012858619 0.96354944
-4.6396093 7.9587989 0.012761306 0.96382099
-4.5057325 7.957324 0.012667198 0.96408314
-4.2437305 7.9544234 0.012488518 0.96457982
-4.1154294 7.9530077 0.01240345 0.96481496
-3.3789454 7.9448633 0.011959495 0.96605527
-3.2611425 7.9435644 0.011894951 0.96623546
-3.0292089 7.9409957 0.011772728 0.96657479
-2.9149706 7.9397364 0.011716042 0.96673417
-2.8018162 7.9384861 0.011661644 0.96688694
-2.3591015 7.9335938 0.011464157 0.96743441
-2.2506444 7.9323926 0.011421165 0.96755594
-1.8244433 7.9276953 0.011268844 0.96798402
-1.4084862 7.9230957 0.011147575 0.96832329
-1.3058202 7.9219527 0.011121635 0.96839476
-1.2035937 7.9208398 0.011097373 0.96846098
-0.8993066 7.9174609 0.01103733 0.96862906
-0.79853517 7.916357 0.011021156 0.96867496
-0.69809568 7.9152341 0.011006622 0.96871591
-0.49788085 7.9130368 0.010983848 0.96878284
-0.29839844 7.9108396 0.010966034 0.96883023
0.19870117 7.9053321 0.01095417 0.96886367
0.29810545 7.9042478 0.010956841 0.9688558
0.39756835 7.9031348 0.010961418 0.96884316
0.49711913 7.902041 0.01096775 0.96882558
0.99753904 7.8965135 0.011025123 0.96866435
1.0983593 7.8953905 0.011042213 0.96861726
1.1995214 7.8942771 0.01106121 0.96856511
1.3010156 7.8931541 0.011081161 0.96850789
1.4029101 7.8920407 0.011104049 0.96844548
1.5052539 7.8908982 0.011127776 0.96837801
1.6080176 7.8897557 0.011153412 0.96830529
1.8151562 7.8874803 0.011211776 0.96814382
2.0245311 7.8851657 0.011277352 0.96796077
2.1301856 7.8839941 0.01131237 0.96786094
2.2365332 7.882822 0.011350403 0.96775544
2.3435936 7.8816404 0.011389694 0.96764421
2.4514258 7.8804393 0.011431121 0.96752721
2.5600781 7.8792381 0.011476821 0.96740419
2.7800195 7.8768163 0.011570396 0.96713996
2.891377 7.8755856 0.011621361 0.96699852
3.0037401 7.8743453 0.011673584 0.96685064
1.7641211 4.29707 0.0064346693 0.98159117
1.822998 4.286377 0.0064519118 0.98154074
3.8225195 7.865293 0.012113571 0.96562481
3.9447851 7.863945 0.012186928 0.96542042
4.068574 7.8625779 0.012262916 0.96520811
4.5801368 7.8569236 0.01259819 0.9642759
4.9833007 7.8524704 0.012882614 0.96348244
5.1218162 7.8509374 0.012984619 0.9631986
5.2625976 7.8493848 0.013090667 0.96290439
5.4056835 7.8478026 0.013199692 0.96259969
5.5512695 7.8462009 0.013314094 0.96228391
5.8501368 7.8428807 0.013551902 0.96161824
6.1601171 7.8394527 0.013809738 0.96090412
6.4823241 7.8359079 0.01408699 0.96013761
6.6484179 7.8340721 0.014231185 0.95973337
6.9911718 7.8302732 0.0145409 0.95888078
7.168242 7.8283105 0.014704322 0.95843095
7.3493748 7.8262987 0.014872894 0.95796454
7.9188671 7.8200097 0.015416373 0.95645916
8.1181831 7.8178024 0.015611267 0.95591927
8.5325775 7.8132224 0.016024666 0.95477676
8.9698238 7.8083982 0.016472358 0.95354414
9.432519 7.8033004 0.016957588 0.95221198
9.9235353 7.7978516 0.017481079 0.95077008
1.275957 0.95176756 0.0022050093 0.99365288
1.275957 0.92703122 0.0021848297 0.99371117
1.2759472 0.90274411 0.0021651078 0.9937675
1.2759374 0.8788867 0.002146225 0.9938218
1.2759472 0.83240235 0.0021102906 0.99392468
1.2759277 0.76542968 0.0020610809 0.99406606
1.2759277 0.74378902 0.0020459366 0.99410981
1.2913769 0.70993161 0.0020413972 0.99412274
1.4152539 0.70994139 0.0021934127 0.99368668
1.4607714 0.70993161 0.0022497938 0.99352443
1.5087206 0.70993161 0.0023097228 0.99335259
1.5592871 0.70994139 0.0023730467 0.9931702
1.612705 0.70994139 0.0024409867 0.99297655
1.7293066 0.70994139 0.0025894928 0.99255043
1.7931151 0.70994139 0.0026713943 0.99231547
1.8611034 0.70993161 0.0027592848 0.992064
23.536268 7.6474414 0.034280814 0.90575165
1.9852148 -0.70068359 0.0029161833 0.9916144
1.9337597 -0.70996094 0.0028534317 0.99179399
1.7293261 -0.70997071 0.0025896835 0.99255031
1.6692871 -0.70996094 0.0025127411 0.99277031
1.5592871 -0.70996094 0.0023734283 0.9931702
1.5087206 -0.70996094 0.0023098753 0.99335253
1.4152637 -0.70998043 0.0021934127 0.99368656
1.3719823 -0.70997071 0.002140007 0.99383986
1.2913965 -0.70996094 0.0020414733 0.99412256
1.2759179 -0.72248048 0.0020311736 0.99415207
1.2759277 -0.74380857 0.0020459746 0.99410981
1.2759179 -0.76545894 0.0020612716 0.994066
1.2759374 -0.83242184 0.0021102524 0.99392468
1.2759472 -0.87892574 0.0021461868 0.99382168
1.2759668 -0.90275389 0.0021652603 0.99376738
1.275957 -0.92705077 0.0021846772 0.99371111
1.275957 -0.95176756 0.0022050857 0.99365288
10.837559 -8.2979097 0.018907126 0.9468658
10.555976 -8.294795 0.018595161 0.94771612
9.7636909 -8.2860451 0.017738609 0.95006657
9.5154295 -8.2833004 0.017474936 0.95078915
9.0402536 -8.2780466 0.016979789 0.9521516
8.1651363 -8.2683887 0.016096076 0.95458174
7.9602342 -8.2661037 0.015895385 0.95513439
7.7603316 -8.263916 0.01570343 0.9556669
7.1883593 -8.2575779 0.015164452 0.95715272
7.0061913 -8.2555857 0.014998741 0.95761329
6.6535153 -8.2516699 0.014683723 0.95848638
6.4825974 -8.2497749 0.014532623 0.95890027
6.1509376 -8.2461033 0.014249687 0.95968521
5.9898629 -8.2443256 0.014116173 0.96005738
5.831738 -8.2425776 0.013986435 0.96041673
5.2266603 -8.2358885 0.013511505 0.96173382
5.0816407 -8.2342873 0.013403587 0.96203506
4.9388866 -8.2327147 0.013298035 0.96232587
4.5234571 -8.2281151 0.013006553 0.96313834
4.3889256 -8.2266302 0.012916489 0.96339023
4.2562108 -8.2251759 0.012828712 0.96363312
3.3727343 -8.2153997 0.012301864 0.96510041
3.1328321 -8.2127638 0.012175675 0.96545088
2.8976953 -8.210166 0.012060318 0.96577334
2.7817383 -8.2088766 0.012006111 0.9659245
2.5528319 -8.2063475 0.011906089 0.96620715
2.4398046 -8.2051077 0.011858177 0.96633887
2.3276367 -8.2038574 0.011812515 0.96646452
2.1057618 -8.2014065 0.011728439 0.96669739
1.9959472 -8.2001953 0.011690712 0.96680498
1.7783984 -8.197793 0.011618995 0.96700275
1.6705859 -8.1965914 0.011587829 0.96709317
1.4566406 -8.1942282 0.011528702 0.96725726
1.3504688 -8.1930666 0.01150177 0.96733105
1.0345703 -8.1895704 0.011433678 0.96752048
0.61828125 -8.1849709 0.011370621 0.96769994
0.51486325 -8.1838379 0.011359138 0.96773201
0.30855468 -8.1815529 0.011340484 0.96778095
-1.953125e-05 -8.1781349 0.011328774 0.96781671
-0.10279296 -8.1770115 0.011327972 0.96781856
-0.30834961 -8.174736 0.011332168 0.96780735
-0.72058594 -8.1701851 0.011361503 0.96772468
-0.92776364 -8.1678905 0.011386719 0.96765304
-1.0317383 -8.1667385 0.011402092 0.96760952
-1.1360059 -8.165576 0.011420059 0.96756089
-1.6631249 -8.1597557 0.011535987 0.96723855
-2.2031641 -8.1537991 0.011700325 0.96677947
-2.3131444 -8.1525679 0.011739158 0.96667057
-2.5353808 -8.1501169 0.011822471 0.96643472
-2.8752148 -8.1463766 0.011966209 0.96603465
-3.7049413 -8.1371975 0.012384606 0.96486813
-3.8284569 -8.1358395 0.012455329 0.96467263
-4.0798826 -8.1330471 0.012604599 0.96425831
-4.7369723 -8.1258001 0.013028869 0.96307606
-4.8739061 -8.1242971 0.013123169 0.96281254
-5.4428024 -8.1179981 0.013539009 0.96165937
-5.5908103 -8.1163673 0.013651924 0.96134454
-6.3710742 -8.1077337 0.014282493 0.95959318
-6.8760839 -8.1021681 0.014719849 0.9583841
-7.0514255 -8.100234 0.014875869 0.95795166
-7.230576 -8.0982513 0.015038795 0.9575035
-7.9889059 -8.0898628 0.015748482 0.95554006
-8.18999 -8.0876369 0.015943032 0.95500278
-8.3961811 -8.0853615 0.016146125 0.95444506
-8.6076365 -8.0830269 0.016356735 0.95386636
-1.0440723 -0.93220699 0.0019389724 0.99441695
-1.044082 -0.90888667 0.0019174957 0.99447823
-1.0440918 -0.86374998 0.0018769836 0.9945944
-1.0440723 -0.84186524 0.0018578338 0.99464953
-1.0440527 -0.82041991 0.0018391418 0.99470276
-1.0440429 -0.79941404 0.0018214035 0.99475402
-1.0440625 -0.77878904 0.0018041229 0.99480343
-1.0440723 -0.73869139 0.0017717361 0.99489719
-1.058916 -0.70996094 0.001765976 0.9949134
-1.0882422 -0.70997071 0.0017998886 0.99481606
-1.1187011 -0.70996094 0.001835556 0.99471414
-1.1504004 -0.70995116 0.0018725204 0.99460727
-1.1834375 -0.70996094 0.0019115829 0.99449497
-1.2538086 -0.70996094 0.0019957733 0.9942531
-1.2913965 -0.70996094 0.0020413208 0.99412256
-1.4607812 -0.70995116 0.0022497559 0.99352437
-1.5087109 -0.70996094 0.0023095321 0.99335253
-1.5592968 -0.70996094 0.0023733901 0.99317014
-1.7707324 -0.72696286 0.0026515196 0.99237263
-1.7707422 -0.70109373 0.0026382445 0.99241102
-19.140194 -4.1522555 0.027130775 0.9246484
-23.109209 -4.1080565 0.032512322 0.91038644
-1.771582 0.67578125 -0.0026265716 0.99244428
-1.7715918 0.70140624 -0.0026392746 0.99240738
-1.7293164 0.70994139 -0.0025894546 0.99255037
-1.5087011 0.70994139 -0.0023096465 0.99335259
-1.4607714 0.70993161 -0.0022498702 0.99352443
-1.2538086 0.70993161 -0.0019959258 0.99425316
-1.2178515 0.70994139 -0.0019526671 0.9943772
-1.1834179 0.70993161 -0.0019117355 0.99449509
-1.1504004 0.70994139 -0.0018723678 0.99460727
-1.1187011 0.70994139 -0.0018352889 0.9947142
-1.058916 0.70993161 -0.0017657471 0.99491346
-1.0433398 0.7782324 -0.0018029785 0.99480706
-1.0433105 0.79882812 -0.0018200302 0.99475777
-1.0433203 0.81982422 -0.0018379211 0.99470651
-1.0433301 0.8630957 -0.0018754959 0.99459839
-1.0433398 0.88541991 -0.0018954086 0.99454135
-1.0433007 0.90820312 -0.0019159317 0.9944824
-1.0433007 0.93151367 -0.0019372177 0.99442106
-7.5035253 7.9904294 -0.015183143 0.95710212
-7.3148437 7.9883494 -0.015002975 0.95759922
-6.7743649 7.9823728 -0.014502067 0.95898676
-6.6020408 7.9804587 -0.014346656 0.95941705
-6.4333496 7.9786034 -0.014197578 0.95983219
-6.2681346 7.9767771 -0.014051132 0.96023279
-5.9474316 7.9732323 -0.01377758 0.96099281
-5.7916503 7.9715233 -0.01364849 0.96135318
-5.4887009 7.968164 -0.013402138 0.96203691
-5.3412108 7.9665427 -0.013285903 0.9623611
-5.05374 7.9633594 -0.013064079 0.96297628
-4.7754784 7.9602928 -0.012857627 0.96354944
-4.6396093 7.9587889 -0.012759551 0.96382105
-4.243711 7.9544139 -0.012488708 0.96457988
-3.9888377 7.9516015 -0.012322235 0.96504164
-3.740459 7.9488573 -0.01216877 0.96547037
-3.3789454 7.9448533 -0.011958961 0.96605533
-3.261162 7.9435449 -0.011894379 0.96623552
-3.1445897 7.9422655 -0.011832618 0.96640861
-2.9149706 7.9397264 -0.011714897 0.96673423
-2.6897266 7.9372363 -0.011608352 0.96703327
-2.5786035 7.9360056 -0.011558342 0.96717316
-2.4684081 7.9347849 -0.01151165 0.96730685
-2.3591015 7.9335837 -0.011465339 0.96743441
-2.1430078 7.931201 -0.011379546 0.96767157
-2.0361035 7.9300194 -0.01133995 0.96778142
-1.7195996 7.9265137 -0.011234131 0.968077
-1.615332 7.9253707 -0.011203919 0.9681645
-1.5116601 7.9242187 -0.011174888 0.96824658
-1.4084862 7.9230857 -0.01114685 0.96832329
-1.3058202 7.9219432 -0.011121712 0.96839482
-1.1017969 7.9196973 -0.011075248 0.96852213
-1.0003809 7.9185739 -0.011054993 0.96857816
-0.59788084 7.9141212 -0.010993996 0.96875191
-0.39805663 7.9119239 -0.010973434 0.96880907
-0.099414058 7.9086132 -0.010955772 0.96885824
0.39756835 7.9031248 -0.010960312 0.96884316
0.49711913 7.9020309 -0.010966529 0.96882564
0.59680665 7.900918 -0.010975341 0.96880323
0.69667965 7.8998141 -0.010985031 0.96877593
1.0983593 7.8953805 -0.011041946 0.96861732
1.3010156 7.8931441 -0.011081237 0.96850789
1.4028906 7.8920116 -0.011103896 0.9684456
1.5052539 7.8908887 -0.011127548 0.96837801
1.7112988 7.8886032 -0.011181946 0.96822733
2.0245311 7.8851461 -0.011277352 0.96796083
2.1301856 7.8839841 -0.011312866 0.967861
2.2365332 7.8828125 -0.011350174 0.9677555
2.4514258 7.8804297 -0.011430931 0.96752721
2.6695995 7.8780174 -0.011522484 0.9672752
1.7633593 4.2952833 -0.0064316178 0.98159879
1.8919336 4.2977343 -0.0065044402 0.98139232
1.9563867 4.296875 -0.0065398789 0.98129201
3.8225195 7.865283 -0.012112656 0.96562487
4.7125196 7.8554492 -0.01268978 0.96402091
4.8468747 7.8539648 -0.012784232 0.9637565
5.1218162 7.8509274 -0.01298397 0.9631986
5.262578 7.8493652 -0.013090591 0.96290451
5.4056835 7.8477831 -0.013199692 0.96259975
5.8500977 7.8428707 -0.013552589 0.96161836
6.3196287 7.8376856 -0.013946151 0.96052766
6.6484179 7.8340526 -0.014232139 0.95973343
6.8179493 7.8321776 -0.014383201 0.95931476
7.1682615 7.8283105 -0.014703483 0.95843089
7.534668 7.8242478 -0.015046386 0.95748109
7.9188476 7.8200097 -0.015415115 0.95645922
8.5325584 7.8132324 -0.016026229 0.95477682
8.7481642 7.8108301 -0.016246337 0.95417237
8.9698238 7.8083887 -0.016473198 0.95354414
9.432519 7.8032908 -0.016957588 0.95221198
9.9235153 7.7978516 -0.017482262 0.95077014
10.180703 7.7950191 -0.017760353 0.95000416
1.2750976 0.95109373 -0.0022033309 0.99365723
1.2750976 0.92639649 -0.0021831512 0.99371541
1.2750781 0.90212888 -0.0021636582 0.99377173
1.2751172 0.8783105 -0.0021446228 0.99382579
1.2750976 0.85489255 -0.0021263885 0.99387819
1.2750878 0.83185548 -0.0021088792 0.99392873
1.2750976 0.80919921 -0.002092018 0.99397743
1.2751074 0.78690428 -0.0020752714 0.99402446
1.2751269 0.76494139 -0.0020595549 0.99406976
1.2751269 0.74331051 -0.002044487 0.99411356
1.2751269 0.72201169 -0.002029686 0.99415576
1.2913769 0.70993161 -0.0020411683 0.99412274
1.3719629 0.70993161 -0.0021396256 0.99383998
1.4152539 0.70994139 -0.002192955 0.99368668
1.4607714 0.70993161 -0.0022496413 0.99352443
1.5087206 0.70993161 -0.002309494 0.99335259
1.5592871 0.70994139 -0.0023732758 0.9931702
1.612705 0.70994139 -0.0024405287 0.99297655
1.6692773 0.70993161 -0.0025124741 0.99277037
1.7293066 0.70993161 -0.0025894928 0.99255043
1.8611034 0.70993161 -0.0027592087 0.992064
1.9337401 0.70992184 -0.0028531647 0.99179411
1.9872949 0.70138669 -0.0029191207 0.9916057
1.9873047 -0.67345703 -0.002906227 0.99164188
1.6692871 -0.70996094 -0.0025127411 0.99277031
1.5592871 -0.70995116 -0.0023731231 0.9931702
1.3719823 -0.70997071 -0.0021394729 0.99383986
1.2913965 -0.70996094 -0.0020413208 0.99412256
1.2751172 -0.72203124 -0.0020297242 0.99415576
1.2751269 -0.74333984 -0.002044487 0.9941135
1.2751074 -0.83186519 -0.0021088792 0.99392861
1.2751172 -0.85490233 -0.0021261596 0.99387807
1.2751074 -0.87833005 -0.0021445465 0.99382579
1.2750976 -0.92641598 -0.0021831512 0.99371541
10.837539 -8.2979097 -0.018906059 0.94686586
9.274394 -8.2806444 -0.017221604 0.95148373
9.0402145 -8.2780561 -0.016980857 0.95215166
8.3752928 -8.2707224 -0.016304206 0.95400822
8.1651173 -8.2683983 -0.016096268 0.9545818
7.7603126 -8.2639065 -0.015702056 0.95566702
7.5651755 -8.2617483 -0.015516624 0.95618039
7.1883593 -8.2575874 -0.015165138 0.95715272
6.8279686 -8.253603 -0.014836921 0.95805764
6.6534762 -8.251689 -0.014683952 0.95848644
6.4825974 -8.2497854 -0.014532394 0.95890027
6.1509376 -8.2461233 -0.014249953 0.95968515
5.831738 -8.2425976 -0.013985405 0.96041667
5.6765037 -8.2408686 -0.013860321 0.96076357
5.5239649 -8.2391796 -0.01374073 0.96109849
5.0816212 -8.2342968 -0.01340229 0.96203506
4.9388866 -8.2327242 -0.013298492 0.96232581
4.5234571 -8.2281342 -0.013006553 0.96313828
4.2562108 -8.2251854 -0.012827682 0.96363312
4.1252928 -8.2237396 -0.012744751 0.96386719
3.7423632 -8.219512 -0.012509918 0.9645192
3.6177537 -8.2181244 -0.012437935 0.96472061
3.0146973 -8.2114553 -0.012116775 0.96561557
2.8976953 -8.2101755 -0.012060546 0.96577328
2.7817383 -8.2088861 -0.012005271 0.96592444
2.6667969 -8.2076168 -0.011954574 0.96606898
2.5528319 -8.206357 -0.011904907 0.96620715
2.3276367 -8.203867 -0.011811905 0.96646446
2.2163086 -8.2026463 -0.011768417 0.96658391
2.1057618 -8.2014256 -0.011729011 0.96669734
1.9959277 -8.2002048 -0.011690597 0.96680498
1.8868359 -8.1990042 -0.011654205 0.96690667
1.7783984 -8.1978025 -0.011619682 0.96700269
1.4566406 -8.1942482 -0.011528892 0.96725714
1.2447265 -8.1919041 -0.011476898 0.96739948
0.93003905 -8.1884375 -0.011414794 0.96757305
0.61826169 -8.1849899 -0.011369972 0.96769989
0.41162109 -8.1827049 -0.011348953 0.96775895
0.10275391 -8.1792965 -0.011330795 0.96780968
-0.10279296 -8.177021 -0.011327629 0.9678185
-0.41123044 -8.1736031 -0.011336288 0.96779424
-0.82404298 -8.1690426 -0.01137249 0.96769142
-1.0317383 -8.166748 -0.011402283 0.96760952
-1.1360059 -8.1655855 -0.011419983 0.96756089
-1.3455957 -8.1632814 -0.01146019 0.96744782
-1.7699609 -8.1586037 -0.011564597 0.96715784
-1.8773144 -8.157402 -0.011595268 0.96707177
-2.0938866 -8.1550093 -0.011663093 0.96688265
-2.3131444 -8.1525784 -0.011738663 0.96667051
-3.106621 -8.1438284 -0.012072982 0.96573573
-3.2238965 -8.142539 -0.012130585 0.96557629
-3.7049413 -8.1372261 -0.012384606 0.96486801
-3.8284569 -8.135849 -0.012454147 0.96467263
-4.0799022 -8.1330757 -0.012603607 0.96425819
-4.2079101 -8.1316595 -0.01268238 0.96403891
-4.7369723 -8.1258106 -0.013029099 0.963076
-5.153945 -8.1212006 -0.013323135 0.96225637
-5.2972169 -8.1196289 -0.013428764 0.96196312
-5.442822 -8.1180172 -0.013538399 0.96165925
-5.5908103 -8.1163769 -0.013651199 0.96134454
-5.7413669 -8.1147165 -0.013769645 0.96101838
-5.8945017 -8.1130276 -0.013891335 0.96068072
-6.0504489 -8.1112986 -0.014016685 0.96033084
-6.2092381 -8.1095409 -0.014148139 0.95996857
-6.3710742 -8.1077538 -0.014282112 0.95959312
-8.18999 -8.0876465 -0.015944023 0.95500273
-8.396162 -8.085371 -0.016145211 0.95444512
-1.0433398 -0.90822262 -0.0019158935 0.99448222
-1.0433203 -0.88543946 -0.0018953704 0.99454135
-1.0433301 -0.77824217 -0.0018030166 0.99480706
-1.0433496 -0.75803709 -0.0017862701 0.99485469
-1.0433398 -0.73819333 -0.0017704009 0.9949007
-1.2178711 -0.70996094 -0.0019527053 0.99437708
-1.3307323 -0.70995116 -0.0020893097 0.99398506
-1.4152441 -0.70995116 -0.0021931839 0.99368668
-1.4607812 -0.70995116 -0.0022496032 0.99352437
-1.5592968 -0.70996094 -0.0023729324 0.99317014
-1.6692969 -0.70995116 -0.0025126648 0.99277025
-1.7293261 -0.70996094 -0.0025894546 0.99255031
-1.7715722 -0.70141602 -0.0026392746 0.99240744
-1.7715918 -0.65041989 -0.0026142502 0.99247956
-23.523632 -8.3024416 -0.034556463 0.90503359
-19.132343 -4.402988 -0.027195167 0.92447448
-23.109219 -4.1080661 -0.032510947 0.91038638
-1.7724414 0.70173824 -0.007921638 0.99240375
-1.7293164 0.70992184 -0.0077682114 0.99255037
-1.6127148 0.70992184 -0.0073225019 0.99297649
-1.5087206 0.70992184 -0.0069289398 0.99335253
-1.460791 0.70991212 -0.0067491531 0.99352437
-1.3307421 0.70991212 -0.0062676617 0.99398506
-1.253828 0.70992184 -0.0059875487 0.9942531
-1.1834375 0.70992184 -0.0057347487 0.99449497
-1.15042 0.70992184 -0.0056174849 0.99460721
-1.1187207 0.70992184 -0.0055059432 0.99471414
-1.058916 0.70992184 -0.0052976226 0.99491346
-1.0426368 0.77770507 -0.0054052733 0.99481052
-1.0425879 0.84063476 -0.0055655288 0.99465716
-1.0425586 0.90753907 -0.0057439804 0.99448627
-8.5209274 8.0016794 -0.048574906 0.95431978
-7.8949218 7.9947653 -0.046691205 0.95605093
-7.6968064 7.9925585 -0.04611 0.95658606
-7.5035348 7.9904294 -0.04554962 0.95710176
-6.7743649 7.9823828 -0.043507081 0.9589864
-6.6020508 7.9804783 -0.043040045 0.95941663
-6.43332 7.9786129 -0.042590026 0.95983189
-5.7916503 7.9715328 -0.040946502 0.96135288
-5.6387887 7.9698434 -0.040570334 0.96170074
-5.4886813 7.9681735 -0.040206719 0.96203661
-5.05374 7.9633689 -0.039192658 0.96297598
-4.9135056 7.9618163 -0.038878441 0.96326768
-4.7754884 7.9602928 -0.03857521 0.96354914
-4.3737988 7.9558592 -0.037727166 0.96433574
-3.6185448 7.9475098 -0.036288377 0.96567267
-3.4980664 7.9461813 -0.0360783 0.96586752
-3.0292187 7.9409957 -0.035317726 0.96657449
-2.801826 7.9384766 -0.034983557 0.9668867
-2.6897364 7.9372458 -0.034825362 0.96703297
-2.578584 7.9360156 -0.034676056 0.96717292
-2.1429882 7.931211 -0.034140281 0.96767133
-1.7195898 7.9265332 -0.033704795 0.96807671
-1.6153418 7.9253707 -0.033611145 0.96816427
-1.5116601 7.9242282 -0.033523291 0.96824628
-1.30583 7.9219627 -0.033364143 0.96839452
-1.0003711 7.9185839 -0.033167228 0.96857792
-0.79856443 7.9163475 -0.033062935 0.96867478
-0.59789062 7.9141212 -0.032982063 0.96875167
-0.099423826 7.9086328 -0.032866936 0.96885794
-3.9062499e-05 7.9075294 -0.032859765 0.96886462
0.1986914 7.9053221 -0.032861173 0.96886349
0.59681642 7.9009275 -0.032925911 0.96880299
0.69667965 7.8998241 -0.032955054 0.96877563
0.79672849 7.8987303 -0.032990456 0.96874338
1.0983496 7.8953805 -0.033125229 0.96861708
1.1995116 7.8942676 -0.033181839 0.96856487
1.3010058 7.8931541 -0.033242837 0.96850765
1.4029101 7.8920312 -0.033310089 0.9684453
1.5052441 7.8908887 -0.03338192 0.96837783
1.6080176 7.8897653 -0.033460274 0.96830505
1.7113184 7.8886032 -0.033544235 0.96822709
1.8151464 7.8874707 -0.03363388 0.96814364
2.0245311 7.8851461 -0.033829268 0.9679606
2.1301758 7.8839841 -0.03393627 0.96786076
2.3435838 7.8816309 -0.034169082 0.96764404
2.4514258 7.8804393 -0.034295157 0.96752697
2.5600684 7.8792477 -0.034427453 0.96740395
3.0037401 7.8743453 -0.035022546 0.9668504
1.8913672 4.2964258 -0.019507293 0.98139781
2.0124023 4.2765622 -0.019640731 0.98127186
3.8225195 7.865293 -0.036340103 0.96562457
3.9447851 7.8639355 -0.036560096 0.96542019
4.068574 7.8625584 -0.036787413 0.96520793
4.8468552 7.8539648 -0.038351897 0.96375626
4.9832811 7.8524609 -0.038647536 0.96348226
5.4057226 7.8477926 -0.039599571 0.9625994
5.6993551 7.8445506 -0.040293388 0.96195674
5.8501368 7.8428903 -0.040660094 0.96161795
6.1601367 7.8394527 -0.041432492 0.96090376
6.4823632 7.8358984 -0.04226055 0.96013725
6.6484179 7.8340526 -0.042698324 0.95973313
6.9911523 7.8302636 -0.043619804 0.95888054
7.1682615 7.8283105 -0.044107743 0.95843059
7.3493552 7.8263183 -0.044614602 0.95796424
7.534668 7.8242478 -0.045138665 0.95748073
7.7244334 7.8221579 -0.04568325 0.95697916
8.3226757 7.8155565 -0.04744564 0.95535839
8.9698238 7.8083887 -0.04941906 0.95354378
9.4324999 7.8032908 -0.050873067 0.95221168
9.9235353 7.7978611 -0.052445907 0.95076972
10.180683 7.7950191 -0.05328209 0.95000386
1.2741895 0.95043945 -0.0066056824 0.99366164
1.2741992 0.92575192 -0.0065449141 0.99371976
1.2742089 0.90151364 -0.006486435 0.9937759
1.2742578 0.80866212 -0.0062715909 0.99398136
1.2742969 0.76443356 -0.0061750794 0.99407357
1.2742969 0.72153318 -0.0060855099 0.99415952
1.2913769 0.70992184 -0.0061237332 0.99412268
1.3307226 0.70991212 -0.0062675094 0.99398512
1.4607519 0.70992184 -0.0067491531 0.99352449
1.5087011 0.70991212 -0.0069290157 0.99335259
1.6692773 0.70991212 -0.0075380704 0.99277037
1.7293066 0.70992184 -0.0077681732 0.99255037
1.8611034 0.70992184 -0.0082773967 0.99206394
1.9893554 0.70210934 -0.0087664789 0.99159694
1.9893554 0.67411131 -0.0087288283 0.99163324
23.536249 7.6474414 -0.10284039 0.90575099
1.9893652 -0.70214844 -0.008766517 0.99159688
1.9337597 -0.70997071 -0.0085602188 0.99179387
1.7931151 -0.70997071 -0.0080142971 0.99231541
1.5592871 -0.70997071 -0.007119522 0.99317014
1.4152637 -0.7099902 -0.0065796277 0.9936865
1.3719629 -0.70998043 -0.0064191818 0.99383986
1.2743164 -0.72157222 -0.006085434 0.99415934
1.2742773 -0.7428906 -0.0061296462 0.99411726
1.2742676 -0.78643554 -0.006222534 0.99402821
1.274248 -0.83133787 -0.0063225171 0.9939326
1.2742285 -0.87775391 -0.0064298245 0.99382991
1.2742187 -0.90156245 -0.0064864731 0.99377573
1.2741992 -0.92579097 -0.0065449523 0.9937197
1.2741992 -0.95047849 -0.0066057583 0.99366152
10.283476 -8.2917871 -0.054895286 0.94853139
9.2744141 -8.2806349 -0.051665612 0.95148331
8.5909958 -8.2730761 -0.049564019 0.95341247
8.1651363 -8.2683887 -0.048288956 0.95458138
7.5652146 -8.2617579 -0.046551704 0.95617992
7.3746285 -8.2596388 -0.046013832 0.95667499
7.0062108 -8.2555666 -0.044995498 0.95761293
6.8279686 -8.2535934 -0.044513512 0.95805734
6.6535153 -8.2516699 -0.044048157 0.95848608
6.4826169 -8.2497654 -0.043600194 0.95889997
6.150918 -8.2461128 -0.04275097 0.95968491
5.9898629 -8.2443361 -0.042347219 0.96005702
5.8317771 -8.2425776 -0.041959342 0.96041632
5.6765037 -8.240859 -0.041583631 0.96076328
5.524004 -8.2391796 -0.04122097 0.96109807
5.3740821 -8.2375288 -0.040872 0.96142143
5.0816407 -8.2342768 -0.040208433 0.96203482
4.9388866 -8.2327147 -0.039895248 0.96232557
4.7983398 -8.2311621 -0.039591637 0.96260613
4.5234375 -8.2281246 -0.039018858 0.96313804
3.8684375 -8.2208881 -0.037756652 0.96430981
3.7423437 -8.2195015 -0.037529867 0.96451902
3.3727343 -8.2154102 -0.036904562 0.96510011
3.1328516 -8.2127533 -0.036527898 0.96545064
2.8976855 -8.2101564 -0.036180418 0.96577311
2.7817481 -8.2088671 -0.03601715 0.96592426
2.6667969 -8.2076168 -0.035862617 0.96606874
2.4397948 -8.2051172 -0.035572737 0.96633857
2.3276563 -8.2038574 -0.035437353 0.96646422
1.995957 -8.2001953 -0.035071142 0.96680474
1.7783984 -8.197793 -0.034858625 0.96700251
1.6705859 -8.1965914 -0.034762345 0.96709293
1.5633398 -8.1954193 -0.034671057 0.96717769
1.2447265 -8.1918945 -0.034432601 0.9673993
1.1394531 -8.1907415 -0.034365349 0.96746236
0.9300195 -8.1884174 -0.034246407 0.96757287
0.61827147 -8.1849804 -0.034109764 0.96769971
0.51485348 -8.1838379 -0.034075279 0.96773177
0.41164061 -8.1826954 -0.034046363 0.96775872
0.3085449 -8.1815624 -0.034022864 0.96778065
-3.9062499e-05 -8.1781349 -0.033984527 0.96781647
-0.10277344 -8.177002 -0.03398243 0.96781832
-0.20554687 -8.175869 -0.033984832 0.96781522
-0.4112207 -8.1735935 -0.034008596 0.967794
-0.5141992 -8.1724606 -0.034029081 0.96777588
-0.61730468 -8.1713276 -0.03405403 0.9677527
-0.82405269 -8.1690426 -0.034119338 0.96769118
-1.0317285 -8.1667385 -0.03420765 0.96760929
-1.240625 -8.1644335 -0.034317434 0.96750671
-1.3456055 -8.1632814 -0.034380302 0.96744758
-1.4509765 -8.1621094 -0.034449082 0.96738321
-1.5568066 -8.1609278 -0.034523543 0.96731347
-1.7699609 -8.1585836 -0.034691427 0.96715766
-1.8773242 -8.1573925 -0.034784734 0.96707153
-2.0938964 -8.1549997 -0.034987982 0.96688241
-2.2031446 -8.1537991 -0.035097998 0.96677923
-2.4238672 -8.1513672 -0.035338439 0.9665553
-2.5353906 -8.1501265 -0.035469055 0.96643442
-2.6477733 -8.1488867 -0.035606384 0.96630734
-2.8752148 -8.1463766 -0.03589882 0.96603441
-2.9904003 -8.1450977 -0.036056176 0.96588826
-3.5827832 -8.1385546 -0.036952477 0.96505576
-3.7049413 -8.137207 -0.037154082 0.96486783
-3.8284764 -8.1358395 -0.03736496 0.96467233
-4.2079101 -8.13165 -0.038047217 0.96403867
-4.6020212 -8.1273041 -0.038811989 0.96332979
-4.8739061 -8.1242867 -0.039369162 0.9628123
-5.2972264 -8.1196089 -0.040287551 0.96196288
-5.5908008 -8.1163673 -0.040955581 0.9613443
-6.0504293 -8.111289 -0.042051811 0.96033061
-6.2092381 -8.1095314 -0.04244335 0.95996827
-6.5360641 -8.1059275 -0.043269537 0.95920396
-6.7043262 -8.1040621 -0.043707732 0.95880121
-6.8760548 -8.1021776 -0.044159699 0.95838386
-7.230566 -8.0982513 -0.045114286 0.9575032
-7.6009765 -8.0941505 -0.046141241 0.9565571
-7.9889159 -8.0898733 -0.047246359 0.9555397
-8.3961525 -8.0853615 -0.048438415 0.95444483
-1.0425488 -0.95466793 -0.0058742524 0.99436146
-1.0425586 -0.93083984 -0.0058078384 0.994425
-1.0425781 -0.88481444 -0.0056823348 0.99454516
-1.0426172 -0.79832029 -0.0054567335 0.99476111
-1.042627 -0.77773434 -0.0054051206 0.99481046
-1.0426562 -0.75754881 -0.0053554154 0.99485803
-1.0426464 -0.73770505 -0.0053076171 0.99490404
-1.1187011 -0.70997071 -0.0055057523 0.99471408
-1.2538086 -0.70997071 -0.0059875487 0.99425304
-1.2913965 -0.70997071 -0.0061240387 0.99412251
-1.3719921 -0.70997071 -0.00641922 0.9938398
-1.4152832 -0.70996094 -0.0065796277 0.99368644
-1.4607812 -0.70997071 -0.0067493436 0.99352431
-1.5592968 -0.70997071 -0.0071197129 0.99317008
-1.7293457 -0.70997071 -0.0077682873 0.99255019
-1.7724414 -0.6761328 -0.0078831483 0.99244052
-1.7724512 -0.6507324 -0.0078459168 0.99247587
-23.523623 -8.3024359 -0.10366146 0.90503293
-1.7732617 0.65100586 -0.013083305 0.99247235
-1.773291 0.67641598 -0.013144836 0.99243689
-1.6692773 0.70993161 -0.012563629 0.9927702
-1.6127148 0.70993161 -0.012204094 0.99297637
-1.5087206 0.70992184 -0.011548385 0.99335241
-1.4152539 0.70992184 -0.010966339 0.99368656
-1.3719823 0.70992184 -0.010699158 0.9938398
-1.2914159 0.70992184 -0.010206794 0.99412245
-1.2538086 0.70992184 -0.0099791717 0.9942531
-1.2178515 0.70993161 -0.0097634885 0.99437708
-1.1834375 0.70992184 -0.0095582195 0.99449492
-1.15042 0.70992184 -0.0093625253 0.99460715
-1.0882422 0.70992184 -0.0089991 0.99481606
-1.0419531 0.73715818 -0.00883995 0.9949075
-1.0419238 0.7771582 -0.0090026474 0.99481404
-1.041914 0.79770505 -0.0090884017 0.99476475
-1.0418555 0.84003901 -0.0092693325 0.99466085
-1.0418555 0.86184567 -0.0093647381 0.99460596
-1.041787 0.93011719 -0.0096726986 0.99442911
-1.0417676 0.95389646 -0.0097828293 0.99436575
-8.3066988 7.9993067 -0.079870261 0.95491815
-7.3148632 7.988359 -0.075018421 0.95759821
-6.9504786 7.9843454 -0.07331638 0.95853984
-6.6020408 7.9804883 -0.071735039 0.95941603
-6.4333301 7.9786129 -0.070986286 0.9598313
-5.4886913 7.9681931 -0.067012861 0.96203595
-5.1962695 7.964941 -0.065865211 0.96267325
-5.0537305 7.9633689 -0.065322876 0.96297544
-4.7754784 7.9603124 -0.064291917 0.96354854
-4.6395798 7.9587889 -0.063804589 0.96382028
-4.1154294 7.9529977 -0.062018812 0.96481419
-3.9888377 7.951611 -0.061612204 0.9650408
-3.7404785 7.9488769 -0.060844496 0.96546954
-3.6185448 7.9475098 -0.060480725 0.96567214
-3.4980762 7.9461813 -0.060132027 0.96586704
-3.3789647 7.9448533 -0.059796866 0.9660545
-3.2611327 7.9435644 -0.059472885 0.96623468
-3.1445801 7.9422946 -0.059162978 0.96640772
-3.0292187 7.9409957 -0.058865659 0.96657401
-2.9149804 7.9397364 -0.058578603 0.9667334
-2.801826 7.9384766 -0.058305778 0.96688622
-2.1429687 7.931211 -0.056900825 0.96767086
-2.0360937 7.9300094 -0.056704938 0.96778077
-1.8244531 7.9276853 -0.056342389 0.96798331
-1.7195898 7.9265332 -0.056176033 0.96807623
-1.6153418 7.9253707 -0.056018904 0.96816373
-1.5116405 7.9242382 -0.055872343 0.9682458
-1.408496 7.9230857 -0.05573551 0.96832258
-1.30583 7.9219527 -0.05560806 0.96839404
-1.0003711 7.9185839 -0.055280074 0.96857744
-0.89929688 7.9174509 -0.055188712 0.96862841
-0.69806641 7.9152441 -0.055034064 0.96871519
-0.49788085 7.9130273 -0.054914132 0.96878219
-1.953125e-05 7.9075389 -0.054766614 0.96886408
0.099316403 7.9064159 -0.054764364 0.96886605
0.19871093 7.9053321 -0.05476978 0.96886301
0.29810545 7.9042282 -0.054783668 0.96885514
0.3975586 7.9031348 -0.054806478 0.96884245
0.59681642 7.9009376 -0.054877661 0.96880245
0.69667965 7.8998141 -0.054926489 0.96877521
0.89699215 7.8976169 -0.055050202 0.96870577
0.99753904 7.8965039 -0.055125274 0.96866369
1.0983691 7.8953905 -0.055210035 0.96861655
1.1995116 7.8942676 -0.055303037 0.96856445
1.5052441 7.8908887 -0.05563793 0.96837735
1.7113184 7.8886132 -0.055907097 0.96822655
1.8151464 7.8874803 -0.056055374 0.96814311
1.9195215 7.8863182 -0.05621418 0.96805435
2.0245507 7.8851562 -0.056382675 0.96796006
2.1301758 7.8839841 -0.056562118 0.96786028
2.5600684 7.8792381 -0.057380255 0.96740347
2.6695898 7.878037 -0.05761135 0.96727443
2.891377 7.875576 -0.058105201 0.9669978
3.0037401 7.8743453 -0.058370702 0.96684992
1.7619042 4.2917285 -0.032132111 0.98161346
1.8212891 4.282373 -0.032230414 0.98155743
1.8907909 4.2951269 -0.032503128 0.98140311
2.0118847 4.2754688 -0.032726783 0.98127633
3.8225195 7.865283 -0.060566787 0.96562409
4.0685544 7.8625684 -0.06131443 0.9652074
4.4496093 7.8583689 -0.062546268 0.96452111
4.5801172 7.856914 -0.062988013 0.96427518
4.7125196 7.8554492 -0.063446879 0.96402007
5.5512695 7.8462009 -0.066567495 0.96228307
5.8501172 7.8429003 -0.067767598 0.96161741
6.0036521 7.8411913 -0.068397596 0.96126664
6.1601367 7.8394527 -0.069053531 0.96090317
6.3196678 7.8377051 -0.06973087 0.96052659
6.4823632 7.8358984 -0.070434451 0.96013665
6.8179493 7.8321872 -0.071919367 0.95931381
7.1682615 7.82832 -0.073516421 0.95842993
7.3493552 7.8263183 -0.074359015 0.95796359
7.5346875 7.8242774 -0.075232774 0.95747995
8.5325775 7.813242 -0.08012867 0.95477569
9.1978321 7.8058786 -0.083552778 0.95289004
9.432519 7.8033004 -0.084787898 0.9522109
9.6742773 7.8006148 -0.086071812 0.95150441
9.9234962 7.7978516 -0.087411799 0.95076913
10.180683 7.7950096 -0.088807635 0.95000315
1.2733495 0.92513669 -0.010901146 0.99372387
1.2733984 0.85374999 -0.010618439 0.99388617
1.2734277 0.80813473 -0.010445976 0.99398518
1.2734668 0.76395506 -0.010285607 0.99407732
1.273496 0.72107422 -0.010136108 0.9941631
1.2913769 0.70992184 -0.010206527 0.99412262
1.3307226 0.70991212 -0.010446128 0.99398506
1.3719629 0.70992184 -0.010699119 0.99383986
1.4152539 0.70992184 -0.010966301 0.99368656
1.5087011 0.70991212 -0.011548461 0.99335253
1.5592675 0.70993161 -0.011866073 0.99317014
1.612705 0.70992184 -0.012204017 0.99297643
1.6692773 0.70991212 -0.012563476 0.99277025
1.8611034 0.70992184 -0.013795814 0.99206382
1.9337401 0.70991212 -0.014267196 0.99179393
1.9914649 0.70283204 -0.014626541 0.991588
1.9914062 -0.67486328 -0.014563064 0.99162447
1.9337597 -0.70997071 -0.014267158 0.99179375
1.7293066 -0.7099902 -0.012947121 0.99255019
1.6692871 -0.70997071 -0.012563629 0.99277014
1.6127245 -0.70997071 -0.01220417 0.99297631
1.4152637 -0.7099902 -0.010966148 0.99368638
1.3719629 -0.70998043 -0.010699119 0.9938398
1.2913965 -0.70998043 -0.010206756 0.99412245
1.2734668 -0.74241209 -0.010209617 0.9941209
1.2734668 -0.76400387 -0.010285454 0.99407721
1.2734473 -0.80818355 -0.010446052 0.993985
1.2733984 -0.85378903 -0.010618439 0.99388611
1.2733788 -0.87716794 -0.010709 0.9938339
1.2733399 -0.9251855 -0.010901298 0.99372375
10.555996 -8.294795 -0.092981257 0.94771487
10.283476 -8.2917967 -0.091492116 0.94853061
10.019531 -8.288867 -0.090065226 0.94931364
9.7636719 -8.2860451 -0.088692054 0.95006555
9.274394 -8.2806444 -0.086111948 0.95148265
8.8125391 -8.2755365 -0.08372841 0.95279318
8.5910158 -8.2730665 -0.082604483 0.9534117
7.9602146 -8.2661037 -0.079481579 0.95513344
7.5652146 -8.2617483 -0.077586174 0.95617932
6.827949 -8.2535839 -0.074190788 0.95805681
6.6534958 -8.2516794 -0.073415637 0.95848548
6.3151364 -8.24792 -0.071946375 0.95929873
6.1509571 -8.2460938 -0.071251564 0.95968425
5.2266407 -8.235898 -0.067558743 0.96173298
4.9389257 -8.2327051 -0.066492535 0.96232498
4.6598825 -8.2296286 -0.065501325 0.96287638
