# .PCD v0.7 - Point Cloud Data file format
VERSION 0.7
FIELDS x y z intensity
SIZE 4 4 4 4
TYPE F F F F
COUNT 1 1 1 1
WIDTH 1083
HEIGHT 1
VIEWPOINT 0 0 0 1 0 0 0
POINTS 1083
DATA ascii
6.2536817 -5.3072557 -0.39796481 0.96768636
6.049541 -5.5395017 -0.39798594 0.96768457
5.9795604 -5.6151853 -0.39799321 0.96768403
5.9086423 -5.6899705 -0.39800051 0.96768343
5.8367867 -5.7638865 -0.39800796 0.96768284
5.7639942 -5.8368649 -0.39801547 0.9676823
5.6903219 -5.9089942 -0.39802307 0.96768153
5.6157126 -5.9801364 -0.39803076 0.96768099
5.4638767 -6.1195703 -0.39804643 0.96767986
5.3866892 -6.1878905 -0.39805442 0.96767908
5.3085446 -6.2552247 -0.3980625 0.96767855
5.2296581 -6.3215528 -0.39807063 0.96767789
5.1499119 -6.3869333 -0.39807883 0.96767712
5.0693455 -6.4512501 -0.39808714 0.96767658
4.9058299 -6.5769238 -0.39810401 0.96767509
4.8229394 -6.6381736 -0.39811257 0.96767443
4.6547751 -6.7575488 -0.39812988 0.96767318
4.4836817 -6.872695 -0.39814749 0.96767175
4.3097558 -6.9835348 -0.39816543 0.96767026
4.221787 -7.0373044 -0.39817446 0.96766943
4.0437598 -7.1415234 -0.39819279 0.967668
3.7719824 -7.2893553 -0.39822075 0.96766579
3.3072362 -7.5127149 -0.39826849 0.96766198
3.2126465 -7.5538669 -0.39827824 0.9676612
3.1175096 -7.5938277 -0.39828795 0.96766049
2.9258494 -7.6701465 -0.39830765 0.96765894
2.8293066 -7.7064843 -0.39831755 0.96765816
2.634912 -7.775537 -0.39833751 0.96765655
2.4387987 -7.8396773 -0.39835766 0.967655
2.3401465 -7.8699508 -0.39836776 0.96765405
2.2411034 -7.8989062 -0.3983779 0.96765333
1.9419824 -7.9783883 -0.39840862 0.96765083
1.8416113 -8.0023537 -0.39841887 0.96765006
1.7409472 -8.0250874 -0.39842921 0.96764916
1.6400098 -8.0465431 -0.39843956 0.96764833
1.5388184 -8.0667286 -0.39844993 0.96764749
1.4373535 -8.0856447 -0.3984603 0.96764666
1.3356934 -8.1032619 -0.39847076 0.96764588
1.2337793 -8.1196194 -0.39848116 0.96764505
1.0294043 -8.1485052 -0.39850211 0.96764332
0.92692381 -8.1609955 -0.3985126 0.96764255
0.82433593 -8.1722164 -0.39852309 0.96764171
0.6187402 -8.1908007 -0.39854416 0.96763998
0.51577145 -8.1981153 -0.39855468 0.96763921
0.10311523 -8.2062006 -0.39819348 0.96766824
-0.2062207 -8.2027826 -0.39812121 0.9676739
-0.30934569 -8.2016506 -0.39822286 0.96766573
-0.82469726 -8.1756735 -0.39869174 0.96762824
-1.2345605 -8.1247749 -0.39873359 0.96762484
-1.3365917 -8.1088085 -0.39874405 0.96762413
-1.4384277 -8.0916109 -0.39875442 0.96762317
-1.641416 -8.0533199 -0.39877513 0.96762151
-1.8433691 -8.0099506 -0.39879575 0.96761984
-2.1441209 -7.9353709 -0.39882645 0.96761751
-2.5403807 -7.8184276 -0.3988668 0.96761417
-2.6384668 -7.7860837 -0.39887682 0.9676134
-3.1225293 -7.6059766 -0.39892617 0.96760952
-3.2179589 -7.5663376 -0.39893585 0.96760869
-3.5011034 -7.4401951 -0.39896467 0.96760643
-3.5944042 -7.3957911 -0.39897418 0.96760565
-3.8708789 -7.2555957 -0.39900228 0.96760333
-3.9618163 -7.2065234 -0.39901152 0.96760273
-4.1418653 -7.1050291 -0.39902985 0.96760118
-4.2309375 -7.0525684 -0.39903888 0.96760046
-4.4070311 -6.9443455 -0.39905676 0.96759897
-4.4940333 -6.8885546 -0.39906561 0.96759838
-4.5803418 -6.8316894 -0.39907441 0.96759766
-4.6659179 -6.7737498 -0.39908308 0.96759695
-4.7507911 -6.7147264 -0.39909172 0.96759623
-4.9182224 -6.5934958 -0.39910868 0.96759492
-5.0008006 -6.5313087 -0.39911705 0.96759427
-5.1635742 -6.4038572 -0.39913359 0.96759284
-5.2437205 -6.3385644 -0.3991417 0.96759236
-5.3230858 -6.2723045 -0.39914975 0.96759164
-5.4015818 -6.205039 -0.3991577 0.96759105
-5.556025 -6.0675778 -0.39917335 0.9675898
-5.7810936 -5.8541894 -0.39919615 0.96758801
-1.0305176 -0.89707029 -0.066290013 0.99454343
-1.0307813 -0.85273433 -0.064908259 0.99465692
-1.0310448 -0.81017578 -0.06362167 0.99476248
-1.0311524 -0.78953123 -0.063012004 0.99481255
-1.0312696 -0.76925778 -0.062423512 0.99486089
-1.0316211 -0.71059567 -0.060777776 0.99499595
-1.0882519 -0.70995116 -0.06304279 0.99480999
-1.1504004 -0.70995116 -0.065589942 0.99460095
-1.2538086 -0.70995116 -0.069909245 0.99424642
-1.3307323 -0.70995116 -0.073180199 0.99397802
-1.3719921 -0.70997071 -0.074951626 0.99383259
-1.415293 -0.70995116 -0.07682316 0.99367911
-1.4607812 -0.70996094 -0.078803368 0.9935168
-1.5592968 -0.70996094 -0.083127975 0.99316216
-1.6127343 -0.70996094 -0.085494347 0.9929682
-1.7293457 -0.70994139 -0.090700723 0.99254155
-1.7861816 -0.70719725 -0.093208462 0.99233615
-1.7860937 -0.68132812 -0.092750356 0.9923737
-9.9312201 -2.9530859 -0.5027073 0.95935637
-9.9676075 -2.8280663 -0.50271088 0.95935613
-10.002421 -2.7026074 -0.50271428 0.95935589
-10.035703 -2.5767381 -0.50271755 0.95935541
-10.152715 -2.0692871 -0.502729 0.95935458
-10.177919 -1.9415332 -0.50273144 0.95935458
-10.244023 -1.5565722 -0.50273782 0.95935392
-10.27997 -1.2986621 -0.50274122 0.95935369
-10.295498 -1.1693847 -0.50274265 0.95935363
-10.332343 -0.7805078 -0.50274599 0.95935327
-10.341348 -0.65062499 -0.50274676 0.95935321
-10.34873 -0.52061522 -0.50274736 0.95935315
-10.354472 -0.39053711 -0.50274783 0.95935309
-10.358544 -0.26038086 -0.50274807 0.95935315
-9.7997169 -0 -0.50269067 0.96150988
-9.7989159 0.1231543 -0.50269049 0.96151
-9.7965822 0.24625976 -0.50269014 0.96151006
-9.7873049 0.49237305 -0.50268888 0.96151006
-9.7803125 0.61533201 -0.50268805 0.96151018
-9.7717962 0.73817378 -0.50268704 0.96151024
-9.7617092 0.86089844 -0.5026859 0.96151036
-9.7500782 0.98350585 -0.50268459 0.96151054
-9.7060156 1.3502734 -0.50267965 0.96151078
-9.6689358 1.5937304 -0.50267559 0.96151114
-9.6480951 1.7151171 -0.50267339 0.96151131
-9.6257515 1.8361914 -0.50267094 0.96151143
-9.6018353 1.9570019 -0.50266838 0.96151173
-9.5495214 2.1976562 -0.50266278 0.96151215
-9.4597559 2.5559764 -0.50265318 0.96151274
-9.4268255 2.6746192 -0.50264972 0.96151304
-9.3564939 2.9106348 -0.50264227 0.96151358
-9.2399025 3.2611425 -0.50262994 0.96151453
-1.786875 0.65601563 -0.097642519 0.992405
-1.7870312 0.70752931 -0.098591648 0.99233145
-1.7293555 0.70993161 -0.095892482 0.99254054
-1.6127539 0.70994139 -0.090388335 0.99296719
-1.5593066 0.70995116 -0.087886505 0.9931612
-1.5087402 0.70993161 -0.085532799 0.99334377
-1.3720019 0.70993161 -0.079241864 0.99383181
-1.3307519 0.70995116 -0.077369347 0.99397713
-1.2913965 0.70995116 -0.075594708 0.99411494
-1.253828 0.70993161 -0.073911324 0.99424559
-1.2178711 0.70994139 -0.072312124 0.99436975
-1.1834179 0.70995116 -0.070791624 0.99448782
-1.15042 0.70994139 -0.069344558 0.99460012
-1.058916 0.70993161 -0.065396994 0.99490678
-1.0308105 0.72930664 -0.064772986 0.99495524
-1.0307128 0.74883789 -0.065351978 0.99491024
-1.0304687 0.78897458 -0.066573024 0.99481535
-1.0300488 0.85212886 -0.068575054 0.99465996
-1.0297656 0.89641601 -0.070033602 0.99454665
-1.0296289 0.91927731 -0.070803605 0.99448681
-1.0294434 0.94264644 -0.071601443 0.99442494
-5.6703024 5.3247752 -0.39901182 0.9693253
-5.4652929 5.5343943 -0.39899063 0.96932691
-5.3952341 5.6025586 -0.39898339 0.96932739
-5.3242869 5.6697946 -0.39897606 0.96932799
-5.2525196 5.7361522 -0.39896864 0.96932858
-5.1065331 5.8661032 -0.39895359 0.96932971
-5.0323048 5.9297071 -0.39894593 0.96933025
-4.9573145 5.992363 -0.39893821 0.96933079
-4.8049412 6.1147852 -0.3989225 0.96933216
-4.64958 6.2333593 -0.39890647 0.96933329
-4.4110641 6.4037595 -0.39888191 0.96933526
-4.3301659 6.4585743 -0.39887354 0.96933579
-4.1663184 6.5650878 -0.3988567 0.96933699
-4.0834079 6.6167774 -0.39884815 0.96933764
-3.915664 6.7169919 -0.39883089 0.96933907
-3.7454588 6.8129883 -0.3988134 0.96934032
-3.3981249 6.9919434 -0.39877769 0.96934301
-3.3099022 7.0339255 -0.3987686 0.96934378
-3.1319726 7.1145701 -0.39875033 0.96934503
-3.0422363 7.153193 -0.3987411 0.96934581
-2.8613865 7.2270508 -0.39872253 0.96934718
-2.67875 7.2963281 -0.39870378 0.96934861
-2.5867968 7.329248 -0.39869434 0.96934927
-2.3085449 7.4210057 -0.39866582 0.96935147
-2.2150683 7.4492283 -0.39865622 0.96935225
-2.0270605 7.5021873 -0.39863694 0.96935368
-1.9325879 7.5269041 -0.39862722 0.96935433
-1.7427343 7.5727048 -0.39860779 0.96935588
-1.6474121 7.5938182 -0.39859802 0.9693566
-1.5518163 7.6137304 -0.39858821 0.96935737
-1.4559667 7.6324606 -0.39857838 0.96935803
-1.359912 7.649961 -0.39856857 0.9693588
-0.70531249 4.278955 -0.22245805 0.9827804
-0.59498048 4.2766404 -0.22148964 0.98285466
-0.54018551 4.2759471 -0.22108518 0.98288572
-0.48560545 4.2752638 -0.22071663 0.98291403
-0.34194335 4.5264063 -0.23285085 0.98198318
-0.48777342 7.7528024 -0.39847922 0.96936566
-0.39029297 7.7581344 -0.39846927 0.96936637
-0.29276368 7.7622361 -0.39845929 0.96936715
-0.19520508 7.7650976 -0.39844933 0.96936792
-0.097607419 7.766748 -0.39843932 0.96936864
0.097607419 7.766377 -0.39841938 0.96937007
0.19515625 7.7643456 -0.39840937 0.96937084
0.77935547 7.7263961 -0.39834967 0.96937549
1.0699707 7.6909766 -0.39831999 0.96937764
1.2628223 7.6612792 -0.39830032 0.96937913
1.3589746 7.644619 -0.39829049 0.96937984
1.6459863 7.5874023 -0.39826122 0.96938211
1.7411816 7.565918 -0.39825147 0.96938294
1.9306738 7.5194235 -0.39823219 0.96938431
2.1188965 7.4681735 -0.39821297 0.9693858
2.2125292 7.4407616 -0.39820343 0.96938658
2.30583 7.4122167 -0.39819393 0.96938717
2.6750488 7.2863083 -0.39815629 0.96939009
2.7663574 7.2519431 -0.39814702 0.96939075
2.8571777 7.216445 -0.39813772 0.96939147
2.9475682 7.1798043 -0.39812854 0.96939218
3.2158689 7.0631442 -0.39810124 0.96939415
3.392158 6.9797459 -0.39808327 0.96939576
3.6526074 6.8465037 -0.39805678 0.9693976
3.9916503 6.6537595 -0.39802229 0.96940017
4.1574316 6.5510645 -0.39800549 0.96940148
4.239326 6.4981833 -0.39799717 0.96940207
4.3205762 6.4442577 -0.39798892 0.96940267
4.4011035 6.3893161 -0.39798072 0.96940339
4.4809666 6.3333592 -0.39797264 0.96940398
4.5600877 6.2764454 -0.3979646 0.96940458
4.6385255 6.2185254 -0.39795661 0.96940511
4.7161818 6.1596289 -0.39794874 0.96940577
4.7931151 6.0997458 -0.39794093 0.96940643
4.9446974 5.9771485 -0.39792556 0.96940756
5.0193458 5.9144139 -0.39791802 0.96940809
5.0931931 5.850791 -0.39791054 0.96940857
5.1661816 5.7861915 -0.39790311 0.96940929
5.3802829 5.58707 -0.39788145 0.96941096
5.4499707 5.5189452 -0.39787441 0.96941143
5.5867677 5.3800387 -0.39786056 0.96941245
5.6538377 5.3092966 -0.39785376 0.96941304
5.7199707 5.2377634 -0.39784709 0.96941358
5.7852831 5.1654005 -0.3978405 0.96941394
5.8496189 5.0922165 -0.39783397 0.96941447
5.9130368 5.0181932 -0.39782757 0.96941507
5.9755955 4.9434376 -0.39782128 0.96941531
6.0371189 4.8678708 -0.39781505 0.9694159
6.0977049 4.791543 -0.39780891 0.96941644
6.1573925 4.7144728 -0.39780292 0.96941674
1.2595019 0.93949217 -0.080602147 0.99372631
1.2597558 0.89129883 -0.079161264 0.99383825
1.2601659 0.82210934 -0.077182956 0.99399173
1.2603027 0.79980469 -0.07656879 0.9940393
1.2606348 0.73489255 -0.074852407 0.99417257
1.2607324 0.71386719 -0.074320145 0.99421394
1.2913769 0.70995116 -0.075594783 0.994115
1.3719629 0.70994139 -0.079241864 0.99383193
1.4607714 0.70994139 -0.083314434 0.99351597
1.5087206 0.70994139 -0.085532837 0.99334383
1.5592871 0.70994139 -0.08788643 0.99316126
1.612705 0.70994139 -0.090388298 0.99296737
1.7293066 0.70995116 -0.095892638 0.99254066
1.9337401 0.70994139 -0.10566872 0.99178332
2.024209 0.71443355 -0.11011272 0.99143922
2.0242286 0.68595701 -0.10963539 0.99147612
9.3209467 2.8995605 -0.50073224 0.96165699
9.4842672 2.3085155 -0.50071615 0.96165836
9.5124903 2.1891503 -0.50071335 0.96165848
9.5644045 1.9493749 -0.50070834 0.9616589
9.5880957 1.8290331 -0.50070608 0.96165907
9.6102638 1.7083789 -0.50070393 0.96165931
9.6838379 1.2233496 -0.5006969 0.96165979
9.7114744 0.9795996 -0.50069433 0.96165997
9.7414551 0.61287105 -0.50069165 0.96166015
9.7483692 0.49041992 -0.50069106 0.96166021
9.7598925 0.12265625 -0.50069028 0.96166033
9.7606735 -0 -0.50069034 0.96166027
9.7484083 -0.49041992 -0.50069213 0.96166003
9.7230177 -0.85749024 -0.50069511 0.96165997
9.6984863 -1.1015821 -0.50069791 0.96165961
9.683877 -1.2233691 -0.50069946 0.96165961
9.6501656 -1.4663476 -0.50070322 0.96165925
9.6309862 -1.5875 -0.5007053 0.96165925
9.6103611 -1.7083983 -0.50070757 0.9616589
9.5881739 -1.8290625 -0.50070995 0.96165872
9.5392675 -2.0694335 -0.5007152 0.96165842
9.5125685 -2.1891503 -0.50071806 0.96165818
9.4546576 -2.4275489 -0.5007242 0.96165776
9.4234858 -2.5461915 -0.50072753 0.96165746
9.39081 -2.6644237 -0.50073099 0.96165717
2.0241895 -0.68594724 -0.10963523 0.99147624
2.0242286 -0.71443355 -0.11011241 0.99143916
1.8611034 -0.70995116 -0.10217933 0.99205357
1.7930957 -0.70995116 -0.098928452 0.99230552
1.7293066 -0.70994139 -0.095892675 0.99254066
1.4152637 -0.70995116 -0.081220433 0.99367833
1.3719629 -0.70995116 -0.079241678 0.99383187
1.3307129 -0.70996094 -0.077369004 0.99397725
1.2913769 -0.70995116 -0.075594559 0.994115
1.2606348 -0.73490232 -0.074852481 0.99417257
1.2605176 -0.75621092 -0.075403973 0.99412978
1.2602832 -0.79982418 -0.076568715 0.99403936
1.2601659 -0.82213867 -0.077182882 0.99399167
1.2596387 -0.91519529 -0.079869039 0.99378318
6.1600099 -4.7164841 -0.39797378 0.96940392
5.9781346 -4.9455371 -0.39799261 0.96940255
5.852119 -5.0943651 -0.39800566 0.96940166
5.7877831 -5.1675878 -0.39801231 0.96940106
5.7224903 -5.2400193 -0.39801911 0.96940047
5.4523535 -5.5213184 -0.39804703 0.96939838
5.3120995 -5.6567869 -0.39806148 0.96939725
5.2406735 -5.7231932 -0.39806885 0.96939671
5.168447 -5.7887011 -0.39807633 0.96939617
5.0954003 -5.8533006 -0.39808387 0.96939558
4.9468651 -5.9797459 -0.39809915 0.96939445
4.8714356 -6.0415721 -0.39810696 0.96939373
4.7182517 -6.1623044 -0.39812279 0.96939266
4.6405563 -6.2212305 -0.39813074 0.969392
4.5620995 -6.2791891 -0.39813885 0.96939141
4.4829392 -6.3361325 -0.39814702 0.96939081
4.4030566 -6.3921094 -0.39815521 0.96939015
3.9933887 -6.6566796 -0.39819738 0.96938699
3.9095213 -6.7064843 -0.39820603 0.96938628
3.7399511 -6.8028903 -0.39822349 0.96938497
3.5679393 -6.8950391 -0.39824116 0.96938366
3.4811034 -6.9394727 -0.3982501 0.96938306
3.2172754 -7.0662498 -0.39827719 0.96938092
2.948916 -7.1829977 -0.39830479 0.96937871
2.7675683 -7.2551365 -0.39832339 0.96937752
2.6762598 -7.2895212 -0.39833277 0.96937674
2.584502 -7.3227735 -0.39834219 0.96937597
2.4923339 -7.3548532 -0.39835167 0.96937525
2.3997557 -7.3857517 -0.39836115 0.9693746
2.3068261 -7.4154782 -0.39837068 0.96937394
2.2135253 -7.4440527 -0.39838028 0.96937323
2.02583 -7.4977245 -0.3983995 0.96937168
1.9315332 -7.5227537 -0.39840919 0.96937096
1.7419434 -7.5692868 -0.39842865 0.96936953
1.6467285 -7.5907712 -0.39843839 0.96936876
1.3595605 -7.6479979 -0.39846781 0.96936655
1.2633886 -7.6646676 -0.39847767 0.96936578
0.58522457 -7.7473922 -0.39854711 0.96936047
0.48784178 -7.7543359 -0.3985571 0.9693597
0.39038086 -7.7600389 -0.39856705 0.96935898
0.19526367 -7.7677832 -0.39858702 0.96935749
-0.097646482 -7.770205 -0.39861697 0.96935523
-0.19530272 -7.7685547 -0.39862692 0.96935451
-0.29290038 -7.7656736 -0.39863694 0.96935374
-0.39046875 -7.7615914 -0.39864692 0.96935296
-0.58541989 -7.7497067 -0.39866683 0.96935147
-0.68278319 -7.7419138 -0.39867675 0.96935076
-0.78003907 -7.7329392 -0.39868671 0.96934992
-0.87715816 -7.7227149 -0.39869663 0.96934921
-0.97416991 -7.7112889 -0.3987065 0.96934837
-1.3605371 -7.6533399 -0.39874598 0.96934545
-1.6481347 -7.5971971 -0.39877531 0.96934319
-2.0279686 -7.5055175 -0.39881408 0.96934026
-2.4027636 -7.3948727 -0.39885229 0.96933728
-2.4955468 -7.3642282 -0.39886177 0.96933675
-2.5879297 -7.3324609 -0.39887118 0.96933603
-2.8626463 -7.2302341 -0.39889914 0.96933389
-3.3996191 -6.995029 -0.39895383 0.96932971
-3.6610937 -6.8623729 -0.39898041 0.96932775
-3.7471385 -6.8159862 -0.39898917 0.96932697
-3.9174023 -6.7199411 -0.39900646 0.96932578
-4.1681638 -6.5679393 -0.39903197 0.96932381
-4.3320994 -6.4613867 -0.3990486 0.9693225
-4.6516309 -6.2360935 -0.39908102 0.96932006
-4.7297263 -6.1772752 -0.39908898 0.9693194
-5.1087499 -5.8686619 -0.39912742 0.96931654
-5.3266406 -5.6722555 -0.39914948 0.96931481
-5.4676657 -5.5368066 -0.39916372 0.9693138
-5.6727538 -5.3270702 -0.3991845 0.96931225
-1.0297754 -0.8964355 -0.070033953 0.99454653
-1.0301856 -0.83066404 -0.067884021 0.9947136
-1.0304589 -0.78898436 -0.066573024 0.99481535
-1.0305859 -0.76874024 -0.065951839 0.99486363
-1.0309374 -0.71013671 -0.064214207 0.99499857
-1.0589062 -0.70994139 -0.065396726 0.99490684
-1.1504004 -0.70995116 -0.069344141 0.99460018
-1.1834375 -0.70995116 -0.070791394 0.99448776
-1.2538086 -0.70995116 -0.073911019 0.99424559
-1.3307323 -0.70995116 -0.077369116 0.99397719
-1.5087304 -0.70994139 -0.085532375 0.99334383
-1.6693164 -0.70997071 -0.093051568 0.99276072
-1.7293457 -0.70994139 -0.09589237 0.99254054
-1.7870409 -0.70752931 -0.09859138 0.99233145
-1.7868848 -0.65603513 -0.097642399 0.99240494
-9.2400484 -3.2611816 -0.50263691 0.961514
-9.3191986 -3.027998 -0.50264478 0.96151346
-9.4598627 -2.5560155 -0.50265867 0.96151233
-9.4912786 -2.4369531 -0.50266171 0.96151215
-9.5212202 -2.3174901 -0.50266469 0.96151191
-9.5496092 -2.1976757 -0.50266743 0.96151179
-9.5765724 -2.077539 -0.50267011 0.96151137
-9.601943 -1.9570312 -0.50267255 0.96151131
-9.6481838 -1.7151171 -0.50267702 0.96151096
-9.6690035 -1.5937696 -0.50267899 0.96151084
-9.7060738 -1.3502831 -0.50268257 0.96151054
-9.7369823 -1.105957 -0.50268549 0.96151042
-9.7501564 -0.98350585 -0.50268668 0.96151024
-9.7718258 -0.73817378 -0.50268865 0.96151012
-9.7803221 -0.61533201 -0.50268936 0.96151012
-9.7873049 -0.49236327 -0.50268996 0.96151006
-9.7966108 -0.24627928 -0.50269067 0.96150994
-9.7989254 -0.12314453 -0.50269073 0.96151
-9.2953024 -0 -0.50263911 0.96344918
-9.288662 0.35033202 -0.50263804 0.9634493
-9.283515 0.46704102 -0.50263739 0.96344936
-9.2688284 0.70016599 -0.50263566 0.96344942
-9.2592773 0.81660151 -0.50263453 0.96344954
-9.2482424 0.93288082 -0.50263333 0.96344966
-9.2357521 1.0490038 -0.5026319 0.96344984
-9.2218161 1.165 -0.50263035 0.9634499
-9.2064447 1.2807715 -0.50262868 0.96344995
-9.1895895 1.3963574 -0.50262678 0.96345007
-9.171299 1.5117285 -0.50262481 0.96345013
-9.1514845 1.6268262 -0.50262266 0.96345049
-9.130312 1.7416894 -0.5026204 0.96345055
-9.0580368 2.0845313 -0.50261265 0.96345115
-9.0026855 2.3115039 -0.50260675 0.9634515
-8.9728613 2.4244237 -0.50260353 0.9634518
-1.7879101 0.70787108 -0.10398136 0.99232662
-1.7293555 0.70993161 -0.10108581 0.99253941
-1.6127539 0.70994139 -0.095283426 0.99296618
-1.5593066 0.70995116 -0.092646174 0.99316019
-1.4608105 0.70995116 -0.087826386 0.99351484
-1.415293 0.70994139 -0.085619502 0.99367732
-1.3720019 0.70993161 -0.083533473 0.99383092
-1.2913965 0.70995116 -0.079688795 0.99411404
-1.1834179 0.70995116 -0.074625395 0.99448705
-1.1187207 0.70994139 -0.071646921 0.99470645
-1.0882422 0.70994139 -0.070261039 0.99480855
-1.058916 0.70993161 -0.068938561 0.99490607
-1.0298926 0.76818359 -0.069476128 0.99486637
-1.0296289 0.80904293 -0.070807986 0.99476826
-1.0294726 0.83007812 -0.071510196 0.99471653
-5.3146091 5.117949 -0.39897567 0.9708764
-5.249824 5.184238 -0.39896896 0.97087681
-4.9823632 5.4410839 -0.39894134 0.97087884
-4.913496 5.5031638 -0.39893425 0.97087938
-4.8438673 5.5643749 -0.39892706 0.97087991
-4.7734571 5.6247067 -0.39891979 0.97088045
-4.7023239 5.6841307 -0.39891243 0.97088099
-4.5578318 5.800293 -0.39889756 0.970882
-4.184238 6.0744433 -0.39885905 0.9708848
-3.95208 6.2274609 -0.39883512 0.97088653
-3.7941797 6.3245506 -0.39881888 0.97088766
-3.7143261 6.3716111 -0.39881068 0.97088826
-3.6338768 6.4176269 -0.3988024 0.97088891
-3.5528905 6.462666 -0.39879408 0.97088945
-3.2234082 6.632441 -0.39876017 0.97089195
-3.1397362 6.6722946 -0.39875159 0.97089249
-2.8858397 6.7854395 -0.39872551 0.9708944
-2.8003027 6.8210254 -0.39871672 0.97089499
-2.7143066 6.8554883 -0.39870787 0.97089577
-2.5410254 6.9212399 -0.3986901 0.97089702
-2.4538281 6.9524803 -0.39868113 0.97089756
-2.3661914 6.9826074 -0.39867216 0.97089827
-2.2782128 7.011621 -0.39866313 0.97089893
-2.1012011 7.0663376 -0.39864498 0.97090024
-1.9228613 7.1165819 -0.39862666 0.97090155
-1.833252 7.140029 -0.39861748 0.97090214
-1.6531543 7.183496 -0.398599 0.97090358
-1.3811425 7.2402048 -0.39857116 0.97090554
-1.2900293 7.2568164 -0.39856181 0.9709062
-0.70476562 4.2755661 -0.23431991 0.98279142
-0.59479493 4.2754197 -0.23341915 0.98285705
-0.4294531 4.2572751 -0.23137946 0.98300552
-0.37566406 4.259697 -0.23123607 0.98301595
-0.37024415 7.3595505 -0.39846763 0.97091293
-0.27773437 7.3634276 -0.39845815 0.97091365
-0.18516602 7.3661718 -0.39844871 0.9709143
-1.953125e-05 7.368154 -0.39842978 0.97091568
0.09256836 7.3673925 -0.39842027 0.97091633
0.46260741 7.3527441 -0.39838248 0.97091907
0.55492187 7.3461423 -0.39837304 0.97091985
0.64719725 7.3384275 -0.39836359 0.9709205
0.7393164 7.3295507 -0.39835417 0.97092116
0.83134764 7.3195019 -0.39834478 0.97092187
0.92325193 7.3083301 -0.3983354 0.97092241
1.9209863 7.10958 -0.39823359 0.97092974
2.0989161 7.0587206 -0.39821544 0.97093117
2.1873925 7.0316405 -0.39820644 0.97093177
2.3633106 6.9741211 -0.3981885 0.97093308
2.4507129 6.9437399 -0.39817962 0.97093368
2.7104981 6.8459764 -0.39815316 0.97093558
2.8815722 6.7754002 -0.39813572 0.97093683
2.9663963 6.7385058 -0.39812708 0.97093749
3.2180955 6.6214843 -0.39810145 0.97093928
3.3009472 6.5804005 -0.39809301 0.97093987
3.4651074 6.4950781 -0.39807633 0.97094119
3.546416 6.4508886 -0.39806807 0.97094172
3.7867675 6.3122754 -0.39804363 0.97094345
3.8657324 6.2640524 -0.39803562 0.97094405
3.9440722 6.2148533 -0.39802763 0.97094458
4.0217676 6.1646776 -0.39801979 0.97094518
4.2509861 6.0083594 -0.39799649 0.97094691
4.3261032 5.9543748 -0.39798889 0.97094733
4.4004784 5.8994141 -0.39798132 0.97094798
4.5471582 5.7867379 -0.39796644 0.97094911
4.6909862 5.6704392 -0.39795184 0.97095013
4.7618065 5.6109471 -0.39794466 0.97095054
4.9696188 5.4271679 -0.39792362 0.97095221
5.1042676 5.3004103 -0.39791 0.97095311
5.4265528 4.9690623 -0.39787737 0.97095543
5.609736 4.7607617 -0.39785889 0.9709568
5.6690331 4.6898341 -0.39785284 0.97095716
5.7274313 4.618154 -0.39784697 0.97095764
5.7849317 4.545742 -0.39784119 0.97095805
5.8415332 4.4726267 -0.39783546 0.97095841
1.258623 0.93884766 -0.084909588 0.99372971
1.2587597 0.91455078 -0.084137686 0.99378663
1.2590722 0.86727536 -0.082673721 0.99389434
1.2592285 0.84423828 -0.081979975 0.99394536
1.2593457 0.82157224 -0.081310004 0.99399477
1.2594628 0.79928708 -0.080663256 0.9940424
1.2596972 0.75571287 -0.079437062 0.9941327
1.2598144 0.73441404 -0.0788562 0.99417549
1.2913769 0.70995116 -0.079688646 0.9941141
1.3307129 0.70993161 -0.081559487 0.99397641
1.3719629 0.70994139 -0.083533704 0.99383104
1.4152441 0.70994139 -0.085619502 0.9936775
1.4607714 0.70994139 -0.087826766 0.99351501
1.6692871 0.70995116 -0.098091006 0.99275976
1.861123 0.70996094 -0.10771336 0.99205238
1.9337597 0.70996094 -0.11139152 0.99178207
2.0241308 0.71440428 -0.11607185 0.99143833
8.8429003 2.7508788 -0.5007813 0.96358198
8.8767281 2.6395018 -0.5007779 0.96358216
8.9091311 2.5277538 -0.50077474 0.9635824
8.9401264 2.4155762 -0.50077164 0.96358269
8.9697361 2.3030469 -0.50076878 0.96358281
8.9979391 2.1901367 -0.50076604 0.96358293
9.0739546 1.8494238 -0.50075859 0.96358347
9.1174707 1.620791 -0.50075436 0.96358383
9.1552439 1.3911425 -0.50075078 0.96358418
9.1719818 1.2759863 -0.50074917 0.96358424
9.2339163 0.69752926 -0.50074345 0.9635846
9.2419043 0.58145505 -0.50074279 0.96358478
9.2485256 0.46527344 -0.5007422 0.9635846
9.253603 0.34902343 -0.50074184 0.96358472
9.2572365 0.23269531 -0.50074154 0.96358484
9.2594233 0.11636718 -0.50074148 0.96358484
9.2601662 9.7656248e-06 -0.50074154 0.96358478
9.2485256 -0.46527344 -0.50074321 0.9635846
9.2244434 -0.81353515 -0.50074601 0.96358448
9.1371384 -1.5061035 -0.50075573 0.96358377
9.1175489 -1.6208007 -0.50075781 0.96358353
9.0964937 -1.7352442 -0.50076008 0.96358341
9.0247364 -2.0769141 -0.50076783 0.96358299
8.9402437 -2.4156053 -0.50077683 0.96358222
8.9092093 -2.5277832 -0.50078011 0.9635821
8.8429785 -2.7509081 -0.50078714 0.96358168
2.0241504 -0.6859082 -0.11556885 0.99147522
2.0241504 -0.71439451 -0.11607204 0.99143827
1.8611034 -0.70994139 -0.10771293 0.99205244
1.7931347 -0.70993161 -0.10428573 0.99230427
1.7292676 -0.70995116 -0.10108539 0.9925397
1.6692871 -0.70995116 -0.098090932 0.99275976
1.6126856 -0.70996094 -0.095283203 0.99296635
1.3719629 -0.70995116 -0.083533436 0.99383098
1.2599707 -0.7134375 -0.078295819 0.99421656
1.2597167 -0.75572264 -0.079437137 0.99413264
1.2594628 -0.79931641 -0.080663376 0.99404234
1.2593457 -0.82160157 -0.081309967 0.99399471
1.2592285 -0.84426755 -0.081980057 0.9939453
1.2586426 -0.93886715 -0.084909283 0.99372959
5.7873926 -4.5477052 -0.39801168 0.97094578
5.6121192 -4.7628026 -0.39802986 0.97094458
5.428916 -4.9711719 -0.39804882 0.97094309
5.3024316 -5.1062012 -0.3980619 0.9709422
5.0395212 -5.3665428 -0.39808905 0.97094023
4.9717674 -5.4295411 -0.39809602 0.97093976
4.8339548 -5.552959 -0.39811027 0.97093868
4.7638769 -5.613369 -0.39811751 0.97093815
4.6930175 -5.6729198 -0.39812481 0.97093767
4.6214552 -5.7315526 -0.39813221 0.97093707
4.4761229 -5.8460937 -0.3981472 0.97093606
4.4023924 -5.9019918 -0.3981548 0.97093546
4.3279786 -5.9569626 -0.39816245 0.97093493
4.1770606 -6.0640721 -0.39817801 0.97093385
4.1006346 -6.1161914 -0.39818588 0.97093326
3.945791 -6.2175584 -0.39820182 0.97093213
3.8674121 -6.266777 -0.39820987 0.97093159
3.7884276 -6.3150196 -0.39821801 0.97093099
3.7088768 -6.3622556 -0.3982262 0.97093034
3.3023925 -6.5832715 -0.39826795 0.97092736
3.2194824 -6.6243944 -0.39827651 0.97092676
2.967705 -6.7414646 -0.39830238 0.97092491
2.7974706 -6.814209 -0.39831987 0.97092366
2.625459 -6.8826952 -0.39833754 0.97092229
2.5388379 -6.9152732 -0.39834642 0.97092175
2.2765331 -7.0065231 -0.39837337 0.97091979
2.1883886 -7.0347362 -0.3983824 0.97091913
2.0998535 -7.0618458 -0.39839149 0.97091848
2.0110059 -7.0878124 -0.39840057 0.97091788
1.9218066 -7.1126852 -0.39840975 0.97091728
1.8323535 -7.1364646 -0.3984189 0.97091645
1.4715723 -7.2201657 -0.39845589 0.97091389
1.1984863 -7.2710252 -0.39848387 0.97091186
1.1070801 -7.2856836 -0.39849326 0.97091115
1.0154394 -7.2991891 -0.39850265 0.97091049
0.92366207 -7.311543 -0.39851204 0.97090983
0.55517578 -7.3494139 -0.39854977 0.97090709
0.46280274 -7.3559766 -0.39855918 0.97090644
0.27781248 -7.3656344 -0.39857811 0.97090507
0.18524414 -7.3687205 -0.39858761 0.97090441
-9.7656248e-06 -7.3714061 -0.39860657 0.97090298
-0.092636719 -7.370996 -0.39861602 0.97090232
-0.18526366 -7.3694434 -0.39862549 0.97090161
-0.27785155 -7.3666892 -0.39863494 0.97090101
-0.6476953 -7.344121 -0.39867273 0.97089827
-0.92411131 -7.3150096 -0.39870101 0.97089624
-1.0159668 -7.3029881 -0.3987104 0.97089559
-1.107705 -7.289824 -0.39871973 0.97089487
-1.3817577 -7.2433887 -0.39874771 0.97089291
-1.6539062 -7.1866598 -0.39877549 0.97089094
-1.9237401 -7.1197262 -0.39880303 0.97088885
-2.1021287 -7.0694432 -0.3988212 0.9708876
-2.1908495 -7.0426559 -0.39883026 0.97088689
-2.279248 -7.0147166 -0.39883927 0.97088623
-2.3672462 -6.9856834 -0.39884821 0.97088557
-2.7154882 -6.8585153 -0.3988837 0.97088313
-2.8871093 -6.7884274 -0.39890116 0.97088176
-2.9722557 -6.7517381 -0.39890984 0.97088122
-3.2248242 -6.6353416 -0.39893553 0.97087938
-3.5544434 -6.4654784 -0.39896911 0.97087693
-3.6354883 -6.4204392 -0.39897731 0.97087634
-3.7159667 -6.3743844 -0.39898551 0.97087568
-3.8751073 -6.2792382 -0.39900169 0.97087461
-3.9538085 -6.2301464 -0.3990097 0.97087407
-4.0318651 -6.1801171 -0.39901763 0.97087342
-4.1092968 -6.1290817 -0.3990255 0.97087288
-4.1860642 -6.0770898 -0.39903328 0.97087228
-4.2621679 -6.0241308 -0.39904097 0.97087175
-4.3376269 -5.9702048 -0.39904869 0.97087115
-4.4123826 -5.9153318 -0.39905623 0.97087067
-4.486455 -5.8595409 -0.39906374 0.97087008
-4.6324415 -5.7451463 -0.39907855 0.97086912
-4.775527 -5.6271286 -0.39909309 0.97086805
-4.8459473 -5.5667672 -0.39910018 0.97086757
-4.9156251 -5.5055466 -0.39910728 0.97086698
-5.052588 -5.3804493 -0.39912117 0.97086602
-5.1198926 -5.3166308 -0.39912796 0.97086549
-5.380908 -5.0529881 -0.39915434 0.97086364
-1.0290234 -0.89578122 -0.073773421 0.99454975
-1.0293262 -0.85153317 -0.072237663 0.99466288
-1.0298926 -0.76821285 -0.069476165 0.99486631
-1.03 -0.74834961 -0.06884487 0.99491292
-1.1834375 -0.70995116 -0.074625239 0.99448699
-1.2914063 -0.70995116 -0.079688489 0.99411404
-1.3307323 -0.70995116 -0.081559107 0.99397629
-1.3719921 -0.70997071 -0.083533324 0.99383086
-1.4607812 -0.70996094 -0.087826043 0.99351496
-1.5592968 -0.70996094 -0.0926461 0.99316025
-1.6693164 -0.70997071 -0.098091006 0.99275964
-1.7879003 -0.70787108 -0.10398124 0.99232662
-1.787832 -0.6819824 -0.10346981 0.99236417
-8.764472 -3.0933201 -0.50258809 0.96345294
-8.8396091 -2.8721581 -0.50259554 0.96345222
-8.8750296 -2.7608593 -0.50259906 0.9634521
-8.9091015 -2.6491406 -0.5026024 0.9634518
-8.9417381 -2.5369921 -0.50260568 0.96345162
-9.0027637 -2.3115137 -0.50261164 0.96345121
-9.0311623 -2.1982226 -0.50261444 0.96345097
-9.1077147 -1.8562988 -0.50262189 0.96345049
-9.1713476 -1.5117188 -0.50262803 0.96344995
-9.2064838 -1.2807813 -0.50263137 0.96344978
-9.2592773 -0.81658202 -0.50263631 0.96344954
-9.2688179 -0.70016599 -0.50263715 0.96344948
-9.2769232 -0.58364254 -0.50263786 0.96344936
-9.2923727 -0.23359375 -0.50263906 0.96344918
-8.8373241 0.22215819 -0.50259203 0.96520227
-8.8226662 0.55506837 -0.50259018 0.96520233
-8.8149509 0.66587889 -0.50258929 0.96520251
-8.7954006 0.88719726 -0.50258702 0.96520263
-8.7835445 0.99764645 -0.50258571 0.96520269
-8.7702732 1.1079491 -0.50258422 0.96520281
-8.7556343 1.2180566 -0.50258261 0.96520293
-8.7033882 1.5471874 -0.50257695 0.96520334
-8.6616993 1.7653809 -0.50257242 0.96520364
-8.6387987 1.8740917 -0.50256997 0.96520376
-8.5888672 2.0905566 -0.50256467 0.96520418
-8.5335445 2.3057227 -0.50255871 0.96520448
-8.4404097 2.6256835 -0.50254887 0.96520513
-1.7885938 0.65666014 -0.10832397 0.99239546
-1.7886719 0.68232423 -0.10883991 0.9923594
-1.7887597 0.70822263 -0.1093782 0.99232173
-1.5087402 0.70993161 -0.094798237 0.9933418
-1.3720019 0.70993161 -0.087825999 0.99382997
-1.3307519 0.70995116 -0.085750461 0.99397534
-1.2914159 0.70994139 -0.083783798 0.99411309
-1.253828 0.70993161 -0.081917837 0.99424386
-1.1834179 0.70995116 -0.078460462 0.99448621
-1.1187207 0.70994139 -0.075328559 0.99470562
-1.0882422 0.70994139 -0.073871799 0.99480778
-1.058916 0.70993161 -0.072481424 0.99490529
-1.0291797 0.76767576 -0.072996862 0.99486911
-1.0290332 0.78789061 -0.073683701 0.99482101
-1.0289062 0.80848628 -0.074395105 0.99477106
-1.0287499 0.82950193 -0.075132333 0.99471939
-1.0286034 0.85092771 -0.075896263 0.99466586
-1.0284375 0.87278318 -0.076687962 0.99461043
-1.0282714 0.89511716 -0.077508427 0.99455291
-1.0281249 0.91792965 -0.078358993 0.99449325
-1.0279394 0.94125974 -0.079240911 0.99443144
-5.1153612 4.8036327 -0.39895561 0.97227722
-5.0545216 4.8674607 -0.39894935 0.97227758
-4.930449 4.9928026 -0.39893654 0.97227842
-4.8672266 5.0542674 -0.39892998 0.97227895
-4.7384958 5.1748047 -0.39891669 0.97227997
-4.6068163 5.2920704 -0.3989031 0.9722808
-4.4722362 5.4059958 -0.39888921 0.97228169
-4.4038572 5.4616699 -0.39888212 0.97228217
-4.3348045 5.5164843 -0.39887503 0.97228265
-4.2650681 5.5704198 -0.39886788 0.97228312
-4.0518847 5.7268748 -0.39884588 0.97228467
-3.7587109 5.9228024 -0.39881569 0.9722867
-3.6085351 6.0151463 -0.39880022 0.97228783
-3.5326171 6.0598826 -0.39879242 0.97228837
-3.3790722 6.1464939 -0.39877662 0.9722895
-3.3015234 6.1883593 -0.39876863 0.97228998
-3.2234278 6.229248 -0.39876065 0.97229046
-3.0657322 6.3080173 -0.39874443 0.97229165
-2.9061425 6.382822 -0.39872801 0.97229266
-2.8256347 6.4187012 -0.39871973 0.97229326
-2.7446876 6.4535446 -0.39871141 0.97229391
-2.333828 6.6124411 -0.39866924 0.97229683
-2.1668165 6.6687303 -0.39865211 0.97229797
-1.8288379 6.7685938 -0.39861742 0.97230035
-1.743623 6.7908788 -0.39860868 0.97230095
-1.5723242 6.8322654 -0.39859116 0.97230214
-1.4863281 6.8513083 -0.39858231 0.97230279
-1.4000781 6.8693261 -0.39857349 0.97230327
-1.3136133 6.8862109 -0.39856461 0.97230393
-0.64672852 4.2559667 -0.2447446 0.9829008
-0.48532227 4.272861 -0.24448955 0.98291844
-0.4293457 4.2561426 -0.24320413 0.98300743
-0.37551758 4.2577634 -0.24300896 0.98302102
-0.44008788 6.9949803 -0.39847517 0.97231007
-0.2641699 7.0035152 -0.39845717 0.97231132
-0.17613281 7.0061035 -0.39844817 0.97231197
-0.088056639 7.0075974 -0.39843917 0.97231263
0.088056639 7.0072851 -0.39842117 0.97231388
0.17608398 7.0054784 -0.39841217 0.97231442
0.26411131 7.0025582 -0.39840317 0.97231501
0.35208008 6.9985352 -0.39839417 0.97231561
0.79073238 6.9618258 -0.39834934 0.97231871
0.9654004 6.9394336 -0.39833152 0.97232002
1.0525098 6.926621 -0.39832258 0.9723205
1.312705 6.8815527 -0.39829603 0.97232246
1.4851855 6.8461132 -0.39827842 0.97232354
1.5710645 6.8267479 -0.39826968 0.97232419
1.6566503 6.8063083 -0.39826095 0.97232485
1.8270996 6.7622361 -0.39824355 0.97232598
1.9119042 6.7386036 -0.39823493 0.97232658
2.0805566 6.6881442 -0.39821774 0.97232771
2.1643846 6.6612988 -0.39820918 0.97232842
2.2478614 6.6334567 -0.39820066 0.9723289
2.4137793 6.5745897 -0.39818373 0.97233003
2.5780957 6.5115819 -0.39816704 0.97233123
2.6596582 6.4785252 -0.3981587 0.97233188
2.7408299 6.4444628 -0.39815047 0.97233236
2.8215332 6.4093847 -0.39814225 0.97233289
3.1397362 6.2590137 -0.39810988 0.97233516
3.2180567 6.2189355 -0.39810187 0.97233576
3.3732128 6.135869 -0.39808613 0.97233677
3.5262206 6.0489354 -0.39807054 0.97233778
3.6769629 5.9581833 -0.39805526 0.97233886
3.8986816 5.8150096 -0.39803272 0.97234046
4.043447 5.7149901 -0.39801803 0.97234148
4.1148534 5.6636329 -0.39801079 0.97234195
4.3251657 5.504209 -0.39798942 0.97234344
4.3939161 5.4493361 -0.39798248 0.97234392
4.529326 5.3370409 -0.39796874 0.97234476
4.7270212 5.1622458 -0.39794871 0.97234619
4.9179783 4.9801855 -0.39792937 0.9723475
4.9800878 4.9179196 -0.39792308 0.97234797
5.2205567 4.661201 -0.39789879 0.9723497
5.2786427 4.5951462 -0.39789289 0.97235012
5.4478416 4.3927536 -0.39787582 0.97235131
1.2577832 0.93819332 -0.089212112 0.99373299
1.2580956 0.89011717 -0.087619856 0.99384451
1.2586426 0.79877931 -0.084753834 0.99404532
1.2590332 0.73394531 -0.082856216 0.99417824
1.2591504 0.71297848 -0.082267605 0.99421942
1.2913769 0.70995116 -0.083783872 0.99411321
1.3307129 0.70993161 -0.085750617 0.99397552
1.4152441 0.70994139 -0.090019301 0.99367654
1.4607714 0.70994139 -0.092339784 0.993514
1.612705 0.70994139 -0.10018009 0.99296528
1.7293261 0.70996094 -0.10628082 0.99253833
1.7931151 0.70996094 -0.10964542 0.99230313
1.861123 0.70996094 -0.11324863 0.99205112
2.0240331 0.71438473 -0.12203269 0.99143738
2.0240722 0.6859082 -0.12150352 0.99147421
2.0240722 0.65766603 -0.12099823 0.99150956
8.4114161 2.6166406 -0.50082552 0.96532255
8.4436035 2.5107226 -0.50082237 0.96532267
8.5320997 2.1906641 -0.50081366 0.96532321
8.5843258 1.9755468 -0.50080854 0.96532375
8.6084862 1.8675097 -0.50080621 0.96532369
8.6312208 1.7591796 -0.50080395 0.96532393
8.6525879 1.6505663 -0.50080192 0.9653241
8.6912985 1.4325976 -0.50079817 0.96532428
8.7085638 1.3232617 -0.50079656 0.96532446
8.7521973 0.99409175 -0.50079244 0.96532464
8.7639551 0.8840332 -0.50079131 0.96532482
8.7743654 0.77383786 -0.50079042 0.96532488
8.7833691 0.66351563 -0.50078958 0.96532494
8.7910452 0.55307615 -0.50078893 0.96532488
8.8076658 0.11068359 -0.50078768 0.96532512
8.8083687 9.7656248e-06 -0.50078773 0.96532506
8.8076849 -0.11068359 -0.50078791 0.965325
8.7972364 -0.44257811 -0.50078934 0.96532512
8.7910252 -0.55308592 -0.50079006 0.96532494
8.7834082 -0.66351563 -0.50079095 0.96532482
8.7639942 -0.88405269 -0.50079322 0.9653247
8.7522364 -0.99409175 -0.50079453 0.96532452
8.7390528 -1.1039941 -0.50079602 0.96532452
8.7085838 -1.3232812 -0.5007993 0.9653244
8.6085253 -1.867539 -0.50081015 0.96532351
8.5321579 -2.1906836 -0.50081831 0.96532297
8.4745016 -2.404453 -0.50082439 0.96532261
8.4115334 -2.6166797 -0.50083107 0.96532208
1.8611034 -0.70994139 -0.11324829 0.99205124
1.6692871 -0.70995116 -0.10313175 0.99275869
1.6126856 -0.70996094 -0.10017967 0.99296528
1.4607519 -0.70996094 -0.092339434 0.99351406
1.4152637 -0.70995116 -0.090019107 0.99367642
1.3719629 -0.70995116 -0.087826118 0.99383008
1.2913769 -0.70995116 -0.083783641 0.99411321
1.258916 -0.75525391 -0.083466262 0.99413544
1.2587988 -0.77685547 -0.084098622 0.99409109
1.2585254 -0.82107419 -0.085432813 0.99399763
5.5610251 -4.2578712 -0.3981961 0.97232926
5.4502048 -4.394619 -0.39804602 0.97233957
4.9201269 -4.9823046 -0.39810088 0.97233576
4.7935057 -5.1045704 -0.39811394 0.97233486
4.5312595 -5.3393259 -0.39814103 0.97233307
4.4639158 -5.3959274 -0.39814797 0.97233254
4.3958302 -5.4517088 -0.39815497 0.97233206
4.2576075 -5.5606446 -0.39816925 0.97233105
4.1874704 -5.6138086 -0.39817646 0.97233057
4.1166501 -5.6660938 -0.39818373 0.97233009
4.0452442 -5.7174706 -0.39819109 0.9723295
3.9730957 -5.7679687 -0.39819854 0.97232914
3.9004004 -5.8175387 -0.39820603 0.9723286
3.6034472 -6.0066309 -0.3982366 0.97232646
3.5277441 -6.0515428 -0.39824438 0.97232598
3.3746972 -6.1385546 -0.39826012 0.97232479
3.2194824 -6.2216501 -0.39827609 0.97232383
3.0622363 -6.3008399 -0.39829227 0.97232276
2.9828808 -6.3389649 -0.39830038 0.97232211
2.8227637 -6.4121971 -0.39831686 0.97232097
2.7420213 -6.4472947 -0.39832515 0.97232038
2.5792284 -6.5144529 -0.39834186 0.97231925
2.4148145 -6.5774608 -0.39835876 0.97231817
2.332041 -6.6074314 -0.39836723 0.97231752
2.2488573 -6.6363668 -0.39837581 0.97231692
2.1653612 -6.664248 -0.39838436 0.97231632
1.9972558 -6.716836 -0.39840165 0.97231519
1.912744 -6.7415524 -0.39841026 0.9723146
1.7428027 -6.7877927 -0.39842772 0.9723134
1.6573925 -6.8093162 -0.39843646 0.97231275
1.2267284 -6.9006934 -0.39848059 0.97230977
1.1399121 -6.9157324 -0.39848948 0.97230917
1.052959 -6.9296579 -0.39849842 0.97230858
0.96583003 -6.9424996 -0.39850733 0.97230792
0.70350581 -6.9744434 -0.39853415 0.97230607
0.35222656 -7.0016112 -0.39857012 0.97230363
0.26422852 -7.0056443 -0.39857912 0.97230303
-0.35228515 -7.002861 -0.39864218 0.97229874
-0.44026366 -6.9980369 -0.39865118 0.97229815
-0.61605465 -6.9850974 -0.39866912 0.97229683
-0.79140621 -6.9677048 -0.39868703 0.9722957
-0.96630859 -6.9459372 -0.39870492 0.97229439
-1.1406054 -6.9197559 -0.39872271 0.97229326
-1.2274902 -6.9050488 -0.39873162 0.9722926
-1.3141992 -6.8892283 -0.39874044 0.97229195
-1.4007031 -6.872334 -0.39874926 0.97229135
-1.4869823 -6.8543453 -0.39875808 0.97229069
-1.6588281 -6.8150973 -0.39877564 0.97228956
-2.1677637 -6.67167 -0.39882749 0.97228593
-2.6645215 -6.4902344 -0.39887813 0.97228247
-2.7458985 -6.456367 -0.39888641 0.97228199
-2.8268652 -6.421484 -0.39889461 0.9722814
-2.9074023 -6.3856053 -0.3989028 0.97228074
-3.3029687 -6.1910644 -0.3989431 0.972278
-3.5341699 -6.0625291 -0.39896658 0.97227645
-3.6101172 -6.0177441 -0.3989743 0.97227597
-3.7603807 -5.9253612 -0.39898956 0.97227484
-3.8345799 -5.8777442 -0.3989971 0.97227442
-4.0536132 -5.7293649 -0.39901936 0.97227287
-4.2669139 -5.5728126 -0.39904097 0.97227138
-4.5418749 -5.3517675 -0.39906889 0.97226936
-4.6088181 -5.2943649 -0.39907566 0.97226894
-4.6750779 -5.2361131 -0.39908236 0.97226846
-4.7405763 -5.177031 -0.39908901 0.97226804
-4.8693457 -5.0564451 -0.39910206 0.97226709
-4.9325585 -4.9949412 -0.39910847 0.97226673
-5.117578 -4.8057127 -0.39912719 0.97226536
-1.0284375 -0.87280273 -0.076687813 0.99461037
-1.0286034 -0.85092771 -0.075896263 0.99466586
-1.0287695 -0.82950193 -0.075132333 0.99471933
-1.0291699 -0.76768553 -0.072996974 0.99486911
-1.0293164 -0.74784178 -0.07233391 0.99491554
-1.0294336 -0.72833985 -0.071694031 0.99496043
-1.0306835 -0.70995116 -0.071153179 0.99499834
-1.0589062 -0.70994139 -0.072481155 0.99490529
-1.1834375 -0.70995116 -0.078460157 0.99448609
-1.2538086 -0.70995116 -0.081917532 0.99424392
-1.415293 -0.70995116 -0.090019263 0.99367636
-1.5592968 -0.70996094 -0.097406998 0.99315917
-1.7293066 -0.70993161 -0.10628033 0.99253845
-1.7887597 -0.70820314 -0.10937824 0.99232179
-8.5335741 -2.3057325 -0.50256366 0.96520436
-8.5619631 -2.1983299 -0.50256646 0.965204
-8.6145897 -1.9825 -0.50257158 0.96520364
-8.6617575 -1.7654198 -0.50257623 0.96520334
-8.683301 -1.6564257 -0.50257826 0.96520323
-8.7222357 -1.437705 -0.50258201 0.96520299
-8.7396479 -1.3279883 -0.50258368 0.96520287
-8.7703314 -1.1079589 -0.5025866 0.96520257
-8.7835646 -0.99765623 -0.50258785 0.96520257
-8.7954397 -0.88720703 -0.50258893 0.96520245
-8.8059082 -0.77661133 -0.50258988 0.96520239
-8.8289547 -0.44416013 -0.50259191 0.96520227
-8.8338375 -0.33318359 -0.50259227 0.96520227
-8.4273825 -9.7656248e-06 -0.50255036 0.96679443
-8.4266796 0.10588867 -0.50255013 0.96679455
-8.4246874 0.21177734 -0.50254983 0.96679455
-8.4107027 0.52915037 -0.5025481 0.96679461
-8.4033499 0.63480467 -0.5025472 0.96679473
-8.3607712 1.0562011 -0.50254244 0.96679503
-8.3467865 1.1611816 -0.50254089 0.96679521
-8.331543 1.2659765 -0.50253922 0.96679521
-8.3149118 1.3705566 -0.50253737 0.96679544
-8.277812 1.5790722 -0.50253338 0.96679556
-8.2354298 1.786582 -0.50252885 0.96679592
-8.2123241 1.8899218 -0.50252634 0.96679592
-8.1878414 1.9929491 -0.50252372 0.96679628
-8.1621094 2.0956738 -0.50252098 0.96679646
-8.1067772 2.3000977 -0.50251508 0.96679682
-8.0141697 2.603955 -0.5025053 0.96679747
-7.946074 2.8044825 -0.50249815 0.96679801
-1.7896289 0.70857418 -0.11478169 0.99231678
-1.6127148 0.70995116 -0.1050782 0.99296409
-1.5593262 0.70994139 -0.1021698 0.99315798
-1.5087402 0.70993161 -0.099433631 0.99334073
-1.415293 0.70994139 -0.09442085 0.99367535
-1.3720019 0.70993161 -0.092120357 0.99382895
-1.1187207 0.70994139 -0.079011798 0.99470478
-1.0882422 0.70994139 -0.077483483 0.99480695
-1.0287499 0.72784179 -0.075149342 0.99496299
-1.028623 0.74732423 -0.075819507 0.99491817
-1.0283496 0.78734374 -0.077233277 0.99482363
-1.0277051 0.87216794 -0.080379941 0.99461335
-1.0271875 0.94056636 -0.083054006 0.9944346
-4.8766403 4.579453 -0.39893144 0.97354949
-4.7598534 4.7004099 -0.39891937 0.97355038
-4.6400681 4.8183985 -0.39890701 0.97355121
-4.5791111 4.8762498 -0.39890072 0.97355151
-4.5174122 4.9333396 -0.39889434 0.97355187
-4.4549708 4.9896092 -0.3988879 0.97355241
-4.3280177 5.0998144 -0.39887482 0.97355336
-4.1983495 5.2067966 -0.39886141 0.97355419
-4.1325388 5.2590623 -0.39885464 0.97355455
-4.0660644 5.3104782 -0.39884776 0.97355503
-3.7938378 5.5076857 -0.39881971 0.97355682
-3.7242284 5.5548339 -0.39881256 0.97355735
-3.5833495 5.6464453 -0.39879805 0.97355831
-3.4401758 5.7344918 -0.39878333 0.97355938
-3.2948632 5.8189354 -0.39876837 0.97356027
-3.1474903 5.8996677 -0.3987532 0.97356123
-2.9227343 6.0137596 -0.39873007 0.97356272
-2.8468554 6.0498829 -0.39872229 0.97356331
-2.3827636 6.2463965 -0.39867464 0.97356641
-2.1455078 6.3313866 -0.39865029 0.97356796
-2.0657423 6.3577247 -0.39864212 0.97356844
-1.9856542 6.3830371 -0.39863387 0.97356904
-1.9052539 6.4073534 -0.39862564 0.97356957
-1.7435546 6.4529395 -0.39860904 0.97357064
-1.6623144 6.4741993 -0.39860073 0.97357124
-1.5807714 6.4944334 -0.39859238 0.97357184
-1.4170214 6.5318456 -0.39857557 0.97357285
-0.7039746 4.270752 -0.25811583 0.98280525
-0.53972656 4.2723241 -0.25679824 0.98289227
-0.42921874 4.2549806 -0.25502679 0.98300934
-0.34161133 4.5219727 -0.27042869 0.98199242
-0.25185546 6.6770215 -0.39845625 0.97358072
-0.16792968 6.6795311 -0.39844766 0.97358119
0.08396484 6.6806836 -0.39842191 0.97358286
0.16790038 6.6789355 -0.3984133 0.97358352
0.41946289 6.6674314 -0.39838758 0.97358519
0.58687496 6.6545019 -0.3983705 0.97358632
0.75389647 6.637373 -0.39835346 0.97358739
0.83720702 6.6272459 -0.39834493 0.97358793
0.92040038 6.616045 -0.39833644 0.97358853
1.0034473 6.603828 -0.39832798 0.97358906
1.0863184 6.5905466 -0.39831951 0.97358966
1.2515527 6.5608883 -0.39830264 0.97359073
1.333877 6.5445018 -0.39829421 0.97359133
1.4159667 6.5270996 -0.39828587 0.9735918
1.4978613 6.5086422 -0.39827749 0.9735924
1.5794824 6.4891696 -0.39826918 0.97359294
1.6608691 6.4686718 -0.39826086 0.97359347
1.7420019 6.4471774 -0.39825261 0.97359395
1.9033886 6.4010935 -0.39823616 0.97359508
1.9836426 6.376543 -0.39822796 0.97359556
2.2223926 6.2968554 -0.39820364 0.97359723
2.457998 6.2082419 -0.39817962 0.97359884
2.5357909 6.1767383 -0.39817172 0.97359931
2.6900878 6.1108298 -0.39815602 0.97360033
2.7666309 6.076416 -0.39814821 0.97360086
2.8426855 6.0410643 -0.39814049 0.97360134
2.9935253 5.9674902 -0.39812514 0.97360229
3.1423924 5.8901563 -0.39810997 0.97360331
3.2161036 5.8500977 -0.39810249 0.97360379
3.2892871 5.8091111 -0.39809504 0.97360432
3.3619628 5.7671971 -0.39808765 0.97360486
3.5767479 5.6360841 -0.39806584 0.97360623
3.6472363 5.5905957 -0.39805868 0.97360671
3.7171581 5.5442286 -0.39805156 0.97360706
3.855166 5.4488573 -0.39803755 0.97360808
3.9232128 5.3998828 -0.39803067 0.97360867
4.2542286 5.1424704 -0.39799708 0.97361064
4.4447947 4.9782324 -0.39797774 0.97361195
4.5069237 4.9219041 -0.39797148 0.97361243
4.5683689 4.8648047 -0.39796522 0.97361273
4.6889939 4.7483106 -0.39795303 0.97361368
4.7482324 4.6889744 -0.39794704 0.97361398
4.8066893 4.6288376 -0.39794111 0.97361451
4.9213767 4.506465 -0.39792952 0.97361511
4.9775486 4.4442091 -0.39792386 0.97361547
5.0875096 4.3175778 -0.39791274 0.9736163
5.1942673 4.1882715 -0.39790195 0.97361696
5.2464161 4.1226072 -0.39789671 0.97361732
1.2568847 0.93755859 -0.093510434 0.99373639
1.2570801 0.9133203 -0.092661738 0.99379295
1.2572558 0.88953125 -0.09184242 0.99384761
1.2573925 0.8661328 -0.091051675 0.99390048
1.2575488 0.84314454 -0.090288274 0.99395144
1.2577051 0.82051754 -0.089551583 0.99400061
1.2579784 0.77633786 -0.088153757 0.99409401
1.2580956 0.75475585 -0.087491609 0.9941383
1.2913769 0.70995116 -0.087880403 0.99411225
1.3307129 0.70993161 -0.089943349 0.99397451
1.5087206 0.70994139 -0.099433437 0.99334079
1.6693066 0.70997071 -0.10817447 0.99275744
1.7293261 0.70996094 -0.11147712 0.99253714
1.861123 0.70996094 -0.1187859 0.99204987
1.9337401 0.70994139 -0.1228424 0.99177957
2.0239942 0.71436524 -0.12799461 0.99143618
2.0239942 0.68587887 -0.12743996 0.9914732
2.0239942 0.6576367 -0.12690994 0.99150854
8.01999 2.494873 -0.5008657 0.96690404
8.0506735 2.3938768 -0.50086266 0.96690416
8.0800877 2.2925391 -0.50085974 0.96690428
8.1081543 2.1907811 -0.500857 0.9669047
8.1350098 2.0887108 -0.50085437 0.96690488
8.1605959 1.9863281 -0.50085187 0.96690494
8.2078419 1.7806054 -0.50084722 0.9669053
8.2499704 1.5737597 -0.50084317 0.96690542
8.2690334 1.4699609 -0.50084132 0.96690565
8.2868061 1.3659277 -0.50083959 0.96690583
8.3032904 1.2616796 -0.50083804 0.96690589
8.3878613 0.42197263 -0.50083029 0.96690643
8.3924904 0.31653321 -0.50082994 0.96690649
8.3958302 0.21105468 -0.5008297 0.96690637
8.3978024 0.10551757 -0.50082964 0.96690643
8.3984671 -0 -0.50082964 0.96690643
8.3925486 -0.31655273 -0.50083059 0.96690625
8.3879004 -0.42196289 -0.50083119 0.96690625
8.3819427 -0.52734375 -0.5008319 0.96690625
8.3660641 -0.73781246 -0.50083375 0.96690619
8.3185253 -1.1572559 -0.50083905 0.96690577
8.3033295 -1.2616992 -0.50084072 0.96690577
8.2868843 -1.3659375 -0.50084251 0.96690553
8.2499704 -1.5737695 -0.50084651 0.96690542
8.2295799 -1.6773242 -0.50084871 0.96690524
8.2079391 -1.7806348 -0.50085104 0.96690488
8.1848927 -1.8836132 -0.50085348 0.966905
8.0507517 -2.3939061 -0.50086778 0.96690387
8.0200491 -2.4949024 -0.500871 0.96690381
2.0239942 -0.6576367 -0.12690972 0.99150854
2.0239942 -0.68587887 -0.12743987 0.9914732
1.9337597 -0.70995116 -0.12284175 0.99177945
1.7293066 -0.70993161 -0.11147686 0.99253726
1.5592675 -0.70997071 -0.10216949 0.99315816
1.5087206 -0.70995116 -0.09943302 0.99334079
1.4152637 -0.70995116 -0.094420202 0.99367541
1.3719629 -0.70995116 -0.092120089 0.99382907
1.2582519 -0.73351562 -0.086852528 0.99418086
1.2581152 -0.75476563 -0.087491527 0.99413824
1.2569238 -0.93757808 -0.093510434 0.99373621
