# .PCD v0.7 - Point Cloud Data file format
VERSION 0.7
FIELDS x y z intensity
SIZE 4 4 4 4
TYPE F F F F
COUNT 1 1 1 1
WIDTH 1082
HEIGHT 1
VIEWPOINT 0 0 0 1 0 0 0
POINTS 1082
DATA ascii
6.8946581 1.5866699 -0.50063199 0.97202837
6.9139743 1.499912 -0.50062901 0.97202867
6.9322948 1.4128906 -0.50062627 0.97202861
6.9494042 1.325664 -0.50062364 0.97202903
6.9655371 1.2382226 -0.50062126 0.97202891
6.9804978 1.1505957 -0.50061899 0.97202909
6.9943848 1.0627831 -0.50061691 0.97202921
7.0188184 0.88666987 -0.50061327 0.97202945
7.0388184 0.7099902 -0.50061035 0.97202975
7.0471778 0.62149411 -0.5006091 0.97202975
7.060576 0.44418943 -0.50060719 0.97202975
7.0655761 0.35543945 -0.50060654 0.97202981
7.0694628 0.26661131 -0.500606 0.97202992
7.0722556 0.17777343 -0.50060564 0.97202986
7.0739355 0.088886715 -0.50060552 0.97202986
7.0744824 -9.7656248e-06 -0.50060552 0.97202992
7.0722752 -0.17778321 -0.500606 0.97202981
7.0695019 -0.26667967 -0.50060654 0.97202975
7.0655956 -0.35548827 -0.50060725 0.97202975
7.0294042 -0.79843748 -0.50061339 0.97202945
7.0188379 -0.8866992 -0.50061512 0.97202939
6.9944043 -1.0628027 -0.50061917 0.97202909
6.9655762 -1.2382715 -0.50062388 0.97202873
6.9494824 -1.3257031 -0.5006265 0.97202867
6.9323339 -1.4129394 -0.50062925 0.97202843
6.914072 -1.4999413 -0.50063223 0.97202832
6.874248 -1.6732227 -0.50063866 0.97202808
6.8064747 -1.9311718 -0.50064951 0.97202736
6.7558885 -2.1016502 -0.50065762 0.972027
2.0237403 -0.65756834 -0.15057251 0.99150348
2.0237012 -0.68580079 -0.15120132 0.99146825
2.0237012 -0.71425778 -0.15185928 0.99143124
1.9337792 -0.70996094 -0.14576611 0.99177349
1.7931542 -0.70996094 -0.13646808 0.99229622
1.6692871 -0.70997071 -0.12836131 0.99275225
1.6127245 -0.70997071 -0.12468742 0.99295896
1.5592871 -0.70996094 -0.12123615 0.99315315
1.5087402 -0.70996094 -0.11798935 0.9933359
1.4152832 -0.70996094 -0.11204097 0.99367076
1.3719823 -0.70996094 -0.10931114 0.99382454
1.3307519 -0.70996094 -0.10672817 0.99396998
1.2913965 -0.70997071 -0.10428017 0.9941079
1.2550879 -0.7316699 -0.1028009 0.99419129
1.2545996 -0.79623044 -0.10514747 0.99405909
1.2539356 -0.88717771 -0.1086916 0.99385941
1.2537206 -0.91089839 -0.1096582 0.99380499
1.2535449 -0.93504882 -0.11065987 0.99374849
5.5497947 -4.2492967 -0.4946095 0.97236019
5.4051852 -4.2473826 -0.4864412 0.97281045
5.1297946 -4.243711 -0.47110453 0.97365618
4.8710055 -4.2402735 -0.45698515 0.97443557
4.7472949 -4.2386231 -0.45034233 0.97480255
4.6281543 -4.2379298 -0.44405422 0.97514987
4.5127635 -4.2378025 -0.43806255 0.97548109
4.1844044 -4.2373142 -0.42139775 0.97640264
3.9787011 -4.2369432 -0.41128254 0.97696257
3.7825291 -4.2365036 -0.40188494 0.97748303
3.6934276 -4.2428222 -0.39804965 0.97769541
3.5310838 -4.3793063 -0.39807522 0.97769403
3.4758496 -4.4234276 -0.3980839 0.97769356
3.4200878 -4.4668555 -0.39809269 0.97769302
3.3637402 -4.5095897 -0.39810157 0.97769254
3.3069043 -4.5515919 -0.39811051 0.97769207
3.2495215 -4.5928807 -0.39811954 0.97769159
3.074326 -4.7124219 -0.39814708 0.97769004
2.8339355 -4.8613963 -0.3981849 0.97768795
2.7726855 -4.8967481 -0.39819452 0.97768742
2.6488965 -4.965127 -0.39821398 0.97768629
2.5233886 -5.0303712 -0.39823371 0.97768527
2.4600682 -5.0618067 -0.39824367 0.97768468
2.2677245 -5.1513281 -0.39827389 0.97768295
2.2028613 -5.1795506 -0.39828408 0.97768241
2.0720994 -5.2335544 -0.39830458 0.97768122
1.8067089 -5.3316016 -0.39834625 0.97767895
1.7396387 -5.354033 -0.39835677 0.97767836
1.6722559 -5.3755956 -0.39836738 0.97767782
1.6046191 -5.3963475 -0.39837798 0.97767717
1.536709 -5.4162207 -0.39838862 0.97767663
1.4001855 -5.4534178 -0.39841002 0.97767544
1.1937402 -5.5027537 -0.39844242 0.97767371
0.9855957 -5.5443068 -0.39847508 0.9776718
0.84600586 -5.567627 -0.39849696 0.97767061
0.77598631 -5.5779686 -0.39850792 0.97767001
0.63560545 -5.5960255 -0.39852992 0.97766876
0.56526369 -5.6037207 -0.39854094 0.97766817
0.42427734 -5.6164646 -0.39856303 0.97766697
0.35367188 -5.6215134 -0.39857408 0.97766632
0.21231444 -5.6289454 -0.39859626 0.97766507
0.14157227 -5.6313181 -0.39860731 0.97766447
-0.14157227 -5.6319432 -0.39865166 0.97766203
-0.28306639 -5.626904 -0.3986738 0.97766089
-0.35377929 -5.6230664 -0.39868489 0.97766024
-0.42443359 -5.6183496 -0.39869595 0.97765952
-0.49499023 -5.6127343 -0.398707 0.97765893
-0.63592774 -5.5988278 -0.39872906 0.97765768
-0.7062695 -5.5905371 -0.39874002 0.97765714
-0.84655273 -5.5713282 -0.39876202 0.97765595
-0.91654295 -5.56041 -0.39877295 0.97765529
-0.98635739 -5.5485935 -0.39878386 0.97765476
-1.125537 -5.5223632 -0.39880565 0.9776535
-1.6744434 -5.3826857 -0.39889145 0.97764874
-1.7420019 -5.3613672 -0.398902 0.97764814
-1.8092871 -5.3391795 -0.39891249 0.9776476
-1.876289 -5.3161521 -0.39892295 0.97764707
-1.9429981 -5.2923045 -0.39893341 0.97764641
-2.0094042 -5.2675977 -0.39894378 0.97764587
-2.1412401 -5.2157226 -0.39896438 0.97764468
-2.3364649 -5.1316991 -0.39899483 0.97764307
-2.40083 -5.1020703 -0.39900488 0.97764248
-2.4648242 -5.0716114 -0.39901489 0.97764194
-2.5916209 -5.0083203 -0.39903468 0.97764087
-2.7787597 -4.9074512 -0.39906386 0.97763914
-2.9013183 -4.8362794 -0.39908299 0.97763824
-3.0221093 -4.7620802 -0.39910182 0.97763711
-3.1409764 -4.6848536 -0.39912033 0.97763604
-3.4293065 -4.4788966 -0.39916527 0.9776336
-3.4854002 -4.4355564 -0.39917403 0.97763306
-3.5409374 -4.3914843 -0.39918265 0.97763264
-3.7041795 -4.2551856 -0.39920807 0.97763121
-3.8830762 -4.1350684 -0.40139571 0.97751009
-4.2837696 -4.1252537 -0.42083073 0.97643411
-4.3901267 -4.1226268 -0.42615592 0.97613943
-1.0243456 -0.91460937 -0.097173765 0.99450845
-1.0245508 -0.89190429 -0.096122622 0.99456769
-1.0247656 -0.86969727 -0.095108718 0.99462479
-1.025332 -0.80571288 -0.092274889 0.99478453
-1.0256835 -0.76507813 -0.09054672 0.99488193
-1.0258398 -0.74532223 -0.089726977 0.99492818
-1.0259961 -0.72592771 -0.08893577 0.99497277
-1.0882031 -0.70996094 -0.091943279 0.99480325
-1.1186817 -0.70995116 -0.093756482 0.99470103
-1.1503906 -0.70996094 -0.095658265 0.9945938
-1.1834375 -0.70996094 -0.097654343 0.99448127
-1.2537891 -0.70997071 -0.1019574 0.99423885
-1.2913867 -0.70997071 -0.1042799 0.99410796
-1.4152539 -0.70997071 -0.11204113 0.99367088
-1.5087011 -0.70997071 -0.11798931 0.99333602
-1.5592871 -0.70997071 -0.12123611 0.99315315
-1.612705 -0.70996094 -0.12468742 0.99295902
-1.6692773 -0.70997071 -0.12836181 0.99275231
-1.7929101 -0.65825194 -0.13514984 0.99237043
-6.6999512 -2.3646972 -0.502765 0.97191095
-6.7291894 -2.2803321 -0.50276947 0.97191072
-6.7573633 -2.1956251 -0.50277382 0.97191054
-6.784492 -2.1105664 -0.50277799 0.97191024
-6.8821774 -1.7670605 -0.50279289 0.9719094
-6.9038868 -1.6804395 -0.50279617 0.97190917
-6.962451 -1.4190625 -0.50280511 0.97190869
-6.9797559 -1.3314843 -0.50280774 0.97190857
-7.0110936 -1.1556641 -0.50281245 0.97190827
-7.0379586 -0.97912109 -0.50281644 0.97190809
-7.049736 -0.89060545 -0.50281823 0.97190797
-7.0783496 -0.62427735 -0.5028224 0.97190773
-7.0918164 -0.4461914 -0.50282431 0.97190773
-7.0968847 -0.357041 -0.50282502 0.97190762
-7.1036325 -0.17857422 -0.50282586 0.97190756
-7.1053219 -0.089306638 -0.50282609 0.97190756
-6.8357129 0.085888669 -0.50278366 0.97295362
-6.8275876 0.34346679 -0.50278211 0.97295374
-6.8227148 0.42922851 -0.50278127 0.9729538
-6.80165 0.6860742 -0.5027777 0.97295398
-6.7708883 0.9419238 -0.50277257 0.97295427
-6.7148924 1.2809082 -0.50276345 0.97295469
-6.6804881 1.449248 -0.50275791 0.97295505
-6.6617088 1.5330664 -0.50275487 0.97295523
-6.5990624 1.7830273 -0.50274479 0.97295576
-6.5520802 1.9482714 -0.50273728 0.97295612
-6.5270309 2.0304394 -0.50273323 0.97295636
-6.4738379 2.1937792 -0.50272477 0.97295678
-1.7937695 0.6585449 -0.14053646 0.9923653
-1.7939941 0.71027344 -0.14190803 0.99229109
-1.6692871 0.70994139 -0.13341346 0.99275088
-1.612705 0.70994139 -0.129595 0.99295765
-1.5087109 0.70993161 -0.12263309 0.99333471
-1.4607714 0.70994139 -0.11945263 0.99350703
-1.4152539 0.70995116 -0.11645057 0.99366963
-1.3719629 0.70992184 -0.11361358 0.99382347
-1.2913672 0.70994139 -0.10838428 0.99410689
-1.217832 0.70992184 -0.10367771 0.99436212
-1.1834081 0.70993161 -0.1014978 0.99448031
-1.1503906 0.70995116 -0.099422984 0.99459279
-1.0882128 0.70994139 -0.095561787 0.99480224
-1.058916 0.70994139 -0.093763314 0.99489975
-1.0306543 0.70995116 -0.092045248 0.99499303
-1.025166 0.74480468 -0.093195379 0.99493057
-1.025 0.76455075 -0.094046019 0.99488437
-1.0247852 0.78465819 -0.094927408 0.99483669
-1.0244336 0.82600582 -0.096785888 0.99473584
-1.0242285 0.84732419 -0.097765692 0.99468267
-1.0235938 0.91391599 -0.1009243 0.99451143
-4.1887302 3.933496 -0.42260882 0.97721702
-3.9832909 3.9335253 -0.41172713 0.97779715
-3.8844237 3.9335155 -0.40658477 0.97807139
-3.6640723 4.0013766 -0.39903191 0.97847432
-3.5621972 4.092041 -0.39901587 0.97847515
-3.5104296 4.1364059 -0.39900771 0.97847557
-3.4052343 4.2231345 -0.39899117 0.97847646
-3.2978907 4.3071775 -0.39897427 0.97847742
-3.0770311 4.4670606 -0.39893952 0.97847927
-2.6722753 4.7193556 -0.39887586 0.97848266
-2.5527148 4.7848043 -0.39885706 0.97848362
-2.3703907 4.8772559 -0.39882842 0.97848517
-2.3088379 4.9065428 -0.39881873 0.9784857
-2.1847069 4.9627733 -0.39879924 0.97848672
-2.122129 4.9897165 -0.39878944 0.97848725
-1.8685741 5.0895114 -0.39874962 0.9784894
-1.8044043 5.1124706 -0.39873955 0.97848994
-1.7399805 5.1346192 -0.39872938 0.97849041
-1.545078 5.1961427 -0.39869884 0.97849214
-1.4796387 5.2150192 -0.39868858 0.97849262
-1.4139453 5.2330661 -0.39867827 0.97849321
-0.8138867 4.2665524 -0.31945071 0.98272997
-0.75832027 4.2658887 -0.31866258 0.98277223
-0.70304686 4.2652345 -0.31792849 0.98281157
-0.34022459 5.4077344 -0.39850992 0.97850221
-9.7656248e-06 5.4177051 -0.39845663 0.97850502
0.068085939 5.4171286 -0.39844596 0.97850561
0.13613281 5.4156933 -0.39843532 0.97850621
0.34013671 5.4062891 -0.39840338 0.97850788
0.40802732 5.4014454 -0.3983928 0.97850847
0.47587889 5.3957419 -0.39838213 0.97850901
0.54363281 5.3892088 -0.39837155 0.97850955
0.61126953 5.3818064 -0.39836097 0.97851014
0.6788379 5.3735547 -0.39835036 0.97851068
0.74629879 5.3644433 -0.39833984 0.97851127
0.8808105 5.3437204 -0.39831877 0.97851241
0.94788086 5.3320899 -0.39830834 0.97851294
1.0147754 5.3196287 -0.39829785 0.97851348
1.0815136 5.3063083 -0.39828742 0.97851408
1.1480762 5.2921677 -0.39827695 0.97851461
1.2144629 5.2771778 -0.39826658 0.97851515
1.3466308 5.2447166 -0.39824596 0.97851628
1.6082715 5.1699219 -0.39820507 0.97851843
1.6730762 5.1491599 -0.39819494 0.97851896
2.1186035 4.9813962 -0.39812532 0.97852272
2.1809669 4.9542675 -0.39811561 0.97852319
2.2429979 4.9263477 -0.39810592 0.97852373
2.3046777 4.8976464 -0.39809629 0.97852427
2.3659668 4.8681931 -0.39808673 0.97852474
2.4268847 4.8379588 -0.39807722 0.97852528
2.4874511 4.8069725 -0.39806777 0.97852576
2.7255566 4.6754589 -0.39803061 0.97852784
2.7840526 4.6407423 -0.39802149 0.97852826
2.8420801 4.6052833 -0.39801246 0.97852874
2.8996582 4.5691013 -0.39800346 0.97852927
3.0134277 4.4945993 -0.39798576 0.97853017
3.0696385 4.4562793 -0.39797699 0.97853053
3.2893457 4.2960448 -0.39794272 0.97853249
3.5522559 4.080615 -0.39790183 0.97853458
3.6535449 3.9899023 -0.39788604 0.97853541
3.7033105 3.9435937 -0.39787829 0.97853589
3.75249 3.8966699 -0.39787063 0.97853631
3.8010838 3.8491309 -0.39786306 0.97853673
3.8799706 3.8314941 -0.4010475 0.97836679
4.0746384 3.826328 -0.41109854 0.97783071
4.175693 3.8236327 -0.41641182 0.97754729
4.2794042 3.8208396 -0.42193076 0.97725308
4.4952831 3.814961 -0.43362454 0.97663015
4.7235641 3.8086913 -0.44626665 0.97595698
4.8444433 3.8067186 -0.45313278 0.97559166
1.2534473 0.8403613 -0.11098941 0.99396563
1.2536426 0.81784177 -0.11008636 0.9940145
1.2538183 0.79567379 -0.10921505 0.99406177
1.2541504 0.75235349 -0.10756221 0.99415135
1.2542871 0.73117185 -0.1067791 0.99419385
1.4152637 0.70992184 -0.1164508 0.99366969
1.460791 0.70992184 -0.11945255 0.99350697
1.5593066 0.70993161 -0.12600811 0.99315178
1.6693066 0.70992184 -0.13341385 0.99275082
1.7931347 0.70992184 -0.14183971 0.99229479
1.861123 0.70995116 -0.14650086 0.99204254
2.023623 0.68572265 -0.15714599 0.99146694
6.5005369 2.0221875 -0.50069326 0.97306466
6.59374 1.6929687 -0.50067896 0.97306538
6.6144824 1.6099707 -0.5006758 0.97306544
6.6703415 1.3595117 -0.50066733 0.97306591
6.7535839 0.85314453 -0.50065482 0.97306675
6.78792 0.51274413 -0.50064981 0.97306675
6.7937794 0.42741209 -0.50064898 0.97306693
6.8023729 0.25654295 -0.50064784 0.97306699
6.8066697 0.085527346 -0.50064737 0.97306699
6.8072166 -9.7656248e-06 -0.50064737 0.97306693
6.805068 -0.17108399 -0.5006479 0.97306693
6.8023729 -0.25658202 -0.50064838 0.97306699
6.7986231 -0.34204102 -0.50064903 0.97306693
6.7937794 -0.42746094 -0.50064987 0.97306693
6.7729197 -0.6832031 -0.50065345 0.97306663
6.7637792 -0.76826173 -0.500655 0.97306675
6.7424121 -0.937998 -0.50065845 0.97306645
6.7301269 -1.0226464 -0.50066048 0.97306627
6.7023535 -1.1914746 -0.50066507 0.97306609
6.6703806 -1.3595409 -0.50067025 0.97306573
6.6527829 -1.4432714 -0.50067306 0.97306567
6.6341696 -1.5267675 -0.5006761 0.9730655
6.5492477 -1.8582128 -0.50068974 0.97306478
6.500576 -2.0222461 -0.50069749 0.97306442
2.0236425 -0.68577147 -0.15714599 0.99146682
1.861123 -0.70997071 -0.14650017 0.99204254
1.7931542 -0.70996094 -0.14183879 0.99229467
1.7293066 -0.70997071 -0.13748631 0.99253035
1.5592871 -0.70996094 -0.12600727 0.99315184
1.5087402 -0.70996094 -0.12263252 0.99333453
1.4608105 -0.70996094 -0.11945217 0.99350685
1.4152832 -0.70996094 -0.11645023 0.99366951
1.3307519 -0.70996094 -0.1109283 0.99396878
1.2913965 -0.70996094 -0.10838394 0.99410677
1.2544433 -0.71033204 -0.10602352 0.99423474
1.2539746 -0.77387697 -0.10837402 0.99410731
1.2536426 -0.81788087 -0.11008666 0.99401444
1.2534667 -0.8404004 -0.11098949 0.99396551
1.2532715 -0.86331052 -0.11192486 0.99391478
1.2530762 -0.88657224 -0.11289379 0.99386233
1.2528613 -0.91028321 -0.1138974 0.99380797
1.2526855 -0.93439454 -0.11493694 0.99375159
5.4072556 -4.1401563 -0.500871 0.97305512
5.129756 -4.243711 -0.4896448 0.97365105
4.9984274 -4.2419724 -0.48215669 0.97404861
4.8710055 -4.2402735 -0.47496927 0.97443056
4.7472949 -4.2386327 -0.46806476 0.97479755
4.5103025 -4.2354784 -0.45505309 0.9754895
4.3966699 -4.2339549 -0.44891903 0.97581583
4.0766892 -4.2333593 -0.43224505 0.97670358
3.8761621 -4.233047 -0.42213023 0.97724241
3.7793262 -4.2328806 -0.41734362 0.97749752
3.6845996 -4.2326951 -0.41272688 0.97774369
3.5919433 -4.2325096 -0.40827414 0.97798115
3.5012403 -4.232295 -0.40397775 0.97821033
3.2907519 -4.2979393 -0.39811277 0.97852319
3.2365527 -4.3390331 -0.3981213 0.97852278
3.0709276 -4.4582324 -0.39814734 0.97852135
3.0147557 -4.496572 -0.3981562 0.97852081
2.9009082 -4.5711131 -0.39817414 0.97851998
2.7852244 -4.6427927 -0.39819229 0.97851896
2.4885058 -4.809072 -0.39823893 0.97851652
2.3669825 -4.8703222 -0.39825806 0.97851551
2.3056543 -4.8998046 -0.39826766 0.97851497
2.2439744 -4.9285059 -0.39827734 0.97851443
2.1819043 -4.9564452 -0.39828712 0.9785139
2.1195214 -4.9835839 -0.39829689 0.97851336
2.056787 -5.0099511 -0.39830676 0.97851282
1.8026074 -5.1074705 -0.39834666 0.9785108
1.6738183 -5.1514258 -0.39836687 0.9785096
1.4785448 -5.2112598 -0.39839751 0.978508
1.2149707 -5.2795115 -0.39843887 0.97850579
1.0152246 -5.3219724 -0.39847019 0.97850412
0.948291 -5.3344531 -0.39848068 0.97850353
0.88120115 -5.3460741 -0.3984912 0.97850305
0.74663085 -5.3668261 -0.3985123 0.97850186
0.6791113 -5.3759274 -0.39852285 0.97850132
0.54384762 -5.391582 -0.39854407 0.97850019
0.27229491 -5.4126759 -0.39858666 0.97849792
0.13620117 -5.4181051 -0.39860794 0.97849673
0 -5.4201074 -0.39862925 0.9784956
-0.068115234 -5.4198337 -0.39863995 0.978495
-0.13623047 -5.4186716 -0.39865059 0.97849452
-0.20429687 -5.4166598 -0.39866126 0.97849399
-0.27234375 -5.4138379 -0.3986719 0.97849333
-0.34037107 -5.4101367 -0.39868253 0.97849274
-0.47624999 -5.400156 -0.39870384 0.97849166
-0.54408205 -5.3938866 -0.39871445 0.97849107
-0.61184567 -5.3867774 -0.39872503 0.97849047
-0.67951173 -5.3788085 -0.39873564 0.97848988
-0.74704099 -5.3699803 -0.39874616 0.9784894
-0.81449217 -5.3603125 -0.39875674 0.9784888
-0.94900388 -5.3384376 -0.39877781 0.97848767
-1.0160449 -5.3262305 -0.3987883 0.97848707
-1.0829004 -5.3131833 -0.39879873 0.97848654
-1.2161523 -5.2845602 -0.39881957 0.97848547
-1.2824903 -5.2689939 -0.39882994 0.97848493
-1.3486328 -5.2525878 -0.39884028 0.97848439
-1.41458 -5.2353711 -0.39885059 0.9784838
-1.4802831 -5.2173142 -0.39886084 0.97848326
-1.6110156 -5.17874 -0.39888129 0.97848213
-1.6759863 -5.1582127 -0.39889145 0.97848165
-1.7407324 -5.1368747 -0.39890155 0.97848111
-1.8051856 -5.1147265 -0.39891163 0.97848058
-1.9332616 -5.0680075 -0.39893162 0.97847944
-2.1230469 -4.9919043 -0.39896125 0.9784779
-2.2479393 -4.9372168 -0.39898077 0.97847688
-2.3714159 -4.8794141 -0.39900005 0.97847581
-2.493418 -4.8185058 -0.39901909 0.9784748
-2.5537987 -4.7869043 -0.39902851 0.97847432
-2.6138086 -4.7545409 -0.3990379 0.97847384
-2.6734276 -4.7214355 -0.39904717 0.97847331
-2.7326074 -4.6875782 -0.39905638 0.97847283
-2.7913475 -4.6529589 -0.39906555 0.97847241
-2.9649608 -4.5447755 -0.39909261 0.97847086
-3.1898241 -4.390449 -0.39912769 0.97846901
-3.3109081 -4.3242579 -0.40055022 0.97839314
-3.3532422 -4.2673535 -0.39915314 0.97846776
-3.4595799 -4.1819334 -0.39916968 0.97846675
-3.5138183 -4.1404395 -0.39939246 0.97845489
-3.602412 -4.1382909 -0.40352169 0.97823465
-3.7852929 -4.1338477 -0.41223717 0.97776985
-3.879746 -4.1315231 -0.41683537 0.9775247
-3.9763281 -4.1291599 -0.42160401 0.97727048
-4.0751367 -4.1266894 -0.42654857 0.97700709
-4.1763182 -4.1241698 -0.43167856 0.97673374
-4.3861423 -4.1188865 -0.44252622 0.97615612
-1.0233593 -0.93711913 -0.10205539 0.99445003
-1.0235938 -0.91395503 -0.10092426 0.99451131
-1.024043 -0.86906248 -0.098781087 0.99462754
-1.0245996 -0.80514646 -0.095840111 0.99478716
-1.0248145 -0.78466797 -0.094927326 0.99483657
-1.0249902 -0.76456052 -0.094046094 0.99488437
-1.0251465 -0.74482423 -0.093195379 0.99493057
-1.0253124 -0.72543943 -0.092374228 0.99497509
-1.0306739 -0.70996094 -0.092044979 0.99499291
-1.0589062 -0.70995116 -0.093762927 0.99489975
-1.0882422 -0.70996094 -0.095561519 0.99480212
-1.1503906 -0.70996094 -0.09942276 0.99459273
-1.1834277 -0.70997071 -0.10149742 0.99448013
-1.2537891 -0.70997071 -0.10597 0.99423772
-1.2913867 -0.70997071 -0.10838383 0.99410677
-1.3307226 -0.70996094 -0.11092811 0.9939689
-1.3719531 -0.70996094 -0.11361301 0.99382341
-1.4607714 -0.70996094 -0.11945198 0.99350697
-1.612705 -0.70996094 -0.12959427 0.99295765
-1.7293066 -0.70995116 -0.13748638 0.99253035
-1.7939843 -0.71032226 -0.14190765 0.99229103
-1.7938573 -0.6843164 -0.14120746 0.992329
-1.7937695 -0.65857422 -0.1405365 0.99236524
-6.5271091 -2.0304883 -0.50273758 0.972956
-6.5761423 -1.8658496 -0.50274509 0.9729557
-6.6210642 -1.7000195 -0.50275195 0.97295529
-6.641943 -1.6166894 -0.50275511 0.97295511
-6.6617675 -1.5331151 -0.50275815 0.97295499
-6.6982517 -1.3652344 -0.50276369 0.97295475
-6.7450485 -1.1118164 -0.50277072 0.97295433
-6.7822361 -0.85681641 -0.50277627 0.97295403
-6.7924805 -0.77151364 -0.50277781 0.97295398
-6.8016696 -0.68610352 -0.50277913 0.97295386
-6.8097754 -0.60057616 -0.50278032 0.9729538
-6.8167772 -0.51497072 -0.50278133 0.9729538
-6.8227243 -0.42925781 -0.50278217 0.97295374
-6.8275876 -0.34348631 -0.50278282 0.97295374
-6.8313866 -0.25767577 -0.50278336 0.97295368
-6.8340917 -0.17181641 -0.50278372 0.97295362
-6.8357129 -0.085908204 -0.50278383 0.97295362
-6.5862598 -1.953125e-05 -0.50274467 0.97392434
-6.5857325 0.082744136 -0.5027445 0.97392434
-6.5841503 0.16549805 -0.50274414 0.97392446
-6.5674706 0.4961035 -0.50274122 0.97392464
-6.5606933 0.57858396 -0.50274003 0.9739247
-6.5113277 0.989375 -0.50273186 0.97392505
-6.4983397 1.071123 -0.50272977 0.97392523
-6.469326 1.2340624 -0.50272506 0.97392541
-6.3356247 1.7975683 -0.50270349 0.97392654
-6.3124704 1.8770214 -0.50269979 0.97392678
-6.2883496 1.9561816 -0.50269598 0.97392696
-6.20999 2.1917381 -0.50268346 0.97392762
-1.7946386 0.65886718 -0.14593048 0.99236006
-1.794746 0.68460935 -0.14662758 0.9923237
-1.7293164 0.70993161 -0.14269447 0.9925288
-1.612705 0.70994139 -0.13450344 0.99295622
-1.5592871 0.70993161 -0.13078098 0.99315047
-1.4607714 0.70994139 -0.12397739 0.99350566
-1.4152539 0.70995116 -0.12086174 0.99366832
-1.3307323 0.70993161 -0.11513042 0.99396765
-1.2913867 0.70993161 -0.11248981 0.99410564
-1.2537988 0.70994139 -0.1099847 0.99423653
-1.217832 0.70992184 -0.10760494 0.99436098
-1.1834081 0.70993161 -0.10534256 0.99447918
-1.1503906 0.70994139 -0.10318916 0.99459165
-1.1186719 0.70994139 -0.10113777 0.99469894
-1.0882128 0.70994139 -0.09918163 0.99480116
-1.0246191 0.7249316 -0.095809557 0.99497747
-1.0244628 0.74430662 -0.096660614 0.99493295
-1.0242969 0.7640332 -0.097542457 0.99488682
-1.0241113 0.78410155 -0.098455615 0.99483907
-1.023711 0.8254199 -0.10038196 0.99473846
-1.0230957 0.89059567 -0.10354073 0.9945733
-1.022871 0.91325194 -0.10467121 0.99451417
-1.0226269 0.93639648 -0.10584312 0.99445301
-4.1844335 3.9294434 -0.43816683 0.9772355
-4.0805368 3.9295311 -0.43242443 0.97753042
-3.8805664 3.9296484 -0.42156908 0.97808832
-3.7842381 3.9296875 -0.41643798 0.97835213
-3.5086033 3.9296679 -0.40212744 0.97908813
-3.2432127 4.1272755 -0.4006778 0.97916275
-3.1249022 4.1892967 -0.3989473 0.97925186
-3.0719335 4.2281642 -0.39893898 0.97925228
-3.0185156 4.2663379 -0.39893055 0.9792527
-2.9646192 4.3038282 -0.39892209 0.97925311
-2.8553905 4.3767967 -0.39890492 0.97925395
-2.8000977 4.4122167 -0.39889616 0.97925448
-2.7443945 4.4469724 -0.39888743 0.97925484
-2.6882324 4.4810057 -0.39887857 0.97925532
-2.6316211 4.5143261 -0.39886969 0.97925586
-2.517246 4.5788279 -0.39885172 0.97925675
-2.4594433 4.6100097 -0.39884266 0.97925717
-2.4012792 4.6404395 -0.39883348 0.97925764
-2.3427343 4.6701269 -0.3988243 0.97925818
-2.2837889 4.6991014 -0.39881507 0.9792586
-2.1049316 4.7814941 -0.39878693 0.97926003
-1.9839844 4.8326659 -0.39876792 0.97926104
-1.6764257 4.9470897 -0.39871967 0.97926354
-1.614082 4.9676466 -0.39870986 0.97926408
-1.425625 5.0245895 -0.3986803 0.97926551
-1.2351172 5.0743551 -0.39865044 0.97926712
-0.92179686 4.2490134 -0.33188426 0.98270923
-0.86635739 4.2506347 -0.33113378 0.98274797
-0.75812501 4.2646775 -0.33063906 0.98277354
-0.70285153 4.2640138 -0.32987824 0.98281294
-0.59173828 4.2535157 -0.32781088 0.98291963
-0.57061523 4.5168262 -0.34752303 0.98190188
-0.58925778 5.1878319 -0.3985492 0.97927231
-0.52400392 5.1946874 -0.39853892 0.97927284
-0.45865235 5.2007422 -0.3985287 0.97927332
-0.39327148 5.2059469 -0.39851844 0.97927392
-0.32782227 5.2103515 -0.39850822 0.97927439
-0.26229492 5.2139258 -0.39849797 0.97927493
-0.065615229 5.219707 -0.39846712 0.97927654
0.13117187 5.2180567 -0.39843634 0.97927815
0.19673827 5.2158689 -0.39842606 0.97927862
0.32773438 5.2090135 -0.39840552 0.9792797
0.39314452 5.2043357 -0.3983953 0.97928029
0.65407223 5.1774902 -0.39835447 0.97928232
0.71905273 5.1687207 -0.39834431 0.97928292
0.78393555 5.1591601 -0.39833415 0.97928333
1.0420605 5.1127243 -0.39829379 0.97928548
1.1701465 5.0846581 -0.39827377 0.97928655
1.2339355 5.0694432 -0.39826378 0.97928697
1.2974902 5.0533981 -0.39825386 0.97928756
1.3608692 5.036582 -0.39824393 0.97928804
1.4869238 5.0005469 -0.39822426 0.97928905
1.5495995 4.9813476 -0.39821446 0.97928953
1.6742284 4.9405761 -0.398195 0.97929054
1.7361425 4.9190331 -0.39818531 0.97929102
1.8591113 4.8736033 -0.39816612 0.97929209
1.920166 4.8497653 -0.39815658 0.97929245
1.9809082 4.8251171 -0.39814708 0.97929305
2.0413573 4.799746 -0.39813766 0.97929347
2.1014354 4.7735934 -0.39812824 0.979294
2.1612012 4.7467089 -0.39811891 0.97929442
2.2796776 4.6906638 -0.39810044 0.97929549
2.5694432 4.5377636 -0.39805523 0.9792977
2.848994 4.3669825 -0.39801162 0.97930002
3.0113769 4.2562404 -0.39798632 0.97930127
3.1172557 4.1790428 -0.39796981 0.97930211
3.1694434 4.1394629 -0.39796168 0.97930253
3.2723339 4.0583396 -0.39794567 0.97930342
3.3419042 4.0396581 -0.40020043 0.97918737
3.3731542 3.974658 -0.39793 0.97930425
3.4228027 3.9318848 -0.39792225 0.97930449
3.6908886 3.832705 -0.40616351 0.97888058
3.8762012 3.8277831 -0.41583288 0.97838306
4.3812985 3.8139746 -0.44340393 0.97696662
4.6054001 3.8098826 -0.45624325 0.97630751
4.723115 3.8083105 -0.4631272 0.97595435
4.9696188 3.8050292 -0.47777015 0.97520369
1.2518262 0.9337402 -0.11920971 0.99375457
1.252041 0.90962887 -0.11813229 0.99381089
1.2522558 0.88596678 -0.11709198 0.99386513
1.2526464 0.83981442 -0.11511833 0.99396825
1.2528223 0.81730467 -0.11418235 0.99401718
1.2534863 0.73070312 -0.11075409 0.99419636
1.2538183 0.70993161 -0.10998462 0.99423647
1.2913965 0.70993161 -0.1124897 0.99410558
1.3719823 0.70992184 -0.1179174 0.9938221
1.5087402 0.70993161 -0.12727852 0.99333322
1.6127245 0.70994139 -0.13450405 0.99295616
1.6693066 0.70993161 -0.13846755 0.99274933
1.7931347 0.70992184 -0.14721248 0.99229318
1.861123 0.70995116 -0.15205024 0.99204093
1.9337792 0.70994139 -0.15724258 0.99177015
2.0235839 0.71417969 -0.16380276 0.99142832
2.0235839 0.68571287 -0.16309325 0.99146533
6.3106346 1.7904687 -0.50072318 0.97402805
6.3924899 1.4710938 -0.50071073 0.97402859
6.4104199 1.3906542 -0.50070798 0.97402877
6.4433103 1.2291015 -0.50070304 0.97402889
6.4582129 1.1480371 -0.50070077 0.97402906
6.4720993 1.0667969 -0.50069869 0.97402912
6.5174313 0.74023438 -0.50069195 0.97402954
6.5509863 0.329541 -0.50068712 0.97402978
6.5545993 0.24721679 -0.50068665 0.97402984
6.5571971 0.16482422 -0.50068635 0.97402978
6.5587597 0.082392573 -0.50068617 0.97402972
6.5572166 -0.16484375 -0.50068665 0.97402972
6.5545993 -0.24722655 -0.50068718 0.97402984
6.5510058 -0.32958007 -0.50068784 0.97402972
6.5463572 -0.41187498 -0.50068867 0.97402966
6.5406933 -0.49411133 -0.50068963 0.97402954
6.5339746 -0.57626951 -0.50069076 0.97402948
6.5262012 -0.65832031 -0.50069207 0.9740296
6.5174704 -0.74028319 -0.5006935 0.97402936
6.5076466 -0.82212889 -0.50069517 0.97402936
6.4968262 -0.90384763 -0.5006969 0.9740293
6.4849901 -0.98542964 -0.50069886 0.97402912
6.4720993 -1.0668359 -0.50070095 0.97402912
6.4433298 -1.2291309 -0.50070566 0.97402883
6.427412 -1.3100293 -0.50070822 0.97402865
6.392529 -1.4711523 -0.50071383 0.97402835
6.3536229 -1.6313477 -0.50072014 0.97402805
6.3326464 -1.7110839 -0.50072348 0.97402793
6.3107128 -1.7905273 -0.500727 0.97402769
6.2877636 -1.8696972 -0.50073069 0.97402745
6.2638183 -1.948584 -0.50073451 0.97402728
2.0235839 -0.6857422 -0.16309318 0.99146527
1.9337792 -0.70996094 -0.15724155 0.99177015
1.861123 -0.70997071 -0.15204933 0.99204087
1.7293066 -0.70997071 -0.14269398 0.9925288
1.6692871 -0.70997071 -0.13846684 0.99274933
1.6127245 -0.70997071 -0.13450325 0.9929561
1.5087011 -0.70997071 -0.12727767 0.99333328
1.4608105 -0.70996094 -0.12397686 0.99350548
1.4152832 -0.70996094 -0.12086131 0.9936682
1.3719823 -0.70996094 -0.11791687 0.99382204
1.2913965 -0.70996094 -0.11248947 0.99410558
1.2538183 -0.70996094 -0.10998417 0.99423641
1.2535058 -0.73074216 -0.11075389 0.99419624
1.2531934 -0.77337891 -0.11240719 0.99410981
1.252998 -0.79519528 -0.11327873 0.99406433
1.2528027 -0.81735349 -0.11418213 0.99401712
1.2526269 -0.83984375 -0.11511829 0.99396825
1.2524512 -0.86271483 -0.11608799 0.99391758
1.2520605 -0.90967768 -0.1181322 0.99381071
4.9983888 -4.2419724 -0.50042093 0.97404343
4.8710055 -4.2402735 -0.4929606 0.97442532
4.7472949 -4.2386327 -0.48579532 0.97479236
4.6271386 -4.237031 -0.47891077 0.97514516
4.5103025 -4.2354884 -0.47229084 0.97548449
4.2860446 -4.2325001 -0.4597995 0.976125
3.9717674 -4.2295117 -0.44288629 0.97699308
3.776123 -4.2292576 -0.43278298 0.97751188
3.6815135 -4.2291212 -0.4279995 0.97775763
3.5889745 -4.2289453 -0.42338583 0.9779948
3.3226659 -4.2284179 -0.41049242 0.97865766
3.2373924 -4.2282224 -0.40649107 0.97886348
3.1537206 -4.2280173 -0.40262848 0.97906226
3.0126464 -4.2580957 -0.39815629 0.97929239
2.9589746 -4.2957129 -0.39816475 0.97929192
2.8502245 -4.368916 -0.39818183 0.97929102
2.7396386 -4.4393458 -0.39819923 0.97929019
2.683701 -4.4735155 -0.39820799 0.97928971
2.6273339 -4.5069823 -0.39821687 0.97928929
2.5705371 -4.5397363 -0.39822581 0.97928888
2.4557714 -4.6031151 -0.39824384 0.97928786
2.3977637 -4.6337304 -0.39825293 0.97928739
2.2215917 -4.7211328 -0.39828062 0.97928596
2.1023536 -4.7756834 -0.39829937 0.979285
2.0422168 -4.8018456 -0.39830881 0.97928452
1.9209667 -4.8519044 -0.39832786 0.97928351
1.7985449 -4.8988476 -0.39834708 0.97928262
1.7368847 -4.9212012 -0.39835677 0.97928202
1.6127245 -4.9635253 -0.39837623 0.97928113
1.2980762 -5.0556054 -0.39842564 0.97927856
1.1066699 -5.1013474 -0.39845565 0.97927696
0.78426754 -5.1614161 -0.39850619 0.97927439
0.71938473 -5.1710057 -0.39851633 0.9792738
0.65432614 -5.1797557 -0.39852652 0.97927338
0.52401364 -5.1948438 -0.39854696 0.97927225
0.26236328 -5.2151561 -0.39858797 0.9792701
0.1968164 -5.218164 -0.39859825 0.97926962
0.065615229 -5.2217383 -0.39861876 0.97926855
0 -5.2222753 -0.39862907 0.97926807
-0.19683594 -5.2189746 -0.39865988 0.97926646
-0.32794923 -5.2126365 -0.39868042 0.97926545
-0.3934375 -5.208252 -0.39869064 0.97926486
-0.52422851 -5.1969724 -0.39871112 0.97926384
-0.71977538 -5.1739259 -0.39874172 0.97926223
-0.84960938 -5.1544724 -0.39876205 0.97926116
-0.91434568 -5.1435056 -0.39877215 0.97926074
-0.97894531 -5.1317382 -0.39878225 0.97926021
-1.2356542 -5.076582 -0.3988224 0.97925812
-1.3629004 -5.0441895 -0.39884228 0.97925711
-1.4262207 -5.0267868 -0.3988522 0.97925657
-1.5521777 -4.9895997 -0.39887187 0.97925556
-1.6147851 -4.9698439 -0.39888167 0.97925502
-1.6771581 -4.9492774 -0.39889145 0.97925448
-1.739248 -4.9279199 -0.3989011 0.97925407
-1.9848437 -4.834785 -0.39893946 0.97925204
-2.0454881 -4.8095703 -0.39894894 0.97925156
-2.1058104 -4.7835836 -0.39895836 0.97925115
-2.165791 -4.7568555 -0.39896774 0.97925067
-2.2254784 -4.7293844 -0.39897704 0.97925013
-2.2847753 -4.7011619 -0.39898628 0.97924966
-2.5183496 -4.5808496 -0.39902273 0.97924769
-2.7455566 -4.448916 -0.39905819 0.97924596
-2.9815233 -4.3284569 -0.40119937 0.97913575
-3.0197949 -4.2682033 -0.39910093 0.97924381
-3.1262403 -4.1911426 -0.3991175 0.97924292
-3.1787305 -4.1516113 -0.3991257 0.9792425
-3.2556736 -4.1432033 -0.40221804 0.9790833
-3.5109472 -4.1370606 -0.41418156 0.97846788
-3.6898046 -4.1326561 -0.42289558 0.97802001
-4.172617 -4.1205273 -0.44763348 0.9767493
-4.3845115 -4.1173434 -0.45911604 0.97616005
-1.0230957 -0.89064449 -0.1035405 0.99457318
-1.0233105 -0.86846679 -0.10244983 0.99463022
-1.023496 -0.84674805 -0.10139759 0.99468529
-1.023711 -0.82545894 -0.10038181 0.9947384
-1.0239062 -0.80459958 -0.099401742 0.9947896
-1.0240917 -0.78413087 -0.098455697 0.99483907
-1.0242871 -0.76404297 -0.097542338 0.99488682
-1.0244628 -0.74433595 -0.096660614 0.99493289
-1.0246289 -0.72496092 -0.095809475 0.99497741
-1.0306739 -0.70996094 -0.095531464 0.9949919
-1.1834277 -0.70997071 -0.10534225 0.994479
-1.3307226 -0.70996094 -0.11513008 0.99396765
-1.3719531 -0.70996094 -0.11791676 0.9938221
-1.4607714 -0.70996094 -0.12397689 0.99350566
-1.5592871 -0.70997071 -0.13078032 0.99315041
-1.612705 -0.70996094 -0.13450332 0.99295616
-1.6692773 -0.70997071 -0.13846672 0.99274933
-1.7293066 -0.70995116 -0.14269421 0.99252886
-1.794873 -0.71065426 -0.14735508 0.99228567
-1.7947558 -0.68464839 -0.14662769 0.99232364
-1.7946289 -0.65889645 -0.14593036 0.99236006
-6.3125291 -1.8770703 -0.50270379 0.97392648
-6.3990426 -1.5575683 -0.50271702 0.97392583
-6.4362011 -1.3962792 -0.50272268 0.97392565
-6.4533005 -1.3153125 -0.5027253 0.97392541
-6.4843554 -1.1527246 -0.50272995 0.97392523
-6.4983883 -1.0711523 -0.5027321 0.97392505
-6.5232716 -0.90751952 -0.50273579 0.97392493
-6.5342088 -0.82548827 -0.5027374 0.97392476
-6.5607128 -0.57863277 -0.50274128 0.97392464
-6.5674901 -0.49612305 -0.50274223 0.97392452
-6.5732031 -0.41357422 -0.50274307 0.97392458
-6.5815625 -0.24824218 -0.5027442 0.9739244
-6.5841503 -0.16552734 -0.50274456 0.97392446
-6.3492379 0.23944335 -0.5027073 0.97482783
-6.3411913 0.39893553 -0.50270587 0.97482789
-6.3356738 0.47858396 -0.50270492 0.97482795
-6.313076 0.71703124 -0.50270116 0.97482812
-6.3035645 0.7962988 -0.50269955 0.97482818
-6.2930174 0.87545896 -0.50269783 0.9748283
-6.2814941 0.95444334 -0.50269598 0.97482842
-6.2689843 1.0333008 -0.50269389 0.97482848
-6.2409763 1.1905175 -0.50268936 0.97482872
-6.1915817 1.424873 -0.50268137 0.97482908
-6.1731348 1.5025488 -0.50267839 0.97482932
-6.0896974 1.8107715 -0.50266498 0.97482991
-6.0664062 1.8871484 -0.50266129 0.97483015
-6.0421481 1.9632031 -0.50265735 0.97483039
-6.0169921 2.038955 -0.50265336 0.97483045
-1.7955078 0.65917969 -0.15133217 0.99235475
-1.7293164 0.70993161 -0.14790435 0.99252725
-1.6692871 0.70994139 -0.14352287 0.99274784
-1.5087109 0.70993161 -0.13192531 0.99333191
-1.4607714 0.70994139 -0.12850414 0.99350429
-1.4152539 0.70995116 -0.12527473 0.99366695
-1.2913867 0.70993161 -0.11659725 0.99410439
-1.217832 0.70992184 -0.111534 0.99435973
-1.1186719 0.70994139 -0.10483047 0.99469781
-1.0882128 0.70993161 -0.102803 0.99480009
-1.0589062 0.70994139 -0.10086819 0.99489766
-1.0239453 0.72445309 -0.099241599 0.99497974
-1.0237597 0.74379879 -0.10012268 0.99493533
-1.023584 0.7634961 -0.10103539 0.99488926
-1.0233886 0.78357422 -0.10198048 0.99484158
-1.0232129 0.80402344 -0.10296001 0.9947921
-1.0228027 0.84610349 -0.10502582 0.99468791
-1.0225683 0.86781245 -0.10611492 0.99463302
-1.0223633 0.88996094 -0.10724372 0.99457598
-1.0221192 0.91257811 -0.10841415 0.99451703
-1.021875 0.93571287 -0.10962692 0.99445587
-4.181416 3.9265916 -0.45383686 0.97724688
-4.076406 3.9255469 -0.44775885 0.97754818
-3.9753125 3.9256639 -0.4420394 0.97783178
-3.8767383 3.9257617 -0.43652961 0.97810507
-3.7805662 3.9258494 -0.43122101 0.97836834
-3.5052831 3.9259765 -0.41641691 0.97910321
-3.4176171 3.9259667 -0.41182986 0.97933102
-3.2478514 3.9259276 -0.40313441 0.97976291
-3.1655469 3.9258788 -0.39901373 0.97996777
-3.0653222 4.0034375 -0.39893818 0.97997147
-3.0147069 4.0415525 -0.39893019 0.97997195
-2.963623 4.0790429 -0.39892215 0.9799723
-2.8600585 4.1520605 -0.39890587 0.97997314
-2.8075976 4.1875877 -0.39889762 0.9799735
-2.5934277 4.322988 -0.39886391 0.97997522
-2.5388575 4.3551559 -0.39885536 0.97997558
-2.4284863 4.4173827 -0.39883798 0.97997653
-2.2600975 4.5054784 -0.39881155 0.97997785
-2.2032812 4.5334177 -0.39880261 0.97997826
-2.1460936 4.5606542 -0.39879364 0.97997868
-2.0885742 4.5871582 -0.39878455 0.9799791
-1.9140332 4.6622949 -0.39875716 0.97998053
-1.7962109 4.7086816 -0.39873865 0.97998148
-1.6772265 4.7521191 -0.39872 0.97998238
-1.557207 4.7925391 -0.39870116 0.97998333
-0.92141598 4.2473435 -0.34386635 0.98271227
-0.81342769 4.2641211 -0.34346145 0.98273247
-0.70264649 4.2628126 -0.34182563 0.98281407
-0.64470702 4.242949 -0.33955544 0.98292714
-0.57043946 4.515449 -0.36010239 0.98190349
-0.56847656 5.0050387 -0.3985461 0.97999102
-0.50553709 5.0116796 -0.39853621 0.97999144
-0.25306639 5.0302343 -0.39849669 0.97999352
-0.18982421 5.0328903 -0.39848676 0.979994
-0.12655273 5.0347557 -0.39847687 0.97999448
0 5.0360937 -0.39845705 0.97999549
0.063281246 5.0355859 -0.39844716 0.97999591
0.12655273 5.0342674 -0.39843723 0.97999638
0.25301757 5.0292282 -0.39841741 0.97999746
0.44235352 5.0157614 -0.39838782 0.97999889
0.50534177 5.0096774 -0.39837795 0.97999936
0.56821287 5.0028028 -0.39836809 0.9799999
0.75633788 4.9774609 -0.39833871 0.98000133
0.81877929 4.9674606 -0.39832893 0.98000181
0.88114256 4.9566407 -0.39831915 0.98000234
0.9433105 4.9450583 -0.39830944 0.98000282
1.0672559 4.9195604 -0.39829007 0.98000371
1.190498 4.8909669 -0.39827079 0.98000461
1.2518262 4.8754687 -0.39826119 0.9800052
1.3129394 4.8592482 -0.39825165 0.98000568
1.3738769 4.8422461 -0.39824212 0.98000616
1.4345801 4.824492 -0.39823264 0.98000658
1.4950683 4.8059568 -0.39822319 0.98000711
1.5553027 4.7866797 -0.39821377 0.98000759
1.6750293 4.7458692 -0.39819506 0.98000848
1.7936621 4.7020507 -0.39817652 0.98000944
1.8525683 4.6790333 -0.39816734 0.98000985
1.9694824 4.6307907 -0.39814907 0.98001075
2.0851464 4.5796289 -0.39813101 0.98001164
2.142451 4.552959 -0.39812204 0.98001218
2.2561231 4.4974804 -0.39810431 0.98001295
2.3123925 4.4686813 -0.39809555 0.98001343
2.3683105 4.4391599 -0.39808685 0.98001391
2.4238575 4.4089646 -0.39807814 0.98001426
2.4790137 4.3780665 -0.39806953 0.98001474
2.5881543 4.314209 -0.39805251 0.98001552
2.6956346 4.2476172 -0.39803576 0.98001641
2.7487597 4.2133203 -0.39802748 0.98001677
2.8014355 4.178369 -0.39801928 0.98001713
2.8536229 4.1427441 -0.39801115 0.98001766
2.9054003 4.1064744 -0.39800307 0.98001802
2.9567089 4.0695605 -0.39799505 0.98001844
3.1078417 3.9550097 -0.39797154 0.98001951
3.1572168 3.9155567 -0.39796385 0.98001993
3.259248 3.84041 -0.39852735 0.97999185
3.4250293 3.8360643 -0.40688249 0.97957683
3.6873729 3.8290625 -0.4205918 0.97889596
3.872412 3.8240428 -0.43059552 0.9783994
4.0665331 3.818701 -0.44136608 0.9778651
4.2720799 3.8142967 -0.45312822 0.97728211
4.3800488 3.8128612 -0.45946011 0.97696829
4.4911036 3.8113964 -0.46604705 0.97664189
4.6054001 3.8098729 -0.47290149 0.9763025
4.7230954 3.8083105 -0.48003665 0.97594929
4.9696188 3.8050292 -0.49521518 0.97519839
1.2509668 0.93311518 -0.12347858 0.99375749
1.2512012 0.90901363 -0.1223632 0.99381369
1.251416 0.88538086 -0.12128647 0.99386793
1.2520214 0.81677735 -0.11827438 0.99401975
1.2521777 0.79463863 -0.11733944 0.99406695
1.252373 0.7728613 -0.11643703 0.99411243
1.2525488 0.75139648 -0.11556599 0.9941563
1.2527245 0.7302441 -0.11472553 0.99419868
1.2913965 0.70993161 -0.11659721 0.99410433
1.3719823 0.70993161 -0.12222274 0.99382073
1.4152637 0.70992184 -0.12527496 0.99366701
1.460791 0.70992184 -0.12850407 0.99350423
1.5592871 0.70993161 -0.13555637 0.99314898
1.6693066 0.70993161 -0.14352317 0.99274778
1.7293261 0.70993161 -0.14790508 0.99252719
1.7931347 0.70992184 -0.15258747 0.99229151
1.9337792 0.70994139 -0.16298392 0.99176842
2.0234864 0.71415037 -0.1697778 0.99142689
2.0235059 0.68567383 -0.16904213 0.99146384
2.0235059 0.65746093 -0.16833919 0.99149919
6.0435252 1.8800195 -0.50076497 0.97492385
6.0666308 1.8039062 -0.50076139 0.97492403
6.088779 1.7275195 -0.50075799 0.97492421
6.1677246 1.4193847 -0.50074601 0.97492486
6.1850486 1.3417675 -0.50074333 0.97492498
6.2445407 1.0292773 -0.50073433 0.9749254
6.2883105 0.71422851 -0.50072783 0.97492564
6.2967477 0.6351465 -0.50072664 0.97492582
6.3042283 0.55595702 -0.50072551 0.97492582
6.3106933 0.4766992 -0.50072461 0.97492594
6.3162012 0.39736328 -0.50072384 0.97492588
6.3241696 0.23850586 -0.50072271 0.97492594
6.3266697 0.1590039 -0.50072241 0.97492594
6.3286619 -1.953125e-05 -0.50072229 0.97492594
6.3266697 -0.15905273 -0.50072277 0.97492594
6.3241696 -0.23854491 -0.50072324 0.97492594
6.320693 -0.31798828 -0.50072384 0.97492588
6.3162012 -0.39739257 -0.50072467 0.97492582
6.3106933 -0.47673827 -0.50072563 0.97492588
6.2883105 -0.714248 -0.50072938 0.97492564
6.2788572 -0.79324216 -0.50073093 0.97492552
6.2684274 -0.87206054 -0.50073266 0.9749254
6.2445798 -1.0293359 -0.50073653 0.97492522
6.2312012 -1.1077148 -0.50073874 0.97492504
6.2167869 -1.1859375 -0.50074106 0.97492504
6.1851072 -1.3417871 -0.50074619 0.97492474
6.1677637 -1.4194336 -0.50074899 0.97492468
6.1495018 -1.4968359 -0.50075191 0.97492445
6.1100097 -1.6509081 -0.50075829 0.97492415
6.0888181 -1.727578 -0.50076169 0.97492403
6.0435839 -1.8800683 -0.5007689 0.97492361
2.0235059 -0.68571287 -0.16904174 0.99146378
1.7931542 -0.70996094 -0.15258655 0.99229139
1.7293066 -0.70997071 -0.14790432 0.99252719
1.6692871 -0.70997071 -0.14352253 0.99274778
1.6127245 -0.70997071 -0.13941459 0.99295455
1.5592871 -0.70996094 -0.13555568 0.99314892
1.4607714 -0.70996094 -0.12850361 0.99350423
1.4152832 -0.70996094 -0.12527446 0.99366683
1.3307519 -0.70996094 -0.11933368 0.99396628
1.2913965 -0.70996094 -0.11659675 0.99410427
1.2526855 -0.73029298 -0.11472537 0.99419868
1.2525293 -0.75141603 -0.11556591 0.99415636
1.2523925 -0.77289063 -0.116437 0.99411225
1.2522168 -0.79466796 -0.11733936 0.99406677
1.2518262 -0.83929688 -0.11924332 0.99397081
1.2516114 -0.8621484 -0.12024673 0.99392033
1.2512012 -0.90905273 -0.12236317 0.99381357
4.9288182 -3.9742382 -0.50094575 0.97491485
4.7757711 -4.1573825 -0.50096989 0.97491366
4.7232127 -4.2171288 -0.50097817 0.9749133
4.1782322 -4.2310743 -0.47047678 0.97642249
3.9706542 -4.2283106 -0.45892605 0.97699463
3.8705957 -4.2269821 -0.4534674 0.97726518
3.7729003 -4.2256737 -0.44820663 0.97752595
3.6783886 -4.2255564 -0.44325271 0.97777152
3.5859473 -4.22542 -0.43847853 0.97800833
3.4954588 -4.2253027 -0.43387187 0.97823679
3.0692089 -4.224463 -0.41313913 0.97926593
2.9887207 -4.2242384 -0.40941319 0.97945094
2.9095995 -4.2240524 -0.40581626 0.97962952
2.6967871 -4.2494726 -0.3982057 0.98000783
2.6432323 -4.2831249 -0.39821413 0.98000735
2.5892479 -4.3160839 -0.39822266 0.98000699
2.534873 -4.3483591 -0.39823118 0.98000658
2.4920995 -4.4012012 -0.40016991 0.97991019
2.3693261 -4.4411035 -0.3982572 0.98000526
2.2570605 -4.4994626 -0.39827484 0.98000437
2.1433885 -4.5549803 -0.39829269 0.98000342
2.0283496 -4.6075974 -0.39831078 0.98000252
1.9703027 -4.632822 -0.39831993 0.98000216
1.912002 -4.6573339 -0.39832905 0.98000163
1.8533887 -4.6810937 -0.39833823 0.98000115
1.7944434 -4.7041211 -0.3983475 0.98000073
1.6757324 -4.7479491 -0.39836615 0.97999984
1.4352051 -4.8266211 -0.39840388 0.97999787
1.3744824 -4.8443747 -0.39841342 0.97999746
1.252334 -4.8776269 -0.39843258 0.9799965
1.1909863 -4.893086 -0.39844221 0.97999609
1.0676855 -4.9217286 -0.39846152 0.97999501
1.0057909 -4.9348826 -0.39847127 0.97999454
0.94374019 -4.9472361 -0.39848098 0.97999406
0.75666988 -4.9796581 -0.39851031 0.97999263
0.69401366 -4.9889159 -0.39852011 0.97999209
0.44253907 -5.0179687 -0.39855957 0.97999018
0.31632811 -5.0277438 -0.39857933 0.97998923
0.18990234 -5.0343652 -0.39859912 0.97998822
0.12660156 -5.0364747 -0.39860904 0.97998774
-0.063310549 -5.0380273 -0.39863878 0.97998631
-0.12661132 -5.0369825 -0.39864868 0.97998571
-0.18991211 -5.0351171 -0.3986586 0.97998524
-0.25317383 -5.0324607 -0.3986685 0.97998476
-0.44270507 -5.0197067 -0.39869818 0.97998327
-0.50577146 -5.0138865 -0.39870802 0.97998273
-0.56873047 -5.007246 -0.39871788 0.97998232
-0.69441402 -4.991611 -0.39873755 0.97998136
-0.81966794 -4.9728513 -0.39875716 0.97998029
-0.88211912 -4.9622755 -0.39876693 0.97997981
-0.94443357 -4.9509177 -0.39877665 0.97997934
-1.0065918 -4.9387794 -0.3987864 0.97997886
-1.1304492 -4.912158 -0.39880577 0.97997791
-1.1921093 -4.8976951 -0.39881536 0.97997743
-1.2535839 -4.8824315 -0.39882502 0.97997701
-1.3148828 -4.8663964 -0.39883456 0.97997653
-1.4368066 -4.8320704 -0.39885369 0.97997552
-1.5578711 -4.7946582 -0.39887255 0.97997463
-1.7376171 -4.7328806 -0.39890063 0.97997314
-1.9148828 -4.6643357 -0.39892831 0.97997183
-2.0315917 -4.6149411 -0.39894655 0.97997099
-2.2610838 -4.5074611 -0.39898238 0.97996914
-2.4295409 -4.4193163 -0.39900866 0.97996783
-2.4849315 -4.388545 -0.39901727 0.97996742
-2.5399218 -4.3570509 -0.39902586 0.97996706
-2.6487403 -4.2920313 -0.39904284 0.97996616
-2.7025194 -4.2585058 -0.39905125 0.97996575
-3.0909472 -4.1438184 -0.40901804 0.97947049
-3.2530761 -4.1399021 -0.41657364 0.9790954
-3.3364356 -4.1378613 -0.42055556 0.97889769
-3.5964551 -4.1314549 -0.43338233 0.97826117
-3.6867187 -4.1291895 -0.43797079 0.97803354
-4.2770309 -4.1187596 -0.46979532 0.97645628
-1.0218848 -0.93575191 -0.10962688 0.9944557
-1.0227832 -0.84615231 -0.10502578 0.99468786
-1.022998 -0.82489258 -0.10397453 0.9947409
-1.0233788 -0.78360349 -0.10198059 0.99484152
-1.023584 -0.76353514 -0.10103516 0.9948892
-1.0239356 -0.72447264 -0.099241525 0.99497968
-1.0306739 -0.70996094 -0.099019699 0.99499083
-1.0882422 -0.70996094 -0.10280273 0.99479991
-1.2913867 -0.70997071 -0.11659679 0.99410433
-1.4607714 -0.70997071 -0.12850356 0.99350423
-1.5087011 -0.70996094 -0.131925 0.99333191
-1.7955176 -0.65921873 -0.15133217 0.99235463
-5.9908886 -2.1144433 -0.50265372 0.97483045
-6.0170212 -2.0390038 -0.50265771 0.97483027
-6.0422068 -1.9632519 -0.50266159 0.97483015
-6.0664649 -1.8871875 -0.50266534 0.97482985
-6.1120505 -1.7341601 -0.50267226 0.97482955
-6.1334176 -1.6572461 -0.50267553 0.97482932
-6.1538086 -1.5800488 -0.50267863 0.97482914
-6.1731935 -1.5025879 -0.50268161 0.97482908
-6.1916113 -1.4249121 -0.50268441 0.97482896
-6.2090526 -1.3469921 -0.50268704 0.97482884
-6.2255468 -1.2688769 -0.50268954 0.97482866
-6.2690134 -1.0333594 -0.5026961 0.97482836
-6.2930565 -0.87547851 -0.50269967 0.97482818
-6.3216405 -0.63768554 -0.50270391 0.97482795
-6.3291602 -0.5582031 -0.50270504 0.97482789
-6.3356738 -0.47862303 -0.50270593 0.97482789
-6.3457422 -0.3192578 -0.50270736 0.97482777
-6.3492675 -0.23948242 -0.50270784 0.97482771
-6.1326756 0.23128906 -0.50267339 0.97567052
-6.1133008 0.53912109 -0.50267005 0.97567052
-6.1059861 0.61589843 -0.5026688 0.97567075
-6.0672555 0.92189449 -0.50266242 0.97567105
-6.042119 1.0740722 -0.50265831 0.97567123
-6.0281248 1.1499121 -0.50265604 0.97567135
-6.013154 1.2255762 -0.50265366 0.97567153
-5.9804101 1.3762792 -0.50264835 0.97567171
-5.9625974 1.4513184 -0.50264549 0.97567189
-5.9438767 1.526123 -0.50264245 0.97567195
-5.9241891 1.6006738 -0.50263929 0.97567213
-5.9035544 1.6749609 -0.50263596 0.97567236
-5.8820114 1.7490137 -0.50263256 0.97567242
-5.8117771 1.9694238 -0.50262129 0.97567302
-1.7963867 0.65950191 -0.15674137 0.99234927
-1.7965235 0.68528318 -0.15749073 0.99231279
-1.6692871 0.70994139 -0.14858109 0.99274617
-1.612705 0.70994139 -0.14432773 0.99295312
-1.5592871 0.70993161 -0.14033328 0.99314743
-1.4607714 0.70994139 -0.13303265 0.99350286
-1.4152539 0.70994139 -0.12968971 0.99366558
-1.3719629 0.70993161 -0.12653007 0.99381942
-1.3307323 0.70993161 -0.12353977 0.99396503
-1.2913867 0.70993161 -0.12070644 0.99410307
-1.2537988 0.70994139 -0.11801792 0.99423403
-1.1186719 0.70994139 -0.10852493 0.99469662
-1.0589062 0.70994139 -0.1044231 0.99489647
-1.0306739 0.70994139 -0.10251003 0.99498975
-1.0232519 0.72396481 -0.10267051 0.994982
-1.0227051 0.78302735 -0.10550231 0.9948439
-1.0224999 0.80345702 -0.10651493 0.99479455
-1.0220703 0.84552735 -0.10865048 0.99469048
-1.0218555 0.86719728 -0.10977646 0.99463558
-1.0216211 0.88932616 -0.11094341 0.99457872
-1.021377 0.91192383 -0.1121529 0.99451977
-1.0211133 0.93503904 -0.11340694 0.99445868
-4.181416 3.9265819 -0.46983138 0.97724193
-3.9734666 3.9238379 -0.45740432 0.97783709
-3.8735254 3.9225097 -0.45153946 0.97811818
-3.7768652 3.9220214 -0.44598278 0.97838449
-3.6831055 3.9221289 -0.44069746 0.97863793
-3.5915332 3.9222069 -0.43560103 0.97888231
-3.5019922 3.9222655 -0.43068573 0.97911811
-3.4144335 3.9223144 -0.42594612 0.9793455
-3.2448633 3.9223633 -0.41696128 0.97977674
-3.1626952 3.9223437 -0.41270292 0.97998124
-3.0031641 3.9222851 -0.40462527 0.98036921
-2.9256933 3.9222362 -0.40079573 0.98055315
-2.8626072 3.9400194 -0.39890647 0.98064399
-2.8128221 3.9756153 -0.39889866 0.98064429
-2.6141405 4.1191893 -0.39960295 0.98061037
-2.5050683 4.175693 -0.39885023 0.98064661
-2.4523437 4.2067575 -0.39884198 0.98064697
-2.3992286 4.2371483 -0.3988336 0.98064744
-2.183125 4.3519626 -0.39879966 0.98064911
-2.1282129 4.3789549 -0.39879099 0.98064953
-1.9053613 4.4799509 -0.39875603 0.9806512
-1.8488476 4.5034571 -0.39874712 0.98065162
-1.7920703 4.5262403 -0.39873821 0.98065203
-1.7350097 4.5483007 -0.39872926 0.98065245
-1.6776757 4.5696483 -0.39872026 0.98065287
-1.6200976 4.5902438 -0.39871123 0.98065335
-1.5622265 4.6101365 -0.39870214 0.98065382
-1.3285253 4.682373 -0.39866546 0.98065555
-1.2104003 4.7140722 -0.39864692 0.98065639
-1.1510254 4.7287889 -0.39863762 0.98065692
-0.92105466 4.2456641 -0.35584503 0.98271525
