# .PCD v0.7 - Point Cloud Data file format
VERSION 0.7
FIELDS x y z intensity
SIZE 4 4 4 4
TYPE F F F F
COUNT 1 1 1 1
WIDTH 1083
HEIGHT 1
VIEWPOINT 0 0 0 1 0 0 0
POINTS 1083
DATA ascii
-1.9355663 -7.5385642 -0.39924613 0.9693076
-2.030293 -7.5141697 -0.39927346 0.96930552
-2.124707 -7.4885936 -0.39930069 0.96930337
-2.3125196 -7.4338083 -0.39935485 0.96929944
-2.4059081 -7.4046679 -0.39938179 0.96929735
-2.6838379 -7.310205 -0.39946193 0.96929121
-2.7756641 -7.2763963 -0.39948839 0.96928918
-2.8670604 -7.2413964 -0.39951476 0.96928728
-3.1385839 -7.1296091 -0.399593 0.96928126
-3.2281249 -7.0900488 -0.39961883 0.96927941
-3.3171778 -7.0494137 -0.39964446 0.96927732
-3.5812109 -6.9206543 -0.39972058 0.96927166
-3.6681347 -6.8755469 -0.39974561 0.96926975
-3.7544725 -6.8293357 -0.3997705 0.96926785
-3.840205 -6.7820411 -0.39979517 0.969266
-4.0938573 -6.6336813 -0.39986828 0.96926051
-4.2597752 -6.5294919 -0.39991602 0.96925688
-4.3417773 -6.4758592 -0.39993966 0.96925491
-4.4230466 -6.4211521 -0.39996305 0.96925324
-4.5036521 -6.3654199 -0.39998627 0.96925151
-4.6627049 -6.250957 -0.40003204 0.96924812
-4.7411523 -6.1922169 -0.40005466 0.96924639
-4.8188572 -6.1324997 -0.40007702 0.96924472
-4.8958302 -6.0718064 -0.40009916 0.96924293
-5.0473924 -5.9474802 -0.40014282 0.96923977
-5.1958103 -5.8193946 -0.4001855 0.96923649
-5.4123044 -5.6203122 -0.40024778 0.96923172
-5.5523925 -5.4830761 -0.40028808 0.96922868
-1.0294532 -0.94266599 -0.071601793 0.99442488
-1.0296289 -0.91929686 -0.070803568 0.99448675
-1.0297558 -0.8964355 -0.070033908 0.99454659
-1.0299219 -0.8740527 -0.069291607 0.99460423
-1.030332 -0.8096289 -0.067216948 0.99476534
-1.0304589 -0.78899413 -0.066573255 0.99481535
-1.0305761 -0.76874024 -0.065951996 0.99486363
-1.0306933 -0.74885738 -0.065352172 0.99491024
-1.03083 -0.72932613 -0.064773403 0.99495512
-1.0589062 -0.70996094 -0.065396689 0.99490678
-1.0882324 -0.70995116 -0.066651076 0.99480933
-1.1187011 -0.70996094 -0.067965619 0.99470723
-1.1504004 -0.70996094 -0.069344021 0.99460018
-1.1834375 -0.70997071 -0.070791125 0.9944877
-1.3719727 -0.70994139 -0.079241484 0.99383187
-1.6127343 -0.70995116 -0.09038803 0.99296725
-1.6692969 -0.70996094 -0.093051299 0.99276078
-1.7870214 -0.70753902 -0.098591648 0.99233145
-9.3907518 -2.9213085 -0.50448322 0.96137542
-9.4269037 -2.8031347 -0.50449359 0.96137464
-9.4615622 -2.6844823 -0.50450349 0.96137398
-9.4947071 -2.5654395 -0.50451291 0.96137333
-9.5263958 -2.4459765 -0.50452191 0.96137249
-9.6122656 -2.0852735 -0.50454628 0.96137077
-9.6378708 -1.9643652 -0.50455362 0.96137011
-9.6619043 -1.843125 -0.50456041 0.96136969
-9.6844234 -1.7215723 -0.50456673 0.96136922
-9.7427635 -1.3554003 -0.50458324 0.96136791
-9.7739162 -1.1101464 -0.50459194 0.96136725
-9.7988863 -0.86417967 -0.50459892 0.96136665
-9.8301067 -0.37077147 -0.50460738 0.96136594
-9.8363276 -0.12362304 -0.50460893 0.96136594
-9.3290033 -9.7656248e-06 -0.5044623 0.96331912
-9.3282614 0.1172168 -0.50446194 0.96331918
-9.326045 0.23442382 -0.50446123 0.96331918
-9.3223238 0.35160154 -0.50446004 0.9633193
-9.3104982 0.58576173 -0.50445634 0.96331948
-9.2927437 0.81952149 -0.50445098 0.9633199
-9.281621 0.93622071 -0.50444764 0.96332026
-9.222558 1.4013574 -0.50443012 0.96332139
-9.2041016 1.5171191 -0.50442463 0.96332186
-9.1841793 1.6326367 -0.50441879 0.96332234
-9.1400385 1.8628906 -0.5044058 0.96332318
-9.1157904 1.9775683 -0.5043987 0.96332365
-9.0900679 2.0919139 -0.50439113 0.96332425
-9.0343552 2.319629 -0.5043748 0.96332532
-8.9728909 2.54583 -0.5043568 0.96332663
-8.9399805 2.65833 -0.50434721 0.96332747
-8.9057322 2.7704101 -0.50433719 0.96332806
-8.8700094 2.882041 -0.50432676 0.96332884
-1.7877148 0.65633786 -0.10298031 0.99240035
-1.7879003 0.70787108 -0.10398155 0.99232662
-1.7293066 0.70994139 -0.10108623 0.99253958
-1.6693066 0.70994139 -0.098091312 0.9927597
-1.6127245 0.70994139 -0.095283315 0.99296629
-1.4608008 0.70995116 -0.087826461 0.9935149
-1.4152637 0.70995116 -0.085619353 0.99367744
-1.3719727 0.70996094 -0.083533593 0.99383092
-1.3307519 0.70995116 -0.081559449 0.99397624
-1.2178515 0.70995116 -0.076228254 0.99436897
-1.1834472 0.70993161 -0.074625544 0.99448699
-1.0882422 0.70994139 -0.070261039 0.99480855
-1.0301269 0.72880858 -0.068235509 0.99495786
-1.0300195 0.74833006 -0.068845063 0.99491292
-1.0299023 0.76819336 -0.069476314 0.99486637
-1.0297461 0.78841794 -0.070130423 0.99481827
-1.029043 0.89576173 -0.07377357 0.99454975
-1.0288574 0.91860348 -0.074583888 0.99449009
-1.0286914 0.94194335 -0.075423658 0.99442822
-5.3932519 5.0646091 -0.4000698 0.97079772
-5.2637792 5.1980371 -0.40003231 0.97080046
-5.197793 5.2635059 -0.40001318 0.97080189
-4.9258103 5.5169435 -0.39993438 0.97080749
-4.7851267 5.6384177 -0.39989364 0.97081041
-4.6414161 5.756279 -0.39985207 0.97081351
-4.5684667 5.8138571 -0.39983094 0.970815
-4.4948435 5.8704882 -0.3998096 0.97081643
-4.3454003 5.9809375 -0.39976636 0.97081965
-4.2696776 6.0347462 -0.39974442 0.97082114
-4.1933007 6.0875778 -0.39972231 0.97082275
-4.1162305 6.1394529 -0.39970002 0.97082436
-4.0385156 6.1903415 -0.39967754 0.97082603
-3.9602051 6.2402439 -0.39965487 0.97082758
-3.4776659 6.5185447 -0.39951527 0.97083765
-3.3123729 6.6031055 -0.39946747 0.97084105
-3.0605567 6.7220311 -0.39939463 0.97084635
-2.9756541 6.7595215 -0.3993701 0.9708482
-1.5617089 4.2537403 -0.24503201 0.9820118
-1.2680664 4.2644629 -0.24057928 0.98233587
-1.2324414 4.5612597 -0.25550419 0.98125106
-1.4733593 7.2288766 -0.39893591 0.97087932
-1.1079882 7.2918162 -0.39883032 0.97088701
-1.0162011 7.3046775 -0.39880386 0.97088891
-0.92428708 7.3164158 -0.39877731 0.9708907
-0.74003905 7.3363376 -0.39872408 0.97089458
-0.46289062 7.3575487 -0.39864406 0.97090036
-0.37037107 7.3622947 -0.39861736 0.97090226
0 7.3696384 -0.39851043 0.97090989
0.092597656 7.3685546 -0.39848369 0.97091186
0.18517578 7.3662987 -0.39845696 0.97091383
0.2776953 7.3629003 -0.39843026 0.97091573
0.46257812 7.3526268 -0.39837688 0.97091949
0.55492187 7.3457227 -0.39835024 0.97092152
0.64710939 7.3376756 -0.39832363 0.97092342
0.73921871 7.328486 -0.39829704 0.97092533
0.83121091 7.3181348 -0.39827052 0.97092718
0.92304683 7.3066211 -0.39824402 0.97092909
1.1062109 7.2801366 -0.39819112 0.97093296
1.4702344 7.2134762 -0.39808616 0.97094047
1.560625 7.1939549 -0.39806005 0.97094238
1.6508203 7.1732907 -0.39803404 0.97094429
1.7407031 7.1515231 -0.39800811 0.97094613
2.4483984 6.9371581 -0.39780405 0.9709608
2.5352342 6.9054294 -0.39777899 0.97096252
2.62166 6.8725877 -0.39775413 0.97096431
2.7075975 6.8386621 -0.39772934 0.97096622
2.7931836 6.8036814 -0.39770466 0.97096789
2.9629102 6.7305369 -0.39765576 0.97097135
3.0470703 6.6923337 -0.3976315 0.97097319
3.2138867 6.6128807 -0.39758343 0.97097653
3.2965233 6.5715427 -0.39755958 0.97097838
3.4602344 6.4858594 -0.39751244 0.97098172
3.54125 6.441494 -0.39748907 0.97098339
4.0917969 6.1030469 -0.39733049 0.97099489
4.1679492 6.0507908 -0.39730856 0.9709965
4.3182225 5.9435153 -0.39726532 0.97099954
4.3923435 5.8884473 -0.39724395 0.97100109
4.465703 5.83249 -0.39722285 0.9710027
4.5384374 5.7756052 -0.39720193 0.97100413
4.6104298 5.7178321 -0.39718118 0.97100556
5.0265231 5.3526754 -0.39706147 0.9710142
5.0931444 5.2888474 -0.3970423 0.97101551
5.2880859 5.0923729 -0.39698622 0.97101974
5.3514256 5.0252929 -0.39696804 0.971021
5.4755664 4.8888083 -0.39693236 0.97102338
5.5362887 4.8194041 -0.3969149 0.97102475
5.6551561 4.6783495 -0.39688072 0.97102726
5.7704687 4.5343747 -0.39684761 0.97102958
5.8267579 4.461328 -0.39683139 0.97103071
1.2587891 0.9145605 -0.084137492 0.99378651
1.2589452 0.89072263 -0.083392672 0.99384129
1.2594726 0.79928708 -0.080662839 0.99404234
1.2599609 0.7134375 -0.078295588 0.99421662
1.4152734 0.70994139 -0.085619695 0.99367738
1.4608008 0.70996094 -0.087826766 0.9935149
1.5592773 0.70995116 -0.092646368 0.99316031
1.7292968 0.70994139 -0.10108597 0.99253964
1.7931249 0.70994139 -0.10428672 0.99230427
2.0241406 0.68591797 -0.11556831 0.99147522
8.8489447 2.6312401 -0.49921179 0.9636941
8.9119921 2.4079492 -0.49919382 0.96369523
8.9959373 2.0702441 -0.49916995 0.96369708
9.0448828 1.8434668 -0.49915606 0.96369803
9.0881643 1.6155468 -0.49914381 0.96369874
9.1076365 1.5012012 -0.49913833 0.96369922
9.1256838 1.3866308 -0.4991332 0.96369958
9.1423044 1.2718359 -0.49912855 0.96369994
9.1835155 0.92631835 -0.49911699 0.96370083
9.2118158 0.57955074 -0.49910921 0.96370113
9.2291794 0.11595703 -0.49910471 0.96370161
9.2298822 -2.9296874e-05 -0.49910459 0.96370173
9.2291994 -0.11600586 -0.49910495 0.96370155
9.1835737 -0.92637694 -0.49911898 0.96370053
9.1257229 -1.3866796 -0.49913618 0.9636994
9.1076956 -1.5012499 -0.49914148 0.96369892
8.8812494 -2.5198534 -0.49920794 0.96369427
8.849062 -2.6313086 -0.49921736 0.96369356
8.8154688 -2.7423534 -0.49922717 0.96369284
2.0241601 -0.65768552 -0.11508773 0.99151051
1.9337305 -0.70995116 -0.11139095 0.99178219
1.8611132 -0.70996094 -0.10771282 0.99205238
1.7292968 -0.70995116 -0.10108539 0.99253958
1.6692773 -0.70995116 -0.09809082 0.99275982
1.6127343 -0.70995116 -0.095282823 0.99296623
1.5087109 -0.70993161 -0.090164222 0.99334294
1.4607812 -0.70995116 -0.087825887 0.99351496
1.3307421 -0.70994139 -0.081558987 0.99397629
1.2913867 -0.70994139 -0.079688221 0.9941141
1.2599609 -0.7134375 -0.078295439 0.99421662
1.2598437 -0.73441404 -0.078855895 0.99417537
1.2597265 -0.75572264 -0.079436794 0.99413258
1.2594922 -0.79929686 -0.08066307 0.99404228
1.2593359 -0.82158202 -0.081309587 0.99399477
1.2591015 -0.86728513 -0.08267349 0.99389422
1.2589258 -0.89072263 -0.083392598 0.99384135
1.258828 -0.9145605 -0.084137417 0.99378639
1.2586328 -0.93883789 -0.084909245 0.99372971
5.7729688 -4.5363474 -0.3970176 0.97101724
5.6576171 -4.6803708 -0.39705107 0.97101486
5.4778905 -4.8909373 -0.39710319 0.97101116
5.4162302 -4.959619 -0.39712104 0.97100985
5.2261915 -5.1609373 -0.39717612 0.97100592
5.1611719 -5.2264743 -0.39719492 0.97100449
5.0286717 -5.3550196 -0.39723334 0.9710018
4.9612498 -5.4180369 -0.39725289 0.97100037
4.8930078 -5.4802637 -0.39727265 0.97099888
4.7542577 -5.6020508 -0.39731285 0.97099596
4.6837111 -5.6616406 -0.39733326 0.97099453
4.4676952 -5.8350587 -0.39739576 0.97099006
4.3942575 -5.8910642 -0.39741707 0.97098845
4.2452731 -6.0002732 -0.39746016 0.97098541
4.1697655 -6.0534668 -0.39748207 0.97098392
4.0167966 -6.1570606 -0.39752632 0.97098058
3.8612499 -6.2567577 -0.39757133 0.97097731
3.7825193 -6.3051367 -0.39759409 0.97097576
3.703203 -6.3525486 -0.39761701 0.97097409
3.5428123 -6.4443455 -0.39766344 0.97097075
3.2152929 -6.6157713 -0.39775816 0.97096401
3.0483983 -6.6952929 -0.39780647 0.97096056
2.794414 -6.8067088 -0.3978799 0.97095519
2.708828 -6.8416796 -0.39790466 0.97095352
2.3622265 -6.9709277 -0.39800483 0.97094625
2.2746093 -7.0004978 -0.39803016 0.9709444
1.9204882 -7.1077633 -0.3981325 0.97093707
1.8311328 -7.1318164 -0.39815834 0.97093517
1.7414843 -7.1547165 -0.39818421 0.97093332
1.6515625 -7.1764841 -0.3982102 0.97093153
1.4708788 -7.2166796 -0.39826241 0.97092772
1.3801563 -7.2350683 -0.39828861 0.97092587
1.1066992 -7.2833982 -0.39836761 0.97092015
0.92347652 -7.3098826 -0.39842054 0.97091633
0.73957032 -7.3317575 -0.39847365 0.97091252
0.64742184 -7.3409762 -0.39850029 0.97091055
0.55513668 -7.3490233 -0.39852691 0.97090864
0.37035155 -7.3616209 -0.39858028 0.97090489
-0.46310547 -7.3608203 -0.39882088 0.9708876
-0.83257812 -7.3302245 -0.39892754 0.97087985
-1.1085058 -7.2950878 -0.39900711 0.97087413
-1.2001562 -7.2810645 -0.39903358 0.97087228
-1.3829297 -7.2495508 -0.3990863 0.97086853
-1.5648828 -7.2134862 -0.39913878 0.97086459
-1.6555274 -7.1937008 -0.39916494 0.97086281
-1.8360058 -7.1507616 -0.39921698 0.97085905
-2.0153906 -7.103291 -0.39926872 0.9708553
-2.1046093 -7.0778418 -0.39929447 0.97085357
-2.1935449 -7.0512986 -0.3993201 0.97085166
-2.2821093 -7.0236325 -0.39934561 0.97084981
-2.4582129 -6.9649606 -0.39939642 0.97084612
-2.6327929 -6.9018455 -0.39944676 0.97084254
-2.7194824 -6.8686423 -0.39947173 0.97084075
-2.8057811 -6.8343554 -0.39949661 0.9708389
-2.8916113 -6.7990036 -0.39952135 0.97083706
-3.061914 -6.7250094 -0.39957047 0.9708336
-3.1463866 -6.6864061 -0.39959478 0.97083181
-3.2303417 -6.6467185 -0.39961898 0.9708302
-3.3138182 -6.6060252 -0.39964306 0.97082835
-3.3967676 -6.5642576 -0.39966694 0.97082663
-3.4791894 -6.5214257 -0.39969069 0.97082502
-3.5610743 -6.4775782 -0.39971426 0.97082329
-3.8829393 -6.2919235 -0.39980701 0.97081661
-3.9619238 -6.2429881 -0.39982975 0.970815
-4.1180272 -6.1421385 -0.39987472 0.97081178
-4.1951075 -6.0902538 -0.39989692 0.97081017
-4.3473048 -5.9835644 -0.39994076 0.97080702
-4.4223924 -5.9287891 -0.39996234 0.97080547
-4.6434374 -5.7588181 -0.40002599 0.97080088
-4.7156935 -5.7003026 -0.40004677 0.97079939
-4.7871971 -5.6408787 -0.40006736 0.9707979
-4.8579493 -5.5805664 -0.40008771 0.97079641
-4.927949 -5.5193553 -0.40010786 0.97079498
-4.9971581 -5.4572654 -0.40012777 0.97079355
-5.1332226 -5.3304882 -0.40016693 0.97079074
-5.2660642 -5.2002931 -0.40020514 0.970788
-1.028711 -0.9419629 -0.075423926 0.9944281
-1.0288867 -0.91862303 -0.074583627 0.99448997
-1.0293262 -0.85154295 -0.072237894 0.99466288
-1.0294726 -0.8300879 -0.071510427 0.99471653
-1.0301465 -0.72883785 -0.068235628 0.99495775
-1.0882324 -0.70995116 -0.070260845 0.99480855
-1.1504004 -0.70996094 -0.073099591 0.9945994
-1.1834375 -0.70997071 -0.074624896 0.99448693
-1.2913965 -0.70995116 -0.079688035 0.99411404
-1.4152734 -0.70995116 -0.085618973 0.99367738
-1.460791 -0.70995116 -0.087826043 0.99351496
-1.5592871 -0.70995116 -0.092645794 0.99316025
-1.6127343 -0.70996094 -0.095283046 0.99296618
-1.6692969 -0.70996094 -0.098091044 0.99275976
-1.7292968 -0.70995116 -0.10108543 0.99253958
-1.7877344 -0.65635741 -0.10298 0.99240023
-8.7945309 -3.103955 -0.50431138 0.96332991
-8.8330469 -2.9932616 -0.50432235 0.96332908
-8.8701363 -2.8820801 -0.5043329 0.96332836
-8.9058399 -2.7704589 -0.50434309 0.96332759
-9.0901661 -2.091953 -0.5043956 0.96332389
-9.1158886 -1.9775976 -0.50440294 0.96332324
-9.1629095 -1.7479297 -0.50441623 0.96332246
-9.1842966 -1.6326758 -0.50442231 0.96332192
-9.2041693 -1.5171386 -0.50442791 0.96332157
-9.2225971 -1.401377 -0.5044331 0.96332121
-9.2395506 -1.2853906 -0.50443786 0.96332097
-9.2550783 -1.1691992 -0.50444221 0.96332055
-9.2691107 -1.0528027 -0.50444615 0.96332026
-9.2816696 -0.93624997 -0.50444967 0.96332002
-9.2927542 -0.81956053 -0.50445271 0.96331984
-9.3223438 -0.35162109 -0.50446075 0.96331924
-9.3260345 -0.23443359 -0.50446171 0.96331924
-9.3282518 -0.11723632 -0.50446224 0.96331918
-8.8699799 0.1114746 -0.50432968 0.96508414
-8.8678713 0.22291015 -0.50432897 0.96508414
-8.8643751 0.33433592 -0.50432783 0.96508414
-8.8531055 0.5569824 -0.50432432 0.96508437
-8.8361912 0.77927732 -0.50431919 0.96508485
-8.8137207 1.0010644 -0.50431252 0.96508521
-8.8003807 1.111748 -0.50430852 0.96508551
-8.7856445 1.2222265 -0.50430417 0.96508574
-8.7330275 1.5524316 -0.50428861 0.965087
-8.7127638 1.6620312 -0.50428265 0.96508723
-8.6680174 1.8804199 -0.50426954 0.96508813
-8.6435642 1.9891698 -0.50426233 0.96508867
-8.5905762 2.2056835 -0.50424683 0.96508974
-8.5620604 2.3134179 -0.50423849 0.96509027
-8.5321579 2.4207811 -0.50422972 0.96509087
-8.5009079 2.5277538 -0.50422055 0.96509153
-8.4343748 2.7404883 -0.50420111 0.96509284
-8.3991013 2.8462012 -0.50419086 0.96509355
-1.788584 0.65665036 -0.10832439 0.99239552
-1.7887793 0.70821285 -0.10937839 0.99232173
-1.5592968 0.70994139 -0.097407222 0.99315923
-1.4152637 0.70995116 -0.090019226 0.99367642
-1.3719727 0.70996094 -0.087826192 0.99383003
-1.3307519 0.70995116 -0.085750729 0.99397534
-1.253828 0.70994139 -0.081918031 0.99424386
-1.1834277 0.70995116 -0.078460388 0.99448615
-1.058916 0.70993161 -0.072481342 0.99490529
-1.0293067 0.74782223 -0.072334133 0.9949156
-1.0291797 0.76766598 -0.072997056 0.99486911
-1.029043 0.78788084 -0.073683888 0.99482095
-1.0288867 0.80848628 -0.074395485 0.99477112
-1.0285938 0.85094726 -0.075896606 0.9946658
-1.0282714 0.89512694 -0.077508621 0.99455285
-5.0675292 4.8799706 -0.39997596 0.97220731
-4.75 5.1873536 -0.39988399 0.97221363
-4.5504684 5.3619237 -0.3998262 0.97221756
-4.4825001 5.4184179 -0.3998065 0.97221893
-4.4138575 5.4740429 -0.39978668 0.97222024
-4.1323924 5.6877341 -0.3997052 0.97222584
-3.9877343 5.7891793 -0.3996633 0.97222871
-3.9144726 5.8385253 -0.39964211 0.97223014
-3.8405859 5.8869333 -0.39962074 0.97223163
-3.7661035 5.9344139 -0.39959913 0.97223312
-3.6153905 6.0265136 -0.39955553 0.9722361
-3.4624219 6.1147947 -0.39951128 0.97223914
-3.3851073 6.1574802 -0.39948893 0.97224069
-3.2289355 6.239902 -0.39944378 0.97224373
-3.1500878 6.2796288 -0.39942095 0.97224528
-3.0707617 6.3183494 -0.39939803 0.97224689
-2.990957 6.3560643 -0.3993749 0.97224849
-2.9106543 6.3927732 -0.39935172 0.9722501
-2.8299413 6.4284568 -0.39932838 0.97225171
-2.7487695 6.4631639 -0.39930493 0.9722532
-2.667207 6.4967871 -0.39928129 0.97225487
-2.585166 6.5293941 -0.3992576 0.9722566
-1.3880078 4.2718067 -0.2553668 0.98216534
-1.323125 4.2532716 -0.25324467 0.98231226
-1.2675292 4.2626853 -0.25283656 0.98234046
-1.2568847 4.429873 -0.26179475 0.98172045
-1.2316699 4.5585251 -0.26847076 0.98125941
-1.7453809 6.7977929 -0.39901489 0.97227317
-1.4012792 6.875195 -0.39891547 0.97227997
-1.3147168 6.8918161 -0.39889044 0.97228169
-1.1409374 6.9218163 -0.39884025 0.97228509
-0.96650386 6.947412 -0.39878988 0.97228861
-0.79150391 6.9686522 -0.39873934 0.97229195
-0.7038281 6.9775681 -0.39871401 0.97229385
-0.61606443 6.9854198 -0.39868864 0.97229558
-0.26421875 7.0057616 -0.39858711 0.97230256
0 7.0094237 -0.39851081 0.97230768
0.088066407 7.0083981 -0.39848536 0.97230953
0.17611328 7.0063086 -0.39845997 0.9723112
0.26414061 7.0030956 -0.39843455 0.97231293
0.703125 6.9704685 -0.39830786 0.97232163
0.96515626 6.937705 -0.39823225 0.97232682
1.0521874 6.9245896 -0.39820713 0.97232854
1.4844531 6.8427243 -0.39808241 0.97233701
1.6557422 6.8024216 -0.39803302 0.9723404
1.7409766 6.780654 -0.39800841 0.97234207
1.825918 6.7578125 -0.39798394 0.97234386
1.9105859 6.7339158 -0.3979595 0.97234553
1.9949023 6.7089548 -0.39793521 0.97234726
2.1626368 6.6559277 -0.39788684 0.97235042
2.3289452 6.5986719 -0.39783889 0.97235376
2.5755076 6.5050387 -0.39776778 0.97235864
2.656914 6.471787 -0.39774436 0.97236019
2.7378905 6.4375095 -0.39772102 0.9723618
2.9780273 6.3286328 -0.39765182 0.97236657
3.0571485 6.2903614 -0.39762899 0.97236812
3.1357617 6.2511034 -0.39760634 0.97236967
3.2138867 6.2108297 -0.39758384 0.97237128
3.2915235 6.1696286 -0.39756149 0.97237265
3.3685546 6.1274118 -0.39753929 0.97237438
3.8192968 5.8543358 -0.39740944 0.97238332
3.9648438 5.755918 -0.39736754 0.972386
4.0366211 5.7053514 -0.39734688 0.97238749
4.1077733 5.6538572 -0.39732638 0.97238898
4.1782813 5.6015134 -0.39730605 0.97239035
4.3858008 5.4392481 -0.39724636 0.97239435
4.5870314 5.2693162 -0.39718845 0.97239828
4.7175388 5.1518846 -0.39715087 0.9724009
4.845078 5.0312304 -0.39711422 0.97240347
4.9076953 4.9697461 -0.39709616 0.9724046
4.9695311 4.9074512 -0.39707839 0.97240585
5.0908203 4.7805858 -0.39704353 0.97240835
5.1502733 4.7160449 -0.39702645 0.97240949
5.3236914 4.5180173 -0.39697653 0.97241288
5.3798242 4.4505763 -0.39696044 0.97241402
5.4351368 4.3824511 -0.39694458 0.97241503
1.2579687 0.91395503 -0.088401712 0.99378961
1.258086 0.89011717 -0.087619588 0.99384451
1.2585547 0.82106441 -0.085432433 0.99399757
1.2587891 0.77684569 -0.084098205 0.99409115
1.2590625 0.73395509 -0.082856104 0.99417812
1.3307421 0.70996094 -0.085750923 0.99397534
1.4608008 0.70995116 -0.092340007 0.99351388
1.5087109 0.70995116 -0.094798662 0.99334186
1.6127343 0.70994139 -0.10018032 0.99296516
1.7292968 0.70994139 -0.10628105 0.99253851
1.7931249 0.70994139 -0.10964576 0.99230313
2.0240624 0.68588865 -0.12150303 0.99147427
2.0240819 0.65766603 -0.12099781 0.9915095
8.4185152 2.5032616 -0.49933618 0.96542394
8.4491987 2.3972266 -0.49932745 0.96542436
8.4785156 2.2908399 -0.49931911 0.96542495
8.506465 2.1840723 -0.49931112 0.96542561
8.5584373 1.9695605 -0.49929637 0.9654265
8.6461325 1.5369922 -0.49927148 0.96542829
8.6646872 1.4282031 -0.49926627 0.96542859
8.6818752 1.3191894 -0.49926144 0.96542889
8.7472658 0.77142578 -0.49924311 0.96543008
8.7562103 0.66144532 -0.49924067 0.96543032
8.7637892 0.55134767 -0.49923858 0.9654305
8.7748432 0.33094725 -0.49923563 0.96543062
8.7803516 0.11033203 -0.49923426 0.96543074
8.7803516 -0.11035156 -0.4992345 0.96543074
8.7782812 -0.22067383 -0.49923521 0.96543074
8.7748432 -0.33097655 -0.49923638 0.96543062
8.7472849 -0.77145505 -0.49924475 0.96543002
8.7369528 -0.88131833 -0.49924788 0.96542978
8.6819143 -1.3192383 -0.49926421 0.96542871
8.6462107 -1.5370409 -0.49927473 0.96542794
8.6263275 -1.6455761 -0.4992806 0.96542752
8.5065823 -2.1841211 -0.49931574 0.96542513
8.4785738 -2.2908885 -0.49932393 0.96542466
8.449297 -2.3972948 -0.49933252 0.96542394
8.4186134 -2.5033104 -0.49934149 0.96542352
8.3866796 -2.6089647 -0.49935082 0.96542275
2.0240819 -0.68589842 -0.12150326 0.99147421
2.0240624 -0.71438473 -0.12203208 0.99143726
1.8611132 -0.70996094 -0.11324818 0.99205118
1.6692773 -0.70995116 -0.10313171 0.99275869
1.6127343 -0.70995116 -0.10017937 0.99296516
1.4152734 -0.70994139 -0.090018995 0.99367642
1.2913867 -0.70994139 -0.08378353 0.99411321
1.2591406 -0.71296871 -0.08226753 0.99421948
1.2590234 -0.73395509 -0.082856022 0.99417824
1.2586719 -0.79878902 -0.084753416 0.9940452
1.2585156 -0.8210547 -0.085432664 0.99399775
1.2583984 -0.84369141 -0.086135939 0.9939484
1.2582421 -0.86670899 -0.086864851 0.99389738
5.5763083 -4.2695899 -0.39929041 0.97225422
5.3259764 -4.51999 -0.39714661 0.97240114
5.2689843 -4.5867381 -0.39716315 0.97240001
5.0930076 -4.7826757 -0.39721414 0.97239655
4.9716601 -4.9095898 -0.39724934 0.97239411
4.7837696 -5.0941992 -0.39730376 0.97239023
4.7195702 -5.1541405 -0.39732239 0.9723891
4.6546483 -5.2132812 -0.39734116 0.97238785
4.5225978 -5.3291407 -0.3973794 0.97238517
4.4555078 -5.3858008 -0.39739883 0.97238386
4.3876953 -5.4416208 -0.39741847 0.97238255
4.3191795 -5.4966211 -0.39743832 0.97238111
4.10957 -5.6563478 -0.397499 0.972377
4.0383787 -5.7078419 -0.39751959 0.97237557
3.9665625 -5.7584472 -0.39754039 0.97237408
3.8940625 -5.8081346 -0.39756137 0.97237277
3.6729882 -5.9517479 -0.39762536 0.9723683
3.4466209 -6.0869627 -0.39769083 0.97236377
3.2929296 -6.1723242 -0.39773527 0.97236085
3.2152734 -6.2135644 -0.39775774 0.9723593
3.1371093 -6.253818 -0.39778036 0.97235787
2.9793358 -6.3314352 -0.39782599 0.97235453
2.8997071 -6.3687205 -0.39784902 0.97235304
2.8196094 -6.4050388 -0.39787218 0.97235143
2.739043 -6.4403319 -0.39789546 0.97234988
2.6580663 -6.4746385 -0.39791888 0.97234821
2.5766406 -6.5079198 -0.39794242 0.9723466
2.4948242 -6.5401659 -0.39796606 0.97234499
2.4125977 -6.5713768 -0.39798987 0.97234339
2.3299999 -6.601572 -0.39801374 0.97234172
2.0798829 -6.6859179 -0.39808604 0.97233677
1.9114257 -6.7369137 -0.39813471 0.97233337
1.6565039 -6.8054295 -0.39820838 0.97232831
1.5708984 -6.8261228 -0.39823309 0.9723267
1.399043 -6.8642969 -0.39828277 0.9723233
1.3127735 -6.8817577 -0.39830771 0.97232163
1.2262499 -6.8981638 -0.39833272 0.97231984
1.0526562 -6.9276562 -0.39838281 0.97231644
0.96558589 -6.9407811 -0.398408 0.97231472
0.87833983 -6.9528122 -0.39843318 0.97231293
0.79095703 -6.9637303 -0.39845842 0.97231126
0.61578125 -6.9823141 -0.39850903 0.97230774
0.1761914 -7.0094333 -0.39863592 0.97229904
0.088124998 -7.0115232 -0.39866138 0.97229737
0 -7.0125194 -0.39868683 0.97229564
-0.088134766 -7.0124216 -0.39871228 0.97229385
-0.17625 -7.0112009 -0.3987377 0.97229213
-0.26434571 -7.0088863 -0.39876312 0.9722904
-0.3524414 -7.0054493 -0.39878857 0.97228867
-0.44045898 -7.0009179 -0.39881396 0.97228688
-0.61632812 -6.9885254 -0.39886475 0.97228342
-0.70415038 -6.9806833 -0.39889008 0.97228163
-0.8794629 -6.9616599 -0.39894065 0.97227824
-0.96691406 -6.9505076 -0.3989659 0.97227645
-1.0542773 -6.938242 -0.39899108 0.97227472
-1.2284472 -6.9104295 -0.39904135 0.97227126
-1.3152539 -6.8948631 -0.39906639 0.97226965
-1.4019042 -6.8782325 -0.39909136 0.97226787
-1.6604589 -6.8217773 -0.39916596 0.9722628
-1.7461621 -6.8008103 -0.39919066 0.97226101
-1.916748 -6.7556052 -0.39923987 0.97225767
-2.0861425 -6.7061133 -0.39928874 0.9722544
-2.254287 -6.6523924 -0.39933723 0.97225106
-2.3378613 -6.6239352 -0.39936128 0.97224939
-2.4210448 -6.5944238 -0.3993853 0.97224778
-2.5038867 -6.5638866 -0.39940917 0.97224605
-2.7499804 -6.4660153 -0.39948013 0.97224116
-2.8311913 -6.4313083 -0.39950356 0.97223961
-2.9119432 -6.3956056 -0.3995268 0.972238
-3.2303514 -6.2426367 -0.39961857 0.97223175
-3.3865819 -6.1601758 -0.39966357 0.97222871
-3.8422558 -5.8895211 -0.39979485 0.97221965
-4.0621386 -5.741406 -0.39985815 0.97221541
-4.1341991 -5.6902342 -0.39987892 0.97221386
-4.2763085 -5.5851073 -0.39991981 0.97221112
-4.5524511 -5.3642673 -0.39999929 0.97220558
-4.6196971 -5.3068652 -0.40001863 0.97220439
-4.8171191 -5.1297169 -0.40007544 0.97220045
-4.9449706 -5.0075097 -0.40011221 0.97219789
-5.1308885 -4.818213 -0.40016571 0.97219425
-1.0280957 -0.91792965 -0.078359447 0.99449331
-1.0284375 -0.87279296 -0.076687999 0.99461037
-1.0285938 -0.85091794 -0.075896449 0.99466592
-1.0289062 -0.80850583 -0.074395485 0.994771
-1.0290527 -0.78790039 -0.073683888 0.99482089
-1.0291699 -0.76768553 -0.072997056 0.99486911
-1.0294434 -0.72834957 -0.071694374 0.99496037
-1.0306543 -0.70995116 -0.071153067 0.9949984
-1.0882324 -0.70995116 -0.073871307 0.99480778
-1.1187011 -0.70996094 -0.075328141 0.99470562
-1.1504004 -0.70995116 -0.076856233 0.99459857
-1.2178515 -0.70994139 -0.080144994 0.99436814
-1.2538183 -0.70994139 -0.081917264 0.99424386
-1.4152734 -0.70995116 -0.09001907 0.99367642
-1.5087011 -0.70995116 -0.094797857 0.99334192
-1.6692969 -0.70996094 -0.10313179 0.99275863
-1.7293359 -0.70996094 -0.10628013 0.99253833
-1.7885938 -0.65666014 -0.10832432 0.99239546
-8.5322361 -2.4208202 -0.50423491 0.96509057
-8.5621481 -2.3134668 -0.50424337 0.96508986
-8.5906734 -2.2057128 -0.50425154 0.96508938
-8.643652 -1.9891992 -0.50426656 0.96508831
-8.712822 -1.6620605 -0.50428623 0.965087
-8.7331057 -1.5524609 -0.50429195 0.96508664
-8.7520018 -1.4426172 -0.50429726 0.96508634
-8.8004103 -1.1117578 -0.50431091 0.96508539
-8.8256836 -0.8902539 -0.50431794 0.96508491
-8.8453808 -0.66819334 -0.50432342 0.96508449
-8.8531055 -0.55699217 -0.50432557 0.96508437
-8.8699799 -0.11146484 -0.50432992 0.96508414
-8.4545021 0.10625 -0.50420976 0.96668679
-8.4524994 0.2124707 -0.50420904 0.96668679
-8.4491405 0.31867188 -0.50420797 0.96668684
-8.4444237 0.42481443 -0.50420654 0.96668702
-8.4223242 0.74277341 -0.5041998 0.96668738
-8.4008694 0.95417964 -0.50419337 0.96668786
-8.3587494 1.2700976 -0.50418085 0.96668863
-8.3240137 1.4797363 -0.50417066 0.96668929
-8.2840233 1.6884081 -0.50415885 0.96669
-8.2620306 1.7923437 -0.50415242 0.96669048
-8.2141695 1.9993554 -0.50413835 0.96669132
-8.188242 2.1023827 -0.50413078 0.96669191
-8.1610546 2.2050586 -0.50412279 0.96669245
-8.0717478 2.5109668 -0.50409669 0.96669406
-8.0057716 2.71292 -0.50407743 0.96669537
-1.789541 0.68262696 -0.11421688 0.99235451
-1.7896386 0.70856446 -0.11478195 0.99231678
-1.7293261 0.70994139 -0.11147708 0.9925372
-1.6693066 0.70994139 -0.10817478 0.99275744
-1.4608008 0.70994139 -0.096854553 0.99351287
-1.253828 0.70994139 -0.085923158 0.99424291
-1.1834277 0.70995116 -0.08229652 0.99448526
-1.1187011 0.70995116 -0.079011798 0.99470478
-1.0882226 0.70995116 -0.077483632 0.994807
-1.058916 0.70994139 -0.076025352 0.99490446
-1.0287499 0.72784179 -0.075149417 0.99496299
-1.028623 0.74732423 -0.075819664 0.99491817
-1.0281836 0.80792969 -0.077978969 0.99477386
-1.027871 0.85033202 -0.079551235 0.99466872
-1.0277051 0.87217772 -0.080380365 0.99461335
-1.0275292 0.89449215 -0.081239849 0.99455589
-1.0271875 0.94056636 -0.083054386 0.9944346
-4.8887501 4.5908494 -0.3999247 0.97348464
-4.7714257 4.7118359 -0.39989069 0.9734869
-4.7116599 4.7712207 -0.39987338 0.97348797
-4.5898438 4.8876953 -0.39983809 0.9734903
-4.4651661 5.0010448 -0.39980197 0.97349268
-4.4017773 5.0565138 -0.39978361 0.97349387
-4.3376756 5.1111817 -0.39976504 0.97349513
-4.2729197 5.1650486 -0.39974633 0.97349632
-4.141367 5.2703123 -0.39970821 0.97349876
-3.8705957 5.470654 -0.3996298 0.97350389
-3.8013279 5.5185938 -0.39960977 0.9735052
-3.7315037 5.5656247 -0.39958957 0.97350657
-3.6610742 5.6117868 -0.39956918 0.97350794
-3.5900781 5.6570606 -0.39954865 0.97350931
-3.5185449 5.7014356 -0.39952797 0.97351062
-3.3737988 5.7874317 -0.39948606 0.97351342
-3.3006248 5.8290915 -0.39946491 0.97351468
-3.226953 5.8697753 -0.39944357 0.97351617
-2.9273045 6.0232029 -0.3993569 0.97352177
-2.6203907 6.1612887 -0.39926818 0.97352767
-2.4644628 6.2244921 -0.39922309 0.97353059
-1.5606836 4.2510252 -0.27004662 0.98201764
-1.4473926 4.2712302 -0.26893497 0.98209101
-1.3875879 4.2705564 -0.26777312 0.98216766
-1.2669824 4.2608886 -0.26508677 0.98234504
-1.2556055 4.4254785 -0.27432221 0.98173553
-1.2309473 4.5557518 -0.28141803 0.98126763
-1.5003711 6.5195508 -0.39894447 0.97354871
-1.4182324 6.5375094 -0.39892074 0.97355026
-1.3359082 6.5544138 -0.39889693 0.97355181
-1.2533495 6.5702734 -0.39887309 0.97355348
-1.170625 6.5851073 -0.39884916 0.97355503
-1.0877246 6.5988965 -0.39882526 0.97355664
-1.0046582 6.61166 -0.39880127 0.97355813
-0.67101562 6.6521778 -0.39870492 0.97356445
-0.58733398 6.6596775 -0.39868072 0.97356606
-0.50357419 6.6661425 -0.39865652 0.97356755
-0.41974607 6.6715136 -0.39863235 0.97356927
-0.25193357 6.6791406 -0.39858389 0.97357243
-0.16794921 6.6813965 -0.39855963 0.97357392
-0.083984375 6.6825585 -0.39853537 0.97357559
0 6.6826854 -0.39851114 0.97357714
0.083984375 6.6817575 -0.39848694 0.97357869
0.25183594 6.6767187 -0.39843845 0.97358191
0.33568358 6.6726074 -0.39841425 0.97358352
0.41949219 6.6674705 -0.39839002 0.97358507
0.50320309 6.6612692 -0.39836589 0.97358662
0.83707029 6.6259766 -0.39826956 0.97359288
0.92019528 6.6145411 -0.39824557 0.97359449
1.0032032 6.6020408 -0.39822161 0.9735961
1.0860156 6.5885253 -0.39819774 0.97359765
1.3333203 6.541738 -0.39812636 0.97360229
1.4153124 6.5240722 -0.3981027 0.9736039
1.5786328 6.485693 -0.39805564 0.97360694
1.8216406 6.4204493 -0.39798552 0.97361153
1.9821484 6.3718944 -0.39793926 0.97361463
2.0619922 6.3461132 -0.39791626 0.97361606
2.2205467 6.2915821 -0.39787051 0.97361904
2.2992969 6.2628026 -0.3978478 0.97362059
2.3776953 6.2330856 -0.39782524 0.97362196
2.4557226 6.202373 -0.39780274 0.97362339
2.6872852 6.1043749 -0.39773598 0.97362781
2.8394921 6.0342479 -0.39769211 0.97363073
2.9149609 5.9977636 -0.39767036 0.9736321
3.138418 5.8826756 -0.39760596 0.97363639
3.2119141 5.8424706 -0.3975848 0.97363776
3.4293163 5.7163572 -0.39752218 0.97364181
3.5715039 5.6277637 -0.39748123 0.97364461
3.6417577 5.5821676 -0.397461 0.97364593
3.7114453 5.5357032 -0.39744094 0.97364712
3.7805078 5.4883494 -0.39742103 0.97364849
4.0506835 5.2904391 -0.39734325 0.97365355
4.181953 5.1864843 -0.39730543 0.97365606
4.2466016 5.1332812 -0.39728683 0.97365725
4.373867 5.0244532 -0.39725021 0.97365969
4.4364452 4.9688673 -0.3972322 0.97366095
4.9110546 4.4970117 -0.39709571 0.97366977
4.9669919 4.4347558 -0.39707962 0.97367078
5.022109 4.3718066 -0.39706379 0.97367185
5.0764451 4.3081737 -0.39704818 0.97367293
1.256914 0.93755859 -0.093510203 0.99373627
1.2574219 0.8661328 -0.091051444 0.99390042
1.2575586 0.84313476 -0.090288043 0.99395144
1.2578515 0.7982617 -0.088840023 0.99404812
1.2581249 0.75475585 -0.08749111 0.99413824
1.2582617 0.73350585 -0.086851992 0.99418086
1.3307421 0.70996094 -0.089943424 0.99397439
1.4152734 0.70994139 -0.094420888 0.99367541
1.5592773 0.70995116 -0.10217014 0.99315816
1.7292968 0.70994139 -0.11147735 0.99253726
1.9337499 0.70995116 -0.12284252 0.99177951
2.0239844 0.71435547 -0.12799439 0.99143624
2.0239844 0.68585938 -0.12743953 0.99147326
8.0279102 2.3871093 -0.49944907 0.96699619
8.1117964 2.0827441 -0.4994252 0.96699774
8.1613283 1.8781836 -0.49941108 0.9669987
8.205781 1.6724511 -0.4993985 0.96699935
8.2260542 1.5691797 -0.49939278 0.96699977
8.2626753 1.3619336 -0.49938238 0.9670006
8.2790823 1.2579882 -0.49937779 0.96700078
8.3316011 0.84039062 -0.49936303 0.96700168
8.341445 0.73562497 -0.49936029 0.96700191
8.3631639 0.42072263 -0.49935439 0.96700221
8.3677731 0.31559569 -0.49935317 0.96700233
8.3710155 0.21041992 -0.49935234 0.96700257
8.3736715 -9.7656248e-06 -0.4993518 0.96700251
8.3710546 -0.21043944 -0.49935278 0.96700239
8.3678122 -0.31562498 -0.49935383 0.96700215
8.3500385 -0.63080078 -0.49935928 0.96700191
8.3316212 -0.84043944 -0.49936485 0.96700162
8.3204689 -0.94506836 -0.49936816 0.96700138
8.3080072 -1.0495703 -0.49937186 0.96700108
8.2627344 -1.3619823 -0.4993853 0.96700031
8.2260933 -1.5692383 -0.49939609 0.96699953
8.0280075 -2.3871875 -0.49945414 0.96699578
7.997539 -2.4879198 -0.49946302 0.96699512
2.0239844 -0.68587887 -0.12743957 0.9914732
1.9337305 -0.70995116 -0.12284145 0.99177957
1.7292968 -0.70995116 -0.11147656 0.99253726
1.6127343 -0.70995116 -0.10507751 0.99296403
1.5592968 -0.70995116 -0.10216931 0.9931581
1.5087109 -0.70994139 -0.099432945 0.99334079
1.4607812 -0.70995116 -0.096854128 0.99351293
1.4152734 -0.70994139 -0.094420277 0.99367541
1.2583593 -0.71254879 -0.086235769 0.9942221
1.2581249 -0.75475585 -0.087491184 0.99413824
1.2579882 -0.77634764 -0.088153534 0.99409395
1.2578515 -0.7982617 -0.088840023 0.99404812
1.2572656 -0.88953125 -0.091842346 0.99384755
5.5704293 -4.2650976 -0.41837302 0.97227865
5.2887301 -4.2644434 -0.40513882 0.97314364
5.0242772 -4.3737206 -0.39723358 0.97366059
4.9766407 -4.4433985 -0.39785209 0.97362024
4.8564453 -4.5605078 -0.39728221 0.97365755
4.7989454 -4.6213865 -0.39729887 0.97365642
4.7407031 -4.6815233 -0.39731574 0.97365528
4.6816797 -4.7409372 -0.39733282 0.97365421
4.621953 -4.7995896 -0.39735016 0.97365308
4.5614843 -4.8575096 -0.39736769 0.97365189
4.375742 -5.02666 -0.39742148 0.97364843
4.3124609 -5.0814743 -0.39743981 0.97364718
4.248457 -5.1355076 -0.39745834 0.97364593
4.1837497 -5.1887498 -0.39747709 0.97364473
4.0524216 -5.2927637 -0.39751509 0.97364223
3.9185545 -5.3934278 -0.39755386 0.97363973
3.8506444 -5.4425292 -0.3975735 0.97363842
3.7130468 -5.5381346 -0.39761332 0.97363573
3.4308007 -5.7188478 -0.397695 0.97363049
3.2133203 -5.8450098 -0.39775795 0.97362643
2.9912109 -5.9629393 -0.39782217 0.9736222
2.9162109 -6.0004101 -0.39784384 0.97362065
2.6116211 -6.1407032 -0.39793196 0.97361493
2.534375 -6.1733689 -0.39795429 0.97361356
2.3787498 -6.2358103 -0.39799926 0.97361058
2.3003516 -6.2655663 -0.39802197 0.97360909
1.9830663 -6.3746972 -0.39811367 0.97360313
1.9029101 -6.3994823 -0.39813682 0.97360164
1.7416797 -6.4460254 -0.39818341 0.9735986
1.5793359 -6.4885349 -0.39823031 0.9735955
1.4159765 -6.5269628 -0.39827755 0.97359234
1.3339062 -6.5446286 -0.39830124 0.97359079
1.2516406 -6.5612497 -0.398325 0.9735893
1.0864648 -6.5914354 -0.39837271 0.97358614
0.92058593 -6.6174512 -0.39842063 0.97358298
0.83742183 -6.6288962 -0.39844465 0.97358143
0.67064452 -6.6486425 -0.39849281 0.97357833
0.58708984 -6.6569629 -0.39851695 0.97357666
0.41964844 -6.6703906 -0.39856529 0.97357363
0.25195312 -6.6796775 -0.39861372 0.97357035
0.16796875 -6.6827245 -0.39863798 0.97356874
0.084003903 -6.6846871 -0.39866221 0.97356725
-0.084013671 -6.6855173 -0.39871073 0.97356403
-0.16804688 -6.6843357 -0.39873496 0.97356248
-0.58758789 -6.6626172 -0.39885607 0.97355455
-0.6712988 -6.6551075 -0.39888021 0.97355294
-0.83844727 -6.6369433 -0.39892843 0.97354978
-1.1711328 -6.588027 -0.39902446 0.97354347
-1.4188573 -6.5403709 -0.39909592 0.97353882
-1.5010058 -6.5224118 -0.39911965 0.97353727
-1.5829785 -6.503408 -0.39914325 0.97353578
-1.6646582 -6.4833984 -0.39916682 0.97353417
-1.746123 -6.4623437 -0.39919028 0.97353262
-2.0690527 -6.3679395 -0.39928344 0.9735266
-2.3080077 -6.2865133 -0.39935234 0.97352207
-2.4655371 -6.2272363 -0.39939773 0.97351909
-2.6215527 -6.1640134 -0.3994427 0.97351611
-2.6989453 -6.1309276 -0.39946502 0.97351468
-2.775918 -6.0968456 -0.39948723 0.97351331
-2.8524706 -6.0618458 -0.39950928 0.97351176
-2.9285839 -6.0258298 -0.39953122 0.97351038
-3.0042479 -5.9888864 -0.39955297 0.97350889
-3.2283397 -5.872334 -0.39961761 0.97350478
-3.3752832 -5.7899899 -0.3996599 0.97350186
-3.4479296 -5.7473927 -0.39968085 0.97350061
-3.5200682 -5.7039256 -0.3997016 0.97349918
-3.5916307 -5.6595216 -0.39972225 0.97349793
-3.6626854 -5.6142383 -0.39974269 0.9734965
-3.733125 -5.5680466 -0.39976296 0.97349524
-3.9409082 -5.4242086 -0.39982283 0.97349131
-4.0089841 -5.3745313 -0.39984241 0.97348994
-4.2747459 -5.167285 -0.39991888 0.97348505
-4.3395505 -5.1134176 -0.39993757 0.97348374
-4.4036622 -5.0587111 -0.39995605 0.97348261
-4.591826 -4.8897948 -0.40001014 0.97347903
-4.7136621 -4.7732911 -0.40004519 0.97347671
-4.7734962 -4.7138963 -0.40006241 0.97347552
-4.8908496 -4.5928025 -0.40009615 0.97347343
-1.0271679 -0.94056636 -0.083054312 0.99443465
-1.0273535 -0.91727537 -0.082130507 0.99449635
-1.0275292 -0.89446288 -0.0812397 0.99455595
-1.0277051 -0.87217772 -0.080380209 0.99461335
-1.0278614 -0.85032225 -0.079551086 0.99466878
-1.0283203 -0.78736329 -0.07723362 0.99482369
-1.028457 -0.76715821 -0.076514125 0.9948718
-1.028623 -0.74734372 -0.075819738 0.99491811
-1.0287597 -0.72787106 -0.075149417 0.99496293
-1.0882128 -0.70994139 -0.07748314 0.994807
-1.1504004 -0.70995116 -0.080613934 0.99459773
-1.2178515 -0.70994139 -0.084063604 0.99436724
-1.2913965 -0.70994139 -0.087879792 0.99411225
-1.3307323 -0.70995116 -0.089942627 0.99397445
-1.3719823 -0.70996094 -0.092119977 0.99382895
-1.4607812 -0.70996094 -0.096854053 0.99351293
-1.5592871 -0.70995116 -0.10216965 0.9931581
-1.6127343 -0.70996094 -0.10507782 0.99296397
-1.6692969 -0.70996094 -0.1081742 0.99275744
-1.7293359 -0.70996094 -0.11147629 0.99253714
-1.7895508 -0.68263668 -0.11421692 0.99235445
-8.0058689 -2.7129588 -0.50408322 0.96669495
-8.0394917 -2.6121972 -0.50409287 0.9666943
-8.0718164 -2.5109961 -0.50410211 0.96669376
-8.1028805 -2.4094336 -0.50411093 0.96669316
-8.1326466 -2.307451 -0.5041194 0.96669263
-8.1883297 -2.1024218 -0.50413525 0.96669155
-8.2142086 -1.9993848 -0.50414264 0.96669114
-8.2621088 -1.7923731 -0.50415623 0.96669018
-8.3047361 -1.5842187 -0.50416833 0.96668941
-8.3240623 -1.4797461 -0.50417382 0.96668911
-8.3420897 -1.3750585 -0.50417888 0.96668875
-8.3741598 -1.165 -0.50418794 0.96668816
-8.3881836 -1.0596679 -0.50419182 0.96668798
-8.4122944 -0.84855467 -0.50419861 0.9666875
-8.4310646 -0.63689452 -0.5042038 0.96668708
-8.4444723 -0.42484373 -0.50420743 0.96668684
-8.452529 -0.21249023 -0.50420952 0.96668667
-8.0767384 -9.7656248e-06 -0.5041008 0.96814847
-8.0741701 0.20295899 -0.50409985 0.96814853
-8.066474 0.40582031 -0.5040974 0.96814871
-8.045351 0.70953125 -0.50409096 0.96814913
-8.0357618 0.81056637 -0.5040881 0.96814924
-7.9993067 1.112832 -0.50407732 0.96815002
-7.9514747 1.4135058 -0.50406313 0.96815079
-7.9330173 1.5132812 -0.50405771 0.96815109
-7.8922753 1.7121387 -0.50404572 0.96815193
-7.8700194 1.8111523 -0.50403923 0.9681524
-7.7958493 2.1063964 -0.50401747 0.96815366
-7.7686324 2.2041504 -0.50400954 0.96815419
-7.7401853 2.3015528 -0.5040012 0.96815473
-7.7105269 2.3985937 -0.5039925 0.96815526
-7.6142282 2.6873534 -0.50396442 0.96815699
-1.7903028 0.65729493 -0.11903351 0.99238569
-1.7904004 0.68295896 -0.11960075 0.99234957
-1.7905078 0.70889646 -0.12019257 0.99231178
-1.5592968 0.70994139 -0.1069342 0.99315697
-1.4608008 0.70994139 -0.10137092 0.9935118
-1.4152832 0.70994139 -0.098823622 0.99367434
-1.253828 0.70994139 -0.089929655 0.99424195
-1.1834277 0.70995116 -0.086134106 0.99448431
-1.15042 0.70995116 -0.084373437 0.99459672
-1.0882226 0.70995116 -0.081096686 0.99480611
-1.058916 0.70994139 -0.079570651 0.99490356
-1.0274707 0.80737305 -0.081558339 0.99477661
-1.0273046 0.82833982 -0.082365379 0.99472505
-1.0271289 0.84973633 -0.083201557 0.99467164
-1.0269824 0.87155271 -0.08406841 0.99461621
-1.0265918 0.91661131 -0.085897557 0.99449944
-1.0264355 0.93987304 -0.086863212 0.99443775
-4.6702247 4.3856053 -0.39986181 0.97465056
-4.6145411 4.443779 -0.39984569 0.97465158
-4.5581641 4.5012207 -0.39982936 0.97465259
-4.3847165 4.6692481 -0.39977911 0.97465575
-4.3255177 4.7237692 -0.39976195 0.97465682
-4.265625 4.7775388 -0.3997446 0.97465789
-4.0194821 4.984951 -0.39967331 0.9746623
-3.9563282 5.0348339 -0.39965501 0.9746635
-3.828203 5.1321874 -0.39961794 0.97466582
-3.6315331 5.2720509 -0.39956105 0.97466946
-3.2925196 5.4883299 -0.39946291 0.9746756
-3.2231348 5.5290136 -0.39944285 0.97467679
-3.1532421 5.568789 -0.39942259 0.9746781
-3.0828612 5.6076951 -0.39940226 0.97467929
-2.9406543 5.6828222 -0.39936113 0.97468185
-2.7966211 5.7543163 -0.3993195 0.97468454
-2.7239549 5.788691 -0.39929846 0.97468585
-2.6508398 5.8221383 -0.39927733 0.97468728
-2.5034668 5.8863087 -0.39923468 0.97468978
-2.2794433 5.9754977 -0.39916992 0.97469389
-1.3871679 4.2692966 -0.28017816 0.98216993
-1.3223535 4.250752 -0.2778475 0.98231679
-1.2664648 4.2591114 -0.27733085 0.9823494
-1.2301855 4.5529981 -0.29436532 0.98127574
-1.433457 6.2287889 -0.39892545 0.97470915
-1.3549902 6.2459474 -0.39890277 0.97471058
-1.2763379 6.2621188 -0.39888006 0.97471201
-1.1974902 6.2772946 -0.39885727 0.9747135
-1.118418 6.2914939 -0.39883444 0.97471488
-1.0392382 6.3046875 -0.39881155 0.97471631
-0.64110351 6.3556738 -0.39869657 0.97472352
-0.56117189 6.3628516 -0.39867347 0.97472501
-0.48113281 6.3690329 -0.39865035 0.97472644
-0.40103516 6.3742185 -0.39862722 0.97472781
0.16042969 6.3822069 -0.39846516 0.974738
0.24060546 6.3793163 -0.398442 0.97473943
0.32074219 6.3754101 -0.39841887 0.97474092
0.40080076 6.3705077 -0.39839575 0.97474235
0.5607031 6.3576856 -0.39834961 0.97474527
0.72021484 6.3408594 -0.3983036 0.97474813
0.87921876 6.3200192 -0.3982577 0.97475106
0.95851558 6.308125 -0.39823484 0.97475237
1.1166016 6.2813087 -0.39818922 0.97475535
1.3523047 6.2337012 -0.39812121 0.97475958
1.7406055 6.1347656 -0.39800924 0.97476655
1.8174218 6.1120505 -0.3979871 0.97476804
1.9702734 6.0637889 -0.39794302 0.97477067
2.1217577 6.0116992 -0.3978993 0.97477347
2.1970117 5.9842381 -0.39787763 0.97477484
2.2719531 5.9558301 -0.39785606 0.97477615
2.3464453 5.9264941 -0.39783454 0.97477752
2.420625 5.8962302 -0.39781317 0.97477883
2.5677538 5.8329196 -0.39777076 0.97478145
2.7132421 5.7659278 -0.39772883 0.97478414
2.7853515 5.7310839 -0.39770806 0.97478539
2.856992 5.6953321 -0.39768744 0.9747867
2.9281836 5.6586914 -0.39766693 0.97478795
2.9989061 5.621172 -0.39764655 0.9747892
3.06916 5.5827637 -0.39762631 0.97479045
3.208164 5.5033102 -0.39758626 0.97479296
3.3451366 5.4204102 -0.3975468 0.9747954
3.6779687 5.1984081 -0.39745092 0.97480154
3.8070898 5.1038771 -0.39741379 0.97480381
3.933789 5.0061035 -0.39737731 0.97480613
4.1191015 4.8536425 -0.397324 0.97480953
4.2394137 4.7481833 -0.39728934 0.97481167
4.4148045 4.5844531 -0.39723888 0.97481477
4.5282421 4.4716797 -0.39720625 0.97481686
4.5838671 4.414248 -0.39719024 0.97481793
4.6388474 4.3561325 -0.39717445 0.97481871
4.6930079 4.2973337 -0.39715889 0.97481978
4.7464452 4.2378612 -0.39714351 0.97482073
4.7991405 4.1777048 -0.39712837 0.97482175
4.9022655 4.0554786 -0.39709872 0.97482353
4.9723825 4.0092969 -0.39866346 0.97472554
5.0022655 3.9307225 -0.39706999 0.97482532
5.0510936 3.8674121 -0.39705595 0.97482622
1.2560937 0.9369238 -0.097803913 0.99373937
1.2562695 0.91271484 -0.096916921 0.99379593
1.2571875 0.77584958 -0.092205048 0.99409676
1.2573438 0.75428706 -0.091512643 0.99414086
1.2914063 0.70994139 -0.091978222 0.99411118
1.4152734 0.70994139 -0.098823585 0.99367434
1.4608008 0.70995116 -0.10137115 0.9935118
1.5087109 0.70995116 -0.10407005 0.99333966
1.5592773 0.70995116 -0.10693432 0.99315703
1.6127343 0.70994139 -0.10997814 0.99296284
1.6692773 0.70994139 -0.11321903 0.99275637
1.8611327 0.70995116 -0.12432529 0.9920485
2.0239062 0.71431637 -0.13395789 0.99143511
2.0239062 0.65761715 -0.13282284 0.99150747
7.6997657 2.1846094 -0.49954402 0.96843201
7.7265234 2.0876563 -0.4995364 0.96843237
7.7520308 1.9903808 -0.49952915 0.96843278
7.8212109 1.6967187 -0.49950948 0.9684341
7.8612304 1.4995898 -0.49949813 0.96843469
7.8793554 1.4006737 -0.499493 0.96843511
7.9119139 1.2021874 -0.49948382 0.9684357
7.9715428 0.70301753 -0.49946716 0.96843666
7.9923043 -0.40210935 -0.49946234 0.9684369
7.9866405 -0.50248045 -0.49946406 0.96843684
7.9797263 -0.60282224 -0.49946615 0.96843672
7.9621286 -0.80314451 -0.49947146 0.96843642
7.9395504 -1.0030175 -0.49947822 0.96843594
7.911953 -1.2022461 -0.49948639 0.96843553
7.8613086 -1.4996387 -0.49950132 0.96843439
7.7994332 -1.7949317 -0.4995195 0.96843344
7.7764063 -1.8928223 -0.49952623 0.96843284
7.7520895 -1.9904101 -0.49953339 0.96843255
7.6427732 -2.3775682 -0.49956533 0.96843058
2.0239062 -0.71433592 -0.13395801 0.99143511
1.9337305 -0.70995116 -0.12856945 0.99177819
1.7931249 -0.70995116 -0.12036853 0.99230057
1.6692773 -0.70995116 -0.113218 0.99275631
1.5087109 -0.70994139 -0.10406955 0.99333972
1.4152734 -0.70994139 -0.098823048 0.99367434
1.3719921 -0.70994139 -0.096415363 0.99382794
1.2575781 -0.71208006 -0.090200342 0.99422473
1.256914 -0.81999999 -0.09366592 0.99400342
1.2566016 -0.86557615 -0.095234066 0.99390334
1.2564062 -0.88894528 -0.09606079 0.99385065
1.256289 -0.91272461 -0.09691681 0.99379587
5.56457 -4.2606153 -0.43742052 0.97230273
5.4217186 -4.2603612 -0.43036503 0.97274333
5.0191016 -4.2595701 -0.41086805 0.97396195
4.8928123 -4.2592578 -0.40487847 0.97433662
4.3589063 -4.641777 -0.39742595 0.97480297
4.3004298 -4.6963673 -0.39744288 0.97480196
4.24125 -4.7502637 -0.39746001 0.97480083
3.9979296 -4.9582324 -0.39753047 0.97479641
3.9354882 -5.0083103 -0.39754856 0.97479528
3.8087304 -5.1060934 -0.39758524 0.97479302
3.7444334 -5.153789 -0.39760387 0.97479188
3.6795311 -5.2006931 -0.39762267 0.97479069
3.5480468 -5.2920213 -0.3976607 0.97478825
3.4814453 -5.3364453 -0.39767995 0.97478706
3.3465624 -5.4227829 -0.39771903 0.97478461
3.2783203 -5.4646678 -0.39773875 0.97478342
2.8582225 -5.6978221 -0.39786029 0.97477585
2.7865429 -5.7335935 -0.397881 0.97477454
2.714453 -5.7684469 -0.39790186 0.97477323
2.6418555 -5.8024316 -0.39792284 0.97477186
2.4954882 -5.8675976 -0.39796519 0.97476923
2.421699 -5.898818 -0.39798653 0.97476786
2.0470898 -6.0408788 -0.3980948 0.97476107
1.9710937 -6.0664549 -0.3981168 0.97475976
1.7413281 -6.1374412 -0.3981832 0.9747557
1.6641797 -6.1592088 -0.39820549 0.97475421
1.3529297 -6.236455 -0.39829543 0.97474855
1.2744921 -6.2533102 -0.39831805 0.97474718
1.1959375 -6.2691793 -0.39834079 0.97474575
1.1170703 -6.2840819 -0.39836356 0.97474432
1.0381249 -6.2979784 -0.39838639 0.97474289
0.95894527 -6.3108888 -0.39840928 0.97474146
0.80015624 -6.3337302 -0.39845511 0.97473854
0.72052735 -6.3436522 -0.39847809 0.97473711
0.64078122 -6.3525681 -0.39850113 0.97473574
0 -6.3877735 -0.39868614 0.97472411
-0.24080078 -6.3843455 -0.39875564 0.97471976
-0.32101563 -6.3811817 -0.39877883 0.97471833
-0.4813281 -6.3718553 -0.39882508 0.97471535
-0.64139646 -6.3584666 -0.3988713 0.97471255
-0.80105466 -6.3410645 -0.39891738 0.97470969
-0.96027344 -6.3196678 -0.3989633 0.97470677
-1.1189258 -6.2942576 -0.39900908 0.97470391
-1.2769042 -6.2648826 -0.39905465 0.97470099
-1.4340918 -6.2315135 -0.39909998 0.97469819
-1.5123535 -6.2133493 -0.39912257 0.97469682
-2.2050097 -6.0059862 -0.3993223 0.9746843
-2.2804296 -5.9781151 -0.39934406 0.97468299
-2.3555176 -5.9493456 -0.39936569 0.9746815
-2.4302051 -5.91957 -0.39938724 0.97468024
-2.5784862 -5.8572755 -0.39942995 0.9746775
-2.7251368 -5.7912107 -0.39947224 0.974675
-2.7978418 -5.7568259 -0.39949316 0.97467363
-2.9419336 -5.6852927 -0.39953467 0.97467101
-3.0133104 -5.6481738 -0.39955527 0.97466964
-3.0841992 -5.6101365 -0.39957568 0.97466844
