# .PCD v0.7 - Point Cloud Data file format
VERSION 0.7
FIELDS x y z intensity
SIZE 4 4 4 4
TYPE F F F F
COUNT 1 1 1 1
WIDTH 1082
HEIGHT 1
VIEWPOINT 0 0 0 1 0 0 0
POINTS 1082
DATA ascii
-5.5519528 -7.4430957 -0.39897776 0.96350557
-5.6451173 -7.3728514 -0.39898375 0.96350509
-5.8287792 -7.228857 -0.39899555 0.96350408
-5.9192576 -7.1551657 -0.39900133 0.96350348
-6.0087891 -7.0803027 -0.39900705 0.963503
-6.097363 -7.0043359 -0.39901274 0.96350253
-6.4419236 -6.6894822 -0.3990348 0.96350068
-6.7702928 -6.3577051 -0.39905578 0.96349865
-1.0317285 -0.94474608 -0.060108032 0.99441475
-1.0318555 -0.92127925 -0.059436452 0.99447703
-1.0319824 -0.89834958 -0.0587891 0.99453706
-1.0322363 -0.85392576 -0.057561874 0.99465078
-1.0323437 -0.83240235 -0.056980245 0.99470466
-1.0324512 -0.81128907 -0.056419257 0.9947567
-1.0325586 -0.79058594 -0.055877913 0.99480689
-1.0882226 -0.70994139 -0.055828553 0.99481142
-1.1834277 -0.70995116 -0.059296302 0.99448997
-1.2913867 -0.70993161 -0.063319355 0.99411726
-1.3307226 -0.70994139 -0.064805947 0.99397957
-1.3719823 -0.70994139 -0.066374548 0.99383426
-1.4152832 -0.70994139 -0.068031766 0.99368078
-1.4607812 -0.70994139 -0.069785535 0.99351847
-1.5592968 -0.70993161 -0.073615342 0.99316394
-1.612705 -0.70994139 -0.075710788 0.99297011
-1.7844141 -0.70648438 -0.082462043 0.99234563
-11.026563 -3.8917089 -0.50241953 0.95426309
-11.120986 -3.6134081 -0.50242537 0.95426267
-11.165537 -3.4733887 -0.50242811 0.95426255
-11.249434 -3.1917479 -0.5024333 0.95426202
-11.326191 -2.9080663 -0.50243795 0.9542616
-11.361884 -2.7655272 -0.50244015 0.95426142
-11.4279 -2.4791503 -0.50244415 0.954261
-11.51332 -2.04667 -0.50244921 0.95426065
-11.56122 -1.756709 -0.50245202 0.95426023
-11.601728 -1.4656249 -0.50245434 0.95426017
-11.619277 -1.3197362 -0.50245529 0.95425999
-11.634941 -1.1736035 -0.50245619 0.95425999
-11.660801 -0.88085938 -0.50245756 0.95425987
-11.670938 -0.73424804 -0.50245804 0.95425993
-11.679248 -0.58753908 -0.50245845 0.95425987
-11.685722 -0.44073242 -0.50245869 0.95425981
-11.693115 -0.14692383 -0.50245887 0.95425981
-10.979921 0.27602538 -0.50241208 0.95697355
-10.969482 0.551875 -0.50241113 0.95697373
-10.940869 0.96491212 -0.5024088 0.95697379
-10.836924 1.7862792 -0.50240117 0.95697445
-10.813564 1.9223046 -0.5023995 0.95697469
-10.788554 2.0580468 -0.50239778 0.95697469
-10.602578 2.8647852 -0.50238478 0.95697588
-10.565693 2.9977734 -0.50238228 0.95697606
-10.486904 3.2623143 -0.50237685 0.95697653
-10.401494 3.5247753 -0.50237107 0.95697701
-10.356298 3.6551757 -0.50236797 0.95697737
-1.7852832 0.70685548 -0.087831989 0.99234092
-1.7292968 0.70994139 -0.085510559 0.99254268
-1.6692675 0.70996094 -0.082977138 0.99276286
-1.5592675 0.70995116 -0.078371197 0.99316317
-1.460791 0.70996094 -0.074294165 0.99351758
-1.4152539 0.70996094 -0.072427027 0.99368006
-1.3719531 0.70996094 -0.070662573 0.99383354
-1.2537988 0.70995116 -0.065908886 0.9942472
-1.2178417 0.70996094 -0.064482875 0.99437129
-1.1834179 0.70996094 -0.063127138 0.99448931
-1.1186913 0.70996094 -0.060607336 0.99470866
-1.0882324 0.70995116 -0.059435233 0.9948107
-1.0321777 0.73030269 -0.057837486 0.99494988
-1.0320703 0.74986327 -0.058355138 0.99490482
-1.0318652 0.7900781 -0.059446983 0.99480969
-1.0316211 0.83183593 -0.060619123 0.99470764
-1.0314746 0.85334957 -0.061237372 0.99465388
-1.0313672 0.87529296 -0.061877821 0.99459809
-1.03125 0.89772457 -0.062541693 0.99454021
-1.0309472 0.9440527 -0.063943744 0.99441826
-6.2806249 6.0482516 -0.39884967 0.96568847
-6.2040625 6.1266112 -0.3988446 0.96568888
-6.126533 6.2040133 -0.39883947 0.96568924
-5.9685254 6.3558493 -0.39882904 0.96569014
-5.8067188 6.5036325 -0.3988184 0.96569121
-5.4723239 6.7868066 -0.39879638 0.965693
-5.2124414 6.9879589 -0.39877924 0.96569437
-5.1241307 7.0528026 -0.39877346 0.96569484
-4.3899121 7.5305567 -0.39872524 0.9656989
-2.3509667 4.2763963 -0.22322565 0.98064917
-2.2810352 4.2756052 -0.22167131 0.98078269
-2.1377637 4.2616501 -0.21809122 0.98109001
-3.1261132 7.8956833 -0.38844484 0.96656805
-3.011416 7.8944235 -0.38649169 0.9667334
-2.8978515 7.8931637 -0.38461643 0.96689206
-2.3452148 7.8870602 -0.37638545 0.96758908
-2.2374315 7.885869 -0.37495655 0.96771002
-2.0241308 7.8835058 -0.37230721 0.96793449
-1.9186132 7.8823338 -0.37108439 0.96803808
-1.8137305 7.8811812 -0.36992788 0.96813613
-1.7095019 7.8800192 -0.36883673 0.96822864
-1.5027832 7.8777442 -0.36684525 0.96839738
-1.2981445 7.8754883 -0.36510527 0.9685449
-0.89400387 7.8710251 -0.3623538 0.96877813
-0.69398433 7.8688183 -0.36133525 0.9688645
-0.59433591 7.8677149 -0.36091319 0.96890032
-0.39570311 7.8655176 -0.36024192 0.96895725
-0.29662108 7.8644238 -0.35999367 0.9689784
-0.19769531 7.8633299 -0.35980067 0.96899468
-0.098828122 7.862236 -0.35966662 0.96900618
0 7.8611426 -0.35958731 0.9690128
0.19753906 7.8589549 -0.35960141 0.96901166
0.29636717 7.8578711 -0.35969278 0.9690038
0.59335935 7.8545799 -0.36031097 0.9689514
0.99167967 7.8501854 -0.36193988 0.96881324
1.2933984 7.8468552 -0.36377755 0.96865749
1.394707 7.8457227 -0.36450958 0.96859545
1.4964062 7.8446093 -0.36530256 0.96852827
1.7012891 7.8423438 -0.36707228 0.96837819
2.0126758 7.8389063 -0.37020048 0.96811295
2.1176758 7.8377538 -0.3713735 0.96801358
2.2233984 7.8365817 -0.3726131 0.96790856
2.4370704 7.834209 -0.37529433 0.96768141
2.6539257 7.8318067 -0.37825695 0.96743059
2.9860938 7.8281541 -0.38324642 0.96700805
3.0988672 7.8269043 -0.38506141 0.96685439
3.3276563 7.8243551 -0.38893005 0.96652716
3.4438281 7.8230758 -0.39098617 0.96635318
3.8000975 7.8191404 -0.39767066 0.96578795
4.0973048 7.6800094 -0.39817354 0.96574557
4.1934376 7.6278024 -0.39816737 0.96574605
4.2888865 7.5744138 -0.39816123 0.96574646
4.3836718 7.5197949 -0.39815512 0.965747
4.5710936 7.406992 -0.39814308 0.96574819
4.6637692 7.3488865 -0.39813712 0.96574855
4.8468356 7.2291503 -0.39812532 0.96574956
4.9371872 7.1675682 -0.39811954 0.9657501
5.0267968 7.1048336 -0.39811379 0.96575069
5.5472655 6.7054687 -0.39808035 0.96575332
5.8768358 6.4179296 -0.39805928 0.96575516
5.956953 6.3434863 -0.39805415 0.96575558
6.0360937 6.2680564 -0.39804909 0.96575606
6.1915622 6.1142383 -0.39803916 0.96575689
6.4906249 5.7951465 -0.39802006 0.96575856
6.9082813 5.2894044 -0.39799348 0.96576071
1.26125 0.94077146 -0.071973301 0.99371934
1.2614844 0.89252925 -0.070685498 0.99383146
1.2616016 0.86903316 -0.07007461 0.99388456
1.2617188 0.84592772 -0.06948524 0.99393588
1.2618359 0.82321286 -0.068916202 0.99398535
1.261914 0.80085933 -0.068367042 0.99403328
1.2621679 0.75717771 -0.067326166 0.9941237
1.2914063 0.70996094 -0.067410275 0.99411643
1.3307421 0.70995116 -0.068992421 0.9939788
1.4608203 0.70995116 -0.07429409 0.99351752
1.5087304 0.70996094 -0.076272011 0.99334556
1.5592773 0.70995116 -0.07837116 0.99316311
1.6127148 0.70996094 -0.080602072 0.99296916
1.6692969 0.70996094 -0.082976758 0.99276274
1.7293164 0.70995116 -0.085510403 0.99254262
1.793164 0.70996094 -0.088217735 0.99230731
10.458535 3.2534666 -0.50101578 0.95709044
10.498515 3.1217675 -0.50101334 0.95709074
10.536894 2.9895995 -0.50101101 0.9570908
10.573613 2.8569531 -0.50100875 0.95709085
10.641933 2.5903027 -0.50100458 0.95709139
10.731894 2.1873436 -0.50099915 0.95709181
10.806602 1.7812792 -0.5009948 0.95709223
10.847929 1.5091504 -0.50099236 0.95709234
10.882343 1.2360449 -0.50099045 0.95709264
10.897031 1.0991992 -0.50098962 0.95709258
10.909961 0.96216792 -0.5009889 0.9570927
10.930664 0.68770504 -0.50098789 0.95709282
10.944492 0.4128125 -0.50098729 0.95709282
10.951426 0.13762695 -0.50098711 0.95709276
10.952266 9.7656248e-06 -0.50098717 0.95709282
10.948828 -0.2752246 -0.50098771 0.95709276
10.944511 -0.41277343 -0.50098813 0.95709276
10.938477 -0.55027342 -0.50098866 0.9570927
10.92121 -0.82499021 -0.50099009 0.95709264
10.89707 -1.0991796 -0.50099194 0.95709246
10.882421 -1.2360253 -0.50099307 0.95709234
10.866035 -1.3727051 -0.50099427 0.95709234
10.848007 -1.5091308 -0.50099558 0.95709205
10.758594 -2.052295 -0.50100195 0.95709157
10.703711 -2.322041 -0.50100583 0.95709127
10.673711 -2.4563768 -0.50100791 0.95709115
10.537031 -2.9896092 -0.50101739 0.95709026
10.498632 -3.1218066 -0.50102001 0.95709026
2.0210547 -0.71330076 -0.098038293 0.99145484
1.8611132 -0.70994139 -0.091116525 0.99205571
1.7293359 -0.70993161 -0.085510291 0.99254256
1.6692969 -0.70994139 -0.082977064 0.99276274
1.6127343 -0.70993161 -0.080602035 0.99296916
1.5592968 -0.70994139 -0.078371048 0.99316311
1.4152734 -0.70993161 -0.07242687 0.99368
1.3307617 -0.70993161 -0.068992652 0.99397874
1.2914063 -0.70993161 -0.067410089 0.99411649
1.2622656 -0.73581052 -0.06683258 0.99416667
1.2621484 -0.75715816 -0.067325935 0.99412382
1.2618359 -0.8231836 -0.068916284 0.99398541
1.2616405 -0.86901367 -0.07007473 0.9938845
1.2614844 -0.89249998 -0.070685349 0.99383152
1.2612109 -0.94075191 -0.071973495 0.99371952
6.9112887 -5.2916989 -0.39816558 0.9657461
6.7762499 -5.4638085 -0.39817458 0.96574545
6.5657225 -5.7155271 -0.3981885 0.96574432
6.4201951 -5.8788571 -0.39819816 0.96574342
6.2705469 -6.038496 -0.39820805 0.96574271
6.1942968 -6.1168942 -0.39821306 0.96574217
6.116992 -6.1943259 -0.39821818 0.96574181
6.0387497 -6.2708006 -0.39822334 0.96574134
5.9595704 -6.3462501 -0.39822859 0.96574092
5.7163672 -6.5666013 -0.39824462 0.96573961
5.6334763 -6.6380177 -0.39825007 0.96573913
5.5497069 -6.7084179 -0.39825556 0.96573848
5.4650388 -6.7776852 -0.39826119 0.96573818
5.3795309 -6.8459277 -0.39826679 0.96573764
5.0290232 -7.1079688 -0.39828986 0.96573579
4.939414 -7.1707225 -0.39829573 0.9657352
4.7577538 -7.2928123 -0.39830768 0.96573424
4.6658592 -7.3521285 -0.3983137 0.96573365
4.3856053 -7.5231152 -0.39833209 0.96573216
4.290781 -7.577744 -0.39833832 0.96573162
4.0991602 -7.6834083 -0.39835089 0.96573055
3.8068359 -7.8328514 -0.39837006 0.96572888
3.7081444 -7.8801756 -0.39837652 0.9657284
3.6088672 -7.9262791 -0.39838302 0.96572793
3.509043 -7.9711328 -0.39838955 0.96572733
3.4086719 -8.0147266 -0.3983961 0.96572679
3.3077734 -8.0570803 -0.39840269 0.96572614
3.2062891 -8.0981245 -0.39840934 0.96572566
3.1043162 -8.1379099 -0.39841601 0.96572512
2.8989258 -8.2136421 -0.39842945 0.96572393
2.7955468 -8.2495508 -0.39843619 0.9657234
2.4536719 -8.2516603 -0.39378989 0.96611637
2.3408594 -8.2504005 -0.39229506 0.96624285
2.2288866 -8.2491598 -0.39087409 0.96636307
1.7885156 -8.244297 -0.38589197 0.9667846
1.680078 -8.2430859 -0.38481691 0.96687561
1.4649414 -8.2407227 -0.38286522 0.96704072
1.3581445 -8.2395315 -0.38198906 0.9671151
1.2518164 -8.238369 -0.38117409 0.96718395
1.1459374 -8.2371874 -0.38042435 0.96724755
0.83054686 -8.2337008 -0.37854788 0.96740645
0.62179685 -8.2314062 -0.37760359 0.96748632
0.41396484 -8.2290916 -0.37690151 0.96754587
0.31033203 -8.2279491 -0.37664053 0.96756792
-0.10335937 -8.2233887 -0.37619388 0.96760577
-0.20671874 -8.2222462 -0.37622967 0.96760261
-0.31009763 -8.2211037 -0.37632674 0.96759444
-0.51710933 -8.2188082 -0.37669775 0.96756303
-0.82871091 -8.2153711 -0.37770435 0.9674778
-0.93300778 -8.2142181 -0.37816051 0.96743917
-1.2476367 -8.210742 -0.3798959 0.96729213
-1.4591992 -8.2084084 -0.38136488 0.96716779
-1.5656445 -8.2072268 -0.38219383 0.96709758
-1.6725585 -8.2060547 -0.38308814 0.96702194
-1.7799804 -8.2048635 -0.38404649 0.96694082
-1.8879784 -8.2036715 -0.38507038 0.9668541
-2.1057422 -8.2012596 -0.38731989 0.96666378
-2.4376268 -8.197607 -0.39121115 0.96633452
-2.6627734 -8.1951075 -0.39416221 0.96608502
-2.8915331 -8.1925783 -0.39741114 0.9658103
-3.0073438 -8.1912985 -0.39915022 0.96566319
-3.3112891 -8.0657711 -0.39883286 0.96568984
-3.9098241 -7.7941699 -0.39887145 0.96568662
-4.0075192 -7.7445602 -0.39887774 0.96568608
-4.3918457 -7.5338473 -0.39890251 0.96568412
-4.4862399 -7.4781833 -0.39890856 0.96568358
-4.6729102 -7.3633103 -0.3989206 0.96568251
-4.7651367 -7.304121 -0.3989265 0.96568203
-5.1264157 -7.0559082 -0.39894974 0.96567994
-5.2147264 -6.9910154 -0.39895537 0.96567959
-5.4747558 -6.7898045 -0.39897209 0.9656781
-5.6437988 -6.6502438 -0.39898288 0.96567726
-5.7270117 -6.5788865 -0.39898822 0.96567678
-5.9711328 -6.358613 -0.39900386 0.96567541
-6.0506153 -6.2831345 -0.39900893 0.96567512
-1.0309472 -0.94403321 -0.063944012 0.99441832
-1.0311035 -0.9206152 -0.063230053 0.99448037
-1.031377 -0.87529296 -0.061877709 0.99459809
-1.0314941 -0.85333008 -0.06123722 0.99465388
-1.0317578 -0.81073242 -0.060022581 0.99475956
-1.0318359 -0.79004884 -0.059446905 0.99480981
-1.0319629 -0.76976562 -0.058891334 0.99485815
-1.0320605 -0.74984372 -0.058355063 0.99490488
-1.0321679 -0.7302832 -0.057837408 0.99494994
-1.0322851 -0.71105468 -0.05733772 0.99499339
-1.0882226 -0.70994139 -0.059435349 0.99481076
-1.1503906 -0.70994139 -0.061836433 0.99460167
-1.1834277 -0.70995116 -0.063126944 0.99448925
-1.2178222 -0.70993161 -0.064482726 0.99437141
-1.2537988 -0.70995116 -0.065908849 0.9942472
-1.2913867 -0.70993161 -0.067410164 0.99411654
-1.3719823 -0.70994139 -0.070662573 0.99383348
-1.4152832 -0.70994139 -0.072427213 0.99368
-1.5087011 -0.70993161 -0.076272197 0.99334574
-1.785205 -0.68098629 -0.087400548 0.99237847
-1.7851367 -0.65538085 -0.086987264 0.99241441
-10.356494 -3.655205 -0.50237572 0.95697659
-10.40166 -3.5248144 -0.50237858 0.95697635
-10.6379 -2.7313378 -0.50239307 0.95697528
-10.671474 -2.597461 -0.50239509 0.95697492
-10.788642 -2.0580273 -0.50240213 0.95697439
-10.858594 -1.6499511 -0.50240624 0.95697415
-10.878545 -1.5133886 -0.50240743 0.95697391
-10.896738 -1.3765527 -0.50240844 0.95697373
-10.940888 -0.96488279 -0.50241089 0.95697373
-10.961709 -0.68963867 -0.50241196 0.95697361
-10.975595 -0.41395506 -0.5024125 0.95697355
-10.979932 -0.27598631 -0.50241268 0.95697355
-10.354043 9.7656248e-06 -0.50237173 0.95938301
-10.350732 0.26021484 -0.50237119 0.95938319
-10.313926 0.90961909 -0.50236809 0.95938331
-10.30168 1.0391601 -0.5023672 0.95938337
-10.272226 1.2976953 -0.50236505 0.95938367
-10.255078 1.4266698 -0.50236374 0.95938379
-10.215966 1.683916 -0.50236094 0.9593839
-10.193945 1.8121581 -0.50235939 0.95938408
-10.170381 1.9400976 -0.50235772 0.95938402
-10.089892 2.3220313 -0.50235206 0.95938456
-10.059882 2.4486327 -0.50234997 0.95938474
-10.028272 2.5748339 -0.50234777 0.95938492
-9.9950686 2.7006347 -0.5023455 0.9593851
-9.9239645 2.9509277 -0.50234061 0.95938545
-9.886054 3.0754004 -0.50233799 0.95938563
-9.7629585 3.4457617 -0.50232965 0.95938629
-1.7860059 0.65572262 -0.092311777 0.99240971
-1.7860546 0.68132812 -0.092750356 0.99237382
-1.6692675 0.70996094 -0.088013612 0.99276191
-1.5592675 0.70995116 -0.083128124 0.99316227
-1.4607519 0.70996094 -0.078803673 0.99351686
-1.3719531 0.70996094 -0.074951746 0.99383277
-1.2913672 0.70995116 -0.071501918 0.99411583
-1.2178417 0.70996094 -0.068396986 0.99437058
-1.1503906 0.70996094 -0.065589942 0.99460095
-1.1186913 0.70996094 -0.064286076 0.994708
-1.0589062 0.70995116 -0.061856192 0.9949075
-1.031582 0.71059567 -0.060777854 0.99499613
-1.0314746 0.72981441 -0.061307065 0.99495262
-1.031377 0.74935544 -0.061855469 0.99490756
-1.0311328 0.78952146 -0.063012004 0.99481267
-1.0306445 0.87466794 -0.065586738 0.99460119
-1.030498 0.89707029 -0.066289902 0.99454349
-1.0303515 0.91997069 -0.067019083 0.99448359
-5.9921288 5.6270213 -0.39883137 0.96761709
-5.848701 5.7756834 -0.39882189 0.96761787
-5.6266599 5.9918065 -0.3988072 0.967619
-5.3182225 6.2666211 -0.39878693 0.96762061
-5.2389941 6.3328614 -0.39878166 0.96762109
-5.1589255 6.3981152 -0.39877638 0.96762151
-5.0780368 6.4623532 -0.39877108 0.96762192
-4.8306737 6.6488867 -0.39875481 0.96762323
-4.5764747 6.8259373 -0.39873809 0.96762455
-4.2274704 7.046865 -0.3987152 0.96762633
-4.138535 7.0993261 -0.39870936 0.96762681
-2.3502049 4.2750096 -0.23669887 0.98065287
-2.1369336 4.259912 -0.23123641 0.98109514
-2.1178124 4.5006056 -0.24133494 0.98027772
-3.3104198 7.5200291 -0.39865509 0.9676311
-3.0245116 7.6390624 -0.3986364 0.96763265
-2.9282227 7.6763668 -0.39863008 0.96763313
-2.8314843 7.7124314 -0.39862376 0.96763361
-2.7343163 7.7472754 -0.39861739 0.96763414
-2.6366894 7.7809176 -0.39861101 0.96763462
-2.4402442 7.8444433 -0.39859819 0.96763569
-2.3414452 7.8743749 -0.39859176 0.96763617
-1.9185938 7.8823338 -0.39360821 0.96803403
-1.7095019 7.8800192 -0.39122385 0.96822459
-1.5027636 7.8777537 -0.38911268 0.96839333
-1.2981445 7.8754883 -0.38726515 0.96854085
-1.0953223 7.8732419 -0.3856805 0.96866769
-0.9944824 7.8721385 -0.38498354 0.96872342
-0.79386717 7.8699121 -0.38377652 0.9688198
-0.39570311 7.8655176 -0.38210943 0.96895325
-0.29662108 7.8644238 -0.38184443 0.96897441
-0.19769531 7.8633299 -0.3816407 0.96899068
0 7.8611426 -0.38141525 0.9690088
0.098769531 7.8600583 -0.38139072 0.96901065
0.19753906 7.8589454 -0.38142836 0.96900773
0.29636717 7.8578711 -0.38152695 0.96899986
0.39523438 7.8567867 -0.38168424 0.96898717
0.49421874 7.8556833 -0.38190377 0.96896976
0.89175779 7.8512888 -0.38338512 0.96885115
0.99167967 7.8501854 -0.38390976 0.96880925
1.394707 7.8457227 -0.38663429 0.96859145
1.4964062 7.8446188 -0.38747528 0.96852416
1.5985937 7.8434668 -0.38838142 0.96845186
1.8045117 7.8412008 -0.39039123 0.9682911
1.9082812 7.8400683 -0.39149672 0.96820271
2.0126758 7.8389063 -0.39267159 0.96810883
2.1176953 7.8377342 -0.39391577 0.96800953
2.6344531 7.774199 -0.39826849 0.96766204
2.8289063 7.7053223 -0.39825594 0.96766293
3.4009764 7.4696288 -0.39821905 0.96766591
3.4944921 7.4262204 -0.398213 0.96766633
3.6798828 7.3358102 -0.39820105 0.96766746
3.7717772 7.2889061 -0.39819512 0.9676677
3.9536328 7.1916013 -0.39818344 0.96766871
4.2216797 7.037158 -0.39816615 0.96767014
4.3097072 6.9834571 -0.39816052 0.96767062
4.39709 6.9286523 -0.39815488 0.96767098
4.4837303 6.8727536 -0.39814928 0.96767145
4.6548829 6.7577343 -0.39813831 0.96767235
4.8231249 6.6384473 -0.3981275 0.96767312
4.9060936 6.5772266 -0.39812216 0.96767354
4.9882812 6.5149512 -0.39811692 0.96767408
5.0696874 6.4516892 -0.39811167 0.96767443
5.1502733 6.387373 -0.39810652 0.96767491
5.2300782 6.3220801 -0.39810142 0.96767527
5.4644532 6.1202149 -0.3980864 0.96767646
5.616406 5.9808297 -0.39807665 0.96767718
5.7647653 5.8376465 -0.39806715 0.96767807
5.8376169 5.7646875 -0.3980625 0.96767837
5.909492 5.6908007 -0.39805794 0.96767884
5.9804688 5.616035 -0.39805338 0.9676792
6.187695 5.3864746 -0.39804015 0.96768016
6.2548242 5.3082228 -0.39803588 0.96768057
6.3209763 5.2291698 -0.39803168 0.96768081
6.5133591 4.987031 -0.39801943 0.96768188
1.2603515 0.94012696 -0.076290168 0.99372292
1.2605274 0.91581053 -0.075595893 0.99377972
1.2607617 0.86843747 -0.074278794 0.9938879
1.2608789 0.84537107 -0.073654443 0.9939391
1.26125 0.77835935 -0.071908683 0.99408221
1.2614453 0.73536134 -0.070844419 0.99416965
1.2615625 0.71433592 -0.070340268 0.99421096
1.2914063 0.70997071 -0.071501844 0.99411565
1.3307421 0.70995116 -0.07318043 0.99397796
1.3719921 0.70996094 -0.074951626 0.99383265
1.4608203 0.70995116 -0.078803591 0.99351668
1.5087304 0.70996094 -0.080901526 0.99334466
1.5592773 0.70995116 -0.083128318 0.99316227
1.6127148 0.70996094 -0.085494496 0.99296826
1.6692969 0.70996094 -0.088013917 0.99276179
1.9337499 0.70996094 -0.099947624 0.99178439
9.8608198 3.0675292 -0.50105488 0.9594872
10.03377 2.4422753 -0.50104427 0.95948797
10.063594 2.3159668 -0.50104249 0.95948827
10.091855 2.189326 -0.50104082 0.95948845
10.118593 2.0623436 -0.50103921 0.95948839
10.189023 1.6794823 -0.50103498 0.95948881
10.209296 1.5513085 -0.50103378 0.95948893
10.260449 1.1654199 -0.50103092 0.95948911
10.274258 1.0363867 -0.50103015 0.95948923
10.286445 0.90720701 -0.50102949 0.95948935
10.297031 0.77787107 -0.50102895 0.95948935
10.319062 0.38921875 -0.50102794 0.95948923
10.325546 0.12978515 -0.50102776 0.95948935
10.31332 -0.51882809 -0.50102925 0.95948935
10.297071 -0.77784181 -0.50103062 0.95948917
10.228007 -1.4228905 -0.50103581 0.95948881
10.209335 -1.5513085 -0.50103712 0.95948875
10.189121 -1.6794823 -0.50103855 0.95948845
10.167227 -1.8073828 -0.50104016 0.95948839
10.091992 -2.1893163 -0.50104547 0.95948792
10.063711 -2.3159668 -0.50104737 0.95948786
10.002402 -2.5681739 -0.50105166 0.95948756
9.9693947 -2.6936815 -0.50105393 0.95948732
9.9348049 -2.8187401 -0.50105631 0.95948714
9.898633 -2.9433887 -0.50105882 0.95948702
9.8609371 -3.0675488 -0.50106138 0.95948672
2.0232422 -0.71406251 -0.10409954 0.99144453
1.9337499 -0.70993161 -0.09994781 0.99178445
1.7293359 -0.70993161 -0.090700798 0.99254161
1.5087109 -0.70994139 -0.080901489 0.99334478
1.4607812 -0.70994139 -0.078803368 0.9935168
1.4152734 -0.70993161 -0.07682316 0.99367923
1.3307617 -0.70993161 -0.073180124 0.99397796
1.2615625 -0.71432614 -0.070340574 0.99421096
1.2613477 -0.75667965 -0.071367033 0.9941268
1.2612109 -0.77833009 -0.071908683 0.99408245
6.5161915 -4.9891796 -0.39819095 0.96766812
6.3888669 -5.1514649 -0.39819941 0.96766752
6.3237109 -5.2313867 -0.39820373 0.96766716
6.1903906 -5.3887792 -0.39821258 0.96766645
6.1222653 -5.4662108 -0.39821708 0.96766603
5.9830661 -5.6184764 -0.39822626 0.96766537
5.9120703 -5.6932712 -0.39823097 0.96766502
5.8401561 -5.7671876 -0.39823571 0.96766454
5.6934958 -5.9122653 -0.39824539 0.96766388
5.5432811 -6.0536227 -0.39825529 0.96766305
5.3113866 -6.2584958 -0.39827061 0.9676618
4.9904685 -6.5178123 -0.39829174 0.96766013
4.8252344 -6.6413183 -0.39830261 0.96765929
4.7414842 -6.7015429 -0.3983081 0.96765876
4.6569529 -6.760664 -0.39831367 0.9676584
4.5716796 -6.8187695 -0.39831924 0.96765792
4.3116407 -6.9865332 -0.39833632 0.96765649
3.6815624 -7.3390722 -0.39837769 0.96765321
3.5891016 -7.3848433 -0.39838371 0.9676528
3.4024999 -7.4729199 -0.39839593 0.9676519
3.3083594 -7.515234 -0.39840209 0.96765131
3.2137303 -7.5563183 -0.39840826 0.96765083
3.118535 -7.5962205 -0.39841452 0.96765041
2.9267774 -7.6724315 -0.39842704 0.96764934
2.733125 -7.7438183 -0.39843971 0.96764833
2.6356444 -7.7776756 -0.39844611 0.96764779
2.5377343 -7.8103027 -0.39845249 0.96764731
2.3407421 -7.8718553 -0.39846534 0.9676463
2.142246 -7.9284568 -0.3984783 0.96764523
2.0424609 -7.9548731 -0.39848483 0.96764475
1.8419921 -8.0039454 -0.39849791 0.96764374
1.7413086 -8.0265913 -0.39850447 0.9676432
1.640332 -8.0479784 -0.39851105 0.96764266
1.5391015 -8.0680761 -0.39851767 0.96764219
1.4376172 -8.0869141 -0.39852428 0.96764165
0.92705077 -8.1619234 -0.39855754 0.96763891
0.82445312 -8.1730661 -0.39856422 0.96763837
0.72169918 -8.1829004 -0.3985709 0.9676379
0.51583982 -8.19874 -0.39858428 0.96763682
0.41279295 -8.2046967 -0.39859098 0.96763635
0.30964842 -8.209404 -0.39859772 0.96763569
-0.10335937 -8.2233887 -0.39902776 0.9676016
-0.20669921 -8.2222557 -0.39906678 0.96759844
-0.61890626 -8.1931343 -0.39865801 0.96763092
-0.72183591 -8.184844 -0.39866468 0.96763039
-0.92732418 -8.1643944 -0.39867803 0.96762931
-1.132246 -8.1387892 -0.39869133 0.96762818
-1.438252 -8.0907221 -0.39871114 0.96762669
-1.5398437 -8.0721388 -0.39871773 0.96762615
-1.7422656 -8.0311718 -0.39873084 0.96762508
-2.1437109 -7.9339938 -0.39875683 0.96762305
-2.5398047 -7.8167772 -0.39878246 0.96762097
-2.6378906 -7.7843456 -0.39878875 0.96762049
-2.8327539 -7.7158399 -0.39880139 0.96761954
-2.9295311 -7.6797752 -0.39880764 0.96761894
-3.2170606 -7.5642481 -0.39882618 0.96761751
-3.3118944 -7.5233297 -0.39883232 0.96761709
-3.4062304 -7.4812403 -0.39883843 0.96761656
-3.6859276 -7.3478613 -0.39885643 0.96761519
-3.8695605 -7.2531443 -0.39886823 0.96761411
-3.960459 -7.2040329 -0.39887413 0.9676137
-4.2293358 -7.0499411 -0.39889139 0.96761239
-4.317656 -6.9963574 -0.39889708 0.96761185
-4.4922462 -6.8858204 -0.39890829 0.96761101
-4.5784764 -6.8289356 -0.39891386 0.96761054
-4.6639743 -6.770947 -0.39891937 0.96761018
-4.7487888 -6.7119141 -0.39892483 0.96760958
-4.8328223 -6.6517968 -0.39893019 0.96760917
-4.9985447 -6.5284176 -0.39894083 0.96760845
-5.1611814 -6.400918 -0.39895126 0.96760756
-5.2412696 -6.3356152 -0.39895642 0.9676072
-5.5532618 -6.06457 -0.39897639 0.96760565
-5.7040524 -5.9232516 -0.39898604 0.96760482
-5.8512497 -5.7781835 -0.39899543 0.96760404
-5.9234762 -5.7042575 -0.39900008 0.96760362
-1.0301952 -0.94333982 -0.067774959 0.99442166
-1.0303515 -0.91994137 -0.067019038 0.99448365
-1.0305078 -0.89705074 -0.066289976 0.99454349
-1.030625 -0.87466794 -0.065586813 0.99460125
-1.030918 -0.83123046 -0.064253576 0.99471068
-1.0310352 -0.810166 -0.063621789 0.99476254
-1.0312696 -0.76922852 -0.062423553 0.99486095
-1.0588964 -0.70993161 -0.061856117 0.99490756
-1.0882226 -0.70993161 -0.063042909 0.9948101
-1.1503906 -0.70994139 -0.065589942 0.99460101
-1.1834277 -0.70995116 -0.066958658 0.99448854
-1.2537988 -0.70995116 -0.06990917 0.99424642
-1.3307226 -0.70994139 -0.073180348 0.99397808
-1.4607812 -0.70994139 -0.078803554 0.9935168
-1.5592968 -0.70993161 -0.083128355 0.99316221
-1.7860839 -0.68130857 -0.092750512 0.99237376
-9.8466988 -3.1993749 -0.50234216 0.9593854
-9.9604397 -2.8260155 -0.50234914 0.9593848
-9.9952145 -2.7006543 -0.50235122 0.95938456
-10.028359 -2.5748241 -0.50235325 0.95938456
-10.059999 -2.4486327 -0.50235522 0.95938426
-10.08998 -2.3220313 -0.50235701 0.95938426
-10.170468 -1.9401073 -0.50236183 0.95938373
-10.194043 -1.8121679 -0.5023632 0.95938373
-10.216035 -1.683916 -0.50236452 0.95938361
-10.236425 -1.5554101 -0.50236571 0.95938349
-10.272305 -1.2976757 -0.50236779 0.95938337
-10.287842 -1.168496 -0.50236863 0.95938325
-10.301719 -1.039121 -0.5023694 0.95938319
-10.313965 -0.90958983 -0.50237006 0.95938319
-10.32457 -0.77992183 -0.50237066 0.95938325
-10.333574 -0.65011716 -0.50237107 0.95938319
-10.350791 -0.26018554 -0.50237179 0.95938295
-10.353242 -0.13009766 -0.50237179 0.95938295
-9.789629 0.24610351 -0.50233477 0.96153682
-9.7548237 0.86031246 -0.50233185 0.961537
-9.7432318 0.98281246 -0.50233096 0.961537
-9.7300873 1.105166 -0.50232995 0.96153712
-9.6814451 1.4711034 -0.50232643 0.96153742
-9.6621675 1.5926465 -0.50232506 0.96153754
-9.6190624 1.8349414 -0.50232202 0.96153766
-9.5951948 1.9556543 -0.50232029 0.96153784
-9.5698042 2.0760839 -0.5023185 0.96153808
-9.5429592 2.1961718 -0.50231665 0.96153808
-9.4532814 2.5542481 -0.50231045 0.96153855
-9.4203615 2.6728222 -0.50230819 0.96153885
-9.386035 2.7909667 -0.50230581 0.96153885
-9.2739935 3.142705 -0.50229818 0.96153957
-9.2337303 3.2589843 -0.50229543 0.96153975
-1.7870214 0.70752931 -0.098591611 0.9923315
-1.7292968 0.70994139 -0.095892638 0.99254072
-1.612705 0.70996094 -0.090388373 0.99296731
-1.5592675 0.70995116 -0.087886505 0.99316132
-1.5087206 0.70996094 -0.085532874 0.99334383
-1.4152539 0.70996094 -0.081220895 0.99367833
-1.3719531 0.70996094 -0.079241902 0.99383193
-1.3307226 0.70996094 -0.077369079 0.99397719
-1.2537988 0.70995116 -0.073911205 0.99424565
-1.1834179 0.70996094 -0.070791699 0.99448782
-1.0882324 0.70995116 -0.066651344 0.99480933
-1.0589062 0.70995116 -0.065396994 0.99490678
-1.0308007 0.72931641 -0.064772986 0.99495524
-1.0306641 0.74885738 -0.065351978 0.9949103
-1.0305566 0.76874024 -0.065951727 0.99486369
-1.0304297 0.78900391 -0.066573068 0.99481541
-1.0303124 0.80961913 -0.067216799 0.99476546
-1.0301758 0.83067381 -0.067883909 0.9947136
-1.0300293 0.85213864 -0.068575174 0.99465996
-1.0298926 0.87403321 -0.069291458 0.99460435
-1.02958 0.91929686 -0.070803523 0.99448693
-5.600029 5.3928223 -0.39880615 0.96934092
-5.3926172 5.5998731 -0.39879245 0.96934193
-5.3217673 5.667109 -0.39878777 0.96934229
-5.2500587 5.7334766 -0.39878303 0.96934265
-5.1775389 5.7989354 -0.39877826 0.96934301
-4.9551072 5.9897361 -0.3987636 0.96934414
-4.8793945 6.051455 -0.39875862 0.9693445
-4.8029199 6.1122165 -0.39875358 0.96934485
-4.647666 6.2308106 -0.39874336 0.96934569
-4.5689549 6.288662 -0.39873818 0.96934599
-4.4895115 6.3454881 -0.39873299 0.9693464
-4.4093456 6.4013281 -0.39872772 0.96934682
-4.3285351 6.4561329 -0.39872238 0.96934718
-4.2469821 6.5099316 -0.39871705 0.9693476
-4.1647849 6.562695 -0.39871162 0.96934801
-4.081943 6.6144137 -0.3987062 0.96934843
-2.4093945 4.2551465 -0.2508381 0.98060507
-2.349453 4.2736521 -0.25016773 0.98065633
-2.2795801 4.2728906 -0.24842814 0.98078966
-2.1360643 4.258203 -0.2443739 0.98110008
-2.0970409 4.3148727 -0.2460935 0.98096836
-3.2203026 7.0728807 -0.39864969 0.96935266
-3.1311133 7.1126657 -0.39864388 0.96935314
-2.9513085 7.1889062 -0.39863211 0.96935397
-2.8606639 7.2252927 -0.39862618 0.96935457
-2.7696288 7.2605662 -0.39862022 0.96935499
-2.586211 7.3276563 -0.39860824 0.96935588
-2.4011621 7.3901267 -0.39859614 0.96935672
-2.2146192 7.4479003 -0.39858398 0.96935767
-2.1208398 7.475039 -0.39857784 0.96935809
-1.8375195 7.5492969 -0.39855933 0.96935952
-1.5515918 7.6128321 -0.39854071 0.96936095
-1.16708 7.6806931 -0.39851564 0.96936285
-0.68242186 7.7382126 -0.39848411 0.96936524
-0.58511716 7.7460251 -0.39847776 0.96936584
-0.4877539 7.752666 -0.39847144 0.96936619
-0.39031249 7.7580662 -0.39846507 0.96936667
0.097617187 7.7666502 -0.39843336 0.96936905
0.1951953 7.7646775 -0.39842704 0.96936953
0.29275391 7.7615037 -0.39842072 0.96936995
0.39027342 7.7570701 -0.39841437 0.96937048
0.48765624 7.7514353 -0.39840806 0.96937096
0.68232423 7.7364941 -0.39839542 0.96937191
0.77947265 7.7271776 -0.39838913 0.96937239
0.97335935 7.7049217 -0.39837652 0.96937329
1.0700977 7.6919532 -0.39837027 0.96937382
1.1666406 7.6777735 -0.39836398 0.9693743
1.2630273 7.6623826 -0.39835778 0.96937478
1.3591796 7.6457911 -0.39835152 0.96937525
1.4551171 7.6279783 -0.39834532 0.96937579
1.5508593 7.608984 -0.39833912 0.96937615
1.646289 7.588779 -0.39833292 0.96937668
1.7415234 7.5673923 -0.39832675 0.96937704
2.0253906 7.4960055 -0.3983084 0.96937853
2.2130859 7.4425292 -0.39829627 0.96937937
2.3063867 7.4140134 -0.39829022 0.96937984
2.3993359 7.384336 -0.39828423 0.96938032
2.4918945 7.3534765 -0.39827824 0.96938086
2.5840623 7.3214941 -0.39827228 0.96938121
2.6758008 7.2883301 -0.39826638 0.96938169
2.8580468 7.218574 -0.39825457 0.96938258
2.9484766 7.181982 -0.39824873 0.969383
3.2169335 7.0654588 -0.39823142 0.96938425
3.3054297 7.0243649 -0.39822569 0.96938473
3.3933787 6.9821677 -0.39822006 0.96938521
3.5676756 6.8944921 -0.3982088 0.96938604
3.6539648 6.8490329 -0.39820328 0.96938646
3.8248436 6.7548728 -0.39819226 0.96938717
3.909375 6.706162 -0.3981868 0.96938765
3.9932811 6.6564355 -0.39818141 0.96938801
4.0765624 6.6056247 -0.39817607 0.96938848
4.3224216 6.447041 -0.39816025 0.96938974
4.4030857 6.3921485 -0.39815506 0.96938992
4.4829688 6.3362207 -0.39814994 0.96939045
4.6406837 6.2213864 -0.3981398 0.96939123
4.7184176 6.1625094 -0.39813483 0.96939164
4.7954297 6.1026559 -0.39812988 0.969392
4.8716407 6.0418262 -0.39812499 0.96939248
4.9471483 5.9800682 -0.39812014 0.96939278
5.0957422 5.8537011 -0.39811066 0.96939355
5.1688671 5.7891502 -0.39810592 0.96939379
5.3831639 5.5900583 -0.39809221 0.9693948
5.8530078 5.0951266 -0.3980622 0.96939713
5.9791017 4.9463282 -0.39805418 0.96939766
6.0407028 4.8707519 -0.39805031 0.96939808
6.1610937 4.7173338 -0.39804259 0.96939856
1.2596484 0.91520506 -0.079869002 0.99378312
1.2599218 0.86786133 -0.078478508 0.99389112
1.2605468 0.7562207 -0.075403936 0.99412966
1.260664 0.7349121 -0.074852407 0.99417245
1.2607617 0.71388668 -0.074320294 0.99421382
1.3307421 0.70995116 -0.077369116 0.99397719
1.3719921 0.70996094 -0.079242021 0.99383175
1.5087304 0.70996094 -0.085532494 0.99334377
1.5592773 0.70995116 -0.087886468 0.99316132
1.8611327 0.70997071 -0.10217968 0.99205345
2.0241992 0.71444333 -0.11011253 0.99143922
2.0242188 0.68595701 -0.10963532 0.99147612
9.3275976 2.9016407 -0.50108969 0.96163017
9.3632812 2.784209 -0.50108749 0.96163028
9.39748 2.666328 -0.5010854 0.96163046
9.4301949 2.547998 -0.50108337 0.96163064
9.4614449 2.4292967 -0.50108147 0.96163076
9.5194139 2.1907325 -0.50107801 0.96163112
9.6380854 1.588662 -0.50107092 0.96163154
9.6572657 1.4674317 -0.50106978 0.9616316
9.6748829 1.345957 -0.50106877 0.96163183
9.6910152 1.2242773 -0.50106782 0.96163189
9.7187109 0.98034179 -0.50106633 0.96163195
9.7302732 0.85814452 -0.50106567 0.96163189
9.7487307 0.61335933 -0.50106472 0.96163201
9.7556639 0.49078125 -0.50106442 0.96163207
9.761054 0.36817381 -0.50106424 0.96163207
9.7649021 0.24548827 -0.50106412 0.96163213
9.7672262 -0.12273438 -0.5010643 0.96163207
9.7649021 -0.24544922 -0.50106466 0.96163213
9.761054 -0.36814451 -0.50106502 0.96163207
9.7556639 -0.49077147 -0.50106549 0.96163207
9.7402925 -0.73578125 -0.50106674 0.96163189
9.5952339 -1.8303612 -0.50107735 0.96163112
9.5715036 -1.9508008 -0.50107902 0.961631
9.5195112 -2.1907325 -0.50108266 0.96163076
9.4615231 -2.4292967 -0.50108665 0.96163046
2.0242188 -0.65770507 -0.10917938 0.99151146
2.0242188 -0.71442384 -0.11011253 0.99143916
1.9337499 -0.70993161 -0.10566894 0.99178332
1.7931055 -0.70994139 -0.098928332 0.99230546
1.7293359 -0.70993161 -0.095892444 0.9925406
1.6692969 -0.70994139 -0.093051754 0.99276084
1.6127343 -0.70993161 -0.090388179 0.99296725
1.5087109 -0.70994139 -0.085532457 0.99334389
1.4607812 -0.70994139 -0.083314016 0.99351591
1.4152734 -0.70993161 -0.081220433 0.99367833
1.3719921 -0.70993161 -0.079241753 0.99383181
1.3307617 -0.70993161 -0.077369042 0.99397713
1.2914063 -0.70993161 -0.075594366 0.99411494
1.2604296 -0.77783203 -0.075976178 0.99408531
1.2603124 -0.79980469 -0.076568872 0.9940393
1.2601953 -0.82211912 -0.077183075 0.99399161
1.2596484 -0.91517574 -0.079869308 0.99378318
1.2594922 -0.93947262 -0.08060196 0.99372637
6.1637301 -4.7193165 -0.39821357 0.96938574
6.0433202 -4.8728318 -0.39822155 0.96938509
5.9816794 -4.9484568 -0.39822567 0.96938467
5.8555665 -5.0973043 -0.39823401 0.96938407
5.5922656 -5.3853025 -0.39825141 0.96938288
5.3855076 -5.5924411 -0.39826506 0.96938187
5.3148828 -5.6597266 -0.39826971 0.96938151
5.1710935 -5.7916503 -0.39827922 0.9693808
5.0240622 -5.9199219 -0.39828891 0.96937996
4.8737888 -6.0444627 -0.39829883 0.96937931
4.7975388 -6.1053028 -0.39830384 0.96937883
4.7204685 -6.165195 -0.3983089 0.96937853
4.6426759 -6.224082 -0.398314 0.96937823
4.5641794 -6.2820115 -0.39831918 0.96937776
4.484961 -6.3389649 -0.3983244 0.96937728
4.4049802 -6.3949118 -0.39832962 0.96937692
4.3243361 -6.4498434 -0.39833495 0.9693765
4.2430077 -6.5037498 -0.39834028 0.96937615
3.995039 -6.6593261 -0.39835656 0.9693749
3.9110742 -6.7091012 -0.39836207 0.96937448
3.7413476 -6.805459 -0.39837322 0.96937364
3.6555858 -6.8520212 -0.39837882 0.96937323
3.4823241 -6.9419141 -0.3983902 0.96937245
2.949785 -7.1851368 -0.39842504 0.96936977
2.8593359 -7.2217479 -0.39843097 0.96936923
2.6769922 -7.291543 -0.39844289 0.9693684
2.4003906 -7.3875875 -0.39846095 0.96936703
2.2140625 -7.4458203 -0.39847311 0.96936607
2.120332 -7.4731541 -0.39847925 0.96936566
1.9319335 -7.5243063 -0.39849153 0.96936476
1.7423047 -7.570703 -0.3985039 0.96936381
1.5515234 -7.6123438 -0.39851639 0.96936285
1.1671875 -7.6811719 -0.39854139 0.96936095
0.87689453 -7.7200584 -0.39856032 0.96935958
0.48791015 -7.7548923 -0.39858565 0.96935755
0.39042968 -7.760498 -0.398592 0.96935719
0.09765625 -7.7700682 -0.39861098 0.96935576
-0.097617187 -7.7703223 -0.39862368 0.96935475
-0.19527343 -7.7685938 -0.39863002 0.96935433
-0.29289061 -7.7656641 -0.3986364 0.9693538
-0.68275392 -7.7416406 -0.39866167 0.96935183
-0.77998048 -7.7325683 -0.39866796 0.96935141
-0.97408199 -7.7107711 -0.3986806 0.96935046
-1.3603905 -7.6525683 -0.39870563 0.96934855
-1.6479101 -7.5961914 -0.39872423 0.96934718
-1.8383398 -7.5526266 -0.39873657 0.96934623
-1.9331249 -7.5290527 -0.39874271 0.96934575
-2.0275977 -7.5042772 -0.39874882 0.96934533
-2.3091211 -7.4228611 -0.39876699 0.9693439
-2.4022362 -7.3933692 -0.39877304 0.96934348
-2.587373 -7.3309078 -0.39878502 0.96934247
-2.7708592 -7.2637691 -0.39879683 0.96934164
-2.8619628 -7.2285056 -0.39880276 0.9693411
-3.221709 -7.0759668 -0.39882594 0.96933949
-3.3986034 -6.9929786 -0.39883736 0.9693386
-3.5733788 -6.9055567 -0.39884865 0.9693377
-3.8312695 -6.7662497 -0.39886522 0.96933645
-3.916045 -6.7176461 -0.39887068 0.96933609
-4.0002146 -6.6679883 -0.3988761 0.96933573
-4.0837302 -6.6172948 -0.39888149 0.96933532
-4.2488575 -6.512754 -0.39889207 0.96933448
-4.33041 -6.4589548 -0.39889735 0.96933401
-4.4112792 -6.4041114 -0.39890254 0.96933365
-4.4914746 -6.3482423 -0.39890769 0.96933329
-4.5709567 -6.2913866 -0.39891282 0.96933287
-4.6496973 -6.2335253 -0.39891788 0.96933252
-4.7277145 -6.1746874 -0.39892286 0.96933216
-4.8815427 -6.0540719 -0.39893273 0.96933132
-5.0322361 -5.9296384 -0.39894238 0.96933067
-5.1798143 -5.8014355 -0.39895186 0.96932989
-5.3949704 -5.6022754 -0.3989656 0.96932888
-5.5341601 -5.4650583 -0.39897448 0.96932822
-5.6024609 -5.3951464 -0.39897886 0.96932787
-5.6698923 -5.3243747 -0.39898318 0.96932751
-1.0294336 -0.94264644 -0.071601443 0.994425
-1.0300488 -0.85211915 -0.068575054 0.99465996
-1.0301758 -0.83064449 -0.06788376 0.99471372
-1.0304297 -0.78896481 -0.066573068 0.99481553
-1.0309082 -0.71010739 -0.064214058 0.99499875
-1.0588964 -0.70993161 -0.06539692 0.9949069
-1.1503906 -0.70994139 -0.069344364 0.99460024
-1.2178222 -0.70993161 -0.072311632 0.99436992
-1.2537988 -0.70994139 -0.073910788 0.99424565
-1.3307226 -0.70994139 -0.077369191 0.99397725
-1.3719823 -0.70994139 -0.079241976 0.99383187
-1.4152832 -0.70994139 -0.081220552 0.99367827
-1.4607812 -0.70994139 -0.083314285 0.99351591
-1.5592968 -0.70993161 -0.087886348 0.99316126
-1.612705 -0.70994139 -0.090388216 0.99296737
-1.6692871 -0.70994139 -0.093051642 0.99276084
-9.2338476 -3.2589843 -0.50230241 0.96153933
-9.3861322 -2.7909667 -0.50231177 0.96153849
-9.4204779 -2.672832 -0.50231391 0.96153843
-9.4533787 -2.5542579 -0.50231588 0.9615382
-9.6414251 -1.7139159 -0.5023272 0.96153742
-9.6622162 -1.5926465 -0.50232846 0.96153736
-9.7154589 -1.2273339 -0.50233155 0.961537
-9.7432613 -0.98279297 -0.50233305 0.96153694
-9.7803707 -0.4920117 -0.50233495 0.96153677
-9.7896681 -0.24607421 -0.50233531 0.96153671
-9.2890234 1.953125e-05 -0.50230253 0.96347344
-9.2824221 0.3501074 -0.50230169 0.96347344
-9.2707033 0.58327144 -0.50230068 0.96347338
-9.2626076 0.69971681 -0.50230002 0.9634735
-9.2531052 0.81605464 -0.50229931 0.96347344
-9.215703 1.1642284 -0.50229651 0.96347368
-9.2003126 1.2799317 -0.50229537 0.96347386
-9.1834764 1.3954492 -0.50229412 0.96347392
-9.1242771 1.7405566 -0.50228995 0.96347427
-9.0775976 1.9692968 -0.50228667 0.96347445
-9.025176 2.1967773 -0.50228304 0.96347475
-8.9968262 2.3099999 -0.50228107 0.96347487
-8.9032326 2.6474218 -0.50227463 0.96347541
-1.7877148 0.65635741 -0.10297985 0.99240029
-1.7877831 0.68200195 -0.1034703 0.99236429
-1.6692675 0.70996094 -0.0980912 0.99275982
-1.612705 0.70996094 -0.095283471 0.99296629
-1.5087206 0.70996094 -0.090164676 0.99334282
-1.4152539 0.70996094 -0.085619159 0.99367744
-1.3719531 0.70996094 -0.083533511 0.99383104
-1.3307226 0.70996094 -0.081559293 0.99397635
-1.2537988 0.70995116 -0.077913739 0.99424481
-1.1834179 0.70996094 -0.074625395 0.99448699
-1.1503906 0.70996094 -0.073100016 0.9945994
-1.1186913 0.70996094 -0.071646616 0.99470651
-1.0882324 0.70995116 -0.070261039 0.99480855
-1.0589062 0.70995116 -0.068938784 0.99490607
-1.0306543 0.70996094 -0.067675434 0.99499917
-1.0300976 0.72882813 -0.068235323 0.99495792
-1.0295995 0.80906248 -0.070807986 0.99476826
-1.0294628 0.8300879 -0.071510084 0.99471653
-1.0286816 0.94197261 -0.075423583 0.99442816
-5.3760252 5.0484376 -0.39879194 0.97088963
-5.3120995 5.1155272 -0.39878771 0.97088999
-5.1817384 5.2472949 -0.39877909 0.97089064
-5.1153417 5.3119531 -0.39877471 0.97089088
-4.8417773 5.5620117 -0.39875671 0.97089213
-4.7003512 5.681787 -0.39874735 0.97089291
-4.6285157 5.7403321 -0.39874262 0.97089326
-4.5559959 5.7979784 -0.39873785 0.9708935
-4.2586818 6.0192575 -0.39871833 0.97089505
-3.9506934 6.2253222 -0.39869806 0.97089642
-3.8721092 6.274404 -0.39869294 0.97089672
-3.7131054 6.3695602 -0.39868248 0.9708975
-2.4087596 4.2540236 -0.2643519 0.98060739
-2.2788575 4.271533 -0.26179788 0.98079294
-2.2046874 4.2605176 -0.25939956 0.98096681
-2.1351855 4.2564845 -0.25750396 0.98110497
-2.8851073 6.7837987 -0.39862823 0.97090137
-2.7995996 6.8194041 -0.39862266 0.97090185
-2.7136426 6.8539352 -0.398617 0.97090232
-2.540498 6.919775 -0.39860573 0.97090304
-2.2777734 7.0103221 -0.39858857 0.97090429
-2.1894629 7.038281 -0.39858276 0.97090471
-2.1008203 7.0651464 -0.398577 0.97090507
-2.0118456 7.090879 -0.39857116 0.97090554
-1.8329687 7.1389842 -0.39855948 0.97090638
-1.7430859 7.1613278 -0.39855361 0.97090685
-1.6529394 7.1825781 -0.39854774 0.97090721
-1.4718652 7.2216406 -0.39853594 0.97090805
-1.2898632 7.2561231 -0.39852408 0.97090894
-1.0154394 7.2992477 -0.39850619 0.97091025
-0.83166015 7.3222461 -0.39849421 0.97091109
-0.64736325 7.3406539 -0.39848223 0.9709118
-0.5550586 7.3480759 -0.39847624 0.97091234
-0.46267578 7.3543553 -0.39847022 0.97091275
-0.27773437 7.3634372 -0.39845815 0.97091365
-0.18515624 7.36625 -0.39845213 0.97091401
3.9062499e-05 7.3683591 -0.39844012 0.97091484
0.092617184 7.3676462 -0.39843413 0.97091538
0.27771485 7.362783 -0.39842209 0.97091621
0.3701953 7.3585935 -0.3984161 0.97091663
0.64726561 7.3391013 -0.39839813 0.97091788
0.92339844 7.3091407 -0.39838019 0.97091919
1.0151367 7.2968454 -0.39837423 0.97091967
1.1067578 7.2834177 -0.3983683 0.97092003
1.1981446 7.2688184 -0.39836237 0.9709205
1.2893749 7.2530761 -0.39835647 0.97092098
1.6520703 7.1787305 -0.39833301 0.97092259
1.7421484 7.1572752 -0.39832717 0.97092307
1.9213672 7.1110449 -0.39831558 0.97092384
2.2760937 7.0051169 -0.3982926 0.97092551
2.4513671 6.9455075 -0.39828131 0.97092634
2.6250391 6.8815331 -0.3982701 0.97092712
2.7113085 6.8479004 -0.3982645 0.97092748
2.7970898 6.8131738 -0.39825895 0.97092795
2.9673243 6.7405467 -0.39824799 0.97092879
3.1357031 6.663691 -0.39823714 0.97092944
3.3020701 6.5826073 -0.39822638 0.97093028
3.3844922 6.5404882 -0.39822108 0.9709307
3.5476756 6.4531932 -0.39821059 0.97093147
3.788203 6.3146386 -0.39819512 0.97093272
4.1005468 6.116045 -0.39817503 0.97093391
4.177031 6.0639648 -0.39817008 0.97093427
4.2528124 6.0109177 -0.39816523 0.97093469
4.402422 5.9019918 -0.39815563 0.9709354
4.476172 5.8461227 -0.39815089 0.97093582
4.5492578 5.7893553 -0.39814621 0.97093606
4.621582 5.7316794 -0.39814153 0.97093642
4.8341403 5.5532322 -0.39812794 0.97093743
4.9035153 5.4919825 -0.3981235 0.97093767
5.0398827 5.3669138 -0.39811477 0.97093827
5.1730466 5.2384667 -0.39810625 0.9709388
5.302949 5.106699 -0.39809793 0.97093946
5.4914842 4.9030466 -0.39808592 0.97094035
5.552578 4.8336034 -0.39808205 0.97094071
5.6128125 4.7633982 -0.39807817 0.97094101
5.6721873 4.692451 -0.39807442 0.97094125
5.7882614 4.5483494 -0.398067 0.9709416
5.8448825 4.475215 -0.39806342 0.9709419
1.2591015 0.86730468 -0.082673907 0.99389416
1.2593359 0.82160157 -0.081309929 0.99399471
1.2596484 0.77735353 -0.080039293 0.99408811
1.3307421 0.70995116 -0.081559256 0.99397629
1.3719921 0.70996094 -0.08353325 0.99383086
1.4152734 0.70996094 -0.08561939 0.99367738
1.4608203 0.70995116 -0.087826349 0.99351484
1.5087304 0.70996094 -0.090164527 0.99334282
1.6127148 0.70996094 -0.095283389 0.99296629
1.6692969 0.70996094 -0.098091125 0.99275976
1.7293164 0.70995116 -0.10108589 0.99253953
1.9337499 0.70996094 -0.11139156 0.99178207
2.0241797 0.71441406 -0.11607201 0.99143809
2.0241601 0.68593746 -0.11556862 0.99147516
2.0241601 0.65770507 -0.115088 0.99151045
8.8489447 2.7527442 -0.50112092 0.96355754
8.9152536 2.5294921 -0.50111687 0.96355784
8.9759369 2.3046386 -0.50111318 0.96355808
9.0802736 1.8507129 -0.50110686 0.96355861
9.123867 1.6219336 -0.5011043 0.96355879
9.2200384 0.93004882 -0.50109875 0.96355909
9.248476 0.58187497 -0.50109726 0.96355933
9.2601557 0.34927735 -0.50109679 0.96355945
9.2638474 0.23289062 -0.50109667 0.96355927
9.2660542 0.11645508 -0.50109667 0.96355927
9.266758 1.953125e-05 -0.50109673 0.96355933
9.2660542 -0.11643554 -0.5010969 0.96355927
9.2551174 -0.46559569 -0.50109798 0.96355909
9.2485352 -0.5818457 -0.50109857 0.96355909
9.2310152 -0.81408203 -0.50109994 0.96355903
9.2200775 -0.93002927 -0.50110078 0.96355897
9.1938276 -1.1614355 -0.50110269 0.96355879
9.1617384 -1.3921191 -0.50110501 0.96355879
9.1435547 -1.5071191 -0.50110632 0.96355867
9.0803518 -1.8506933 -0.50111085 0.96355832
8.9463863 -2.4172461 -0.50112015 0.96355766
8.9153509 -2.5295019 -0.5011223 0.96355748
8.8828907 -2.6413379 -0.5011245 0.96355736
8.8490229 -2.7527635 -0.50112683 0.96355724
2.0241406 -0.68591797 -0.11556873 0.99147522
1.9337499 -0.70993161 -0.11139137 0.99178213
1.6692969 -0.70994139 -0.098091125 0.99275976
1.5087109 -0.70994139 -0.09016449 0.99334294
1.3719921 -0.70993161 -0.083533213 0.99383092
1.2599609 -0.71341795 -0.078295931 0.99421668
1.2598633 -0.73441404 -0.0788562 0.99417531
1.2597656 -0.75571287 -0.079436988 0.99413252
1.2594922 -0.79928708 -0.080663487 0.99404228
1.259375 -0.82157224 -0.081310079 0.99399465
1.2591015 -0.86727536 -0.082674064 0.99389422
1.2587891 -0.9145605 -0.084137842 0.99378651
1.2586328 -0.93883789 -0.084909365 0.99372971
5.8473825 -4.4770994 -0.39823386 0.97092974
5.7331247 -4.6227341 -0.39824146 0.97092921
5.6746483 -4.6944337 -0.3982453 0.97092897
5.5549803 -4.8356442 -0.39825323 0.97092843
5.0420508 -5.3691993 -0.39828715 0.97092599
4.9742188 -5.4322071 -0.39829162 0.97092569
4.9056249 -5.4943357 -0.39829612 0.97092539
4.5512109 -5.7918649 -0.39831951 0.97092372
4.4781642 -5.8486814 -0.39832431 0.97092324
4.404336 -5.9045606 -0.39832917 0.97092295
4.2546873 -6.013535 -0.398339 0.97092217
3.9473631 -6.2200098 -0.39835921 0.9709208
3.7102733 -6.3646188 -0.39837477 0.97091967
3.3859961 -6.5433593 -0.39839602 0.97091806
3.3035545 -6.5854588 -0.39840141 0.97091776
2.9686327 -6.7435055 -0.39842337 0.97091621
2.8837109 -6.7804003 -0.39842892 0.97091568
2.7983007 -6.8161817 -0.39843452 0.97091538
2.6262109 -6.8845215 -0.39844573 0.9709146
2.5395312 -6.9170995 -0.39845142 0.97091413
2.4524415 -6.9485545 -0.39845711 0.97091377
2.3649609 -6.9789062 -0.39846283 0.97091341
2.2771094 -7.0082126 -0.39846858 0.97091287
2.1889062 -7.0363474 -0.39847434 0.97091252
2.0114453 -7.0893455 -0.39848593 0.97091168
1.6528125 -7.1818652 -0.39850932 0.97091001
1.4718359 -7.2213573 -0.3985211 0.97090918
1.2899609 -7.256289 -0.39853299 0.97090828
1.1986718 -7.2720118 -0.39853892 0.97090793
1.0156054 -7.3000584 -0.39855087 0.97090703
0.92378902 -7.3123631 -0.39855686 0.97090662
0.092656247 -7.3708887 -0.39861092 0.97090274
-0.1852539 -7.369482 -0.39862895 0.97090143
-0.27783203 -7.3666892 -0.39863497 0.97090101
-0.55531251 -7.3512988 -0.39865297 0.97089976
-0.83203125 -7.3254881 -0.39867094 0.97089839
-0.92404294 -7.31457 -0.3986769 0.97089797
-1.0158887 -7.3024902 -0.39868286 0.97089756
-1.1075878 -7.289248 -0.39868879 0.97089714
-1.1991113 -7.2748632 -0.39869475 0.97089672
-1.3816016 -7.2426462 -0.39870659 0.97089583
-1.6536621 -7.1857324 -0.3987242 0.97089463
-1.7438476 -7.1645117 -0.39873001 0.97089416
-1.8337792 -7.1421189 -0.39873585 0.9708938
-1.9234082 -7.1186328 -0.39874163 0.97089332
-2.1017578 -7.0682516 -0.3987532 0.97089249
-2.1904297 -7.0413766 -0.39875892 0.97089213
-2.2787793 -7.0133886 -0.39876464 0.97089171
-2.9714844 -6.7500391 -0.39880934 0.9708885
-3.0561035 -6.7122555 -0.3988148 0.97088808
-3.2239161 -6.6335154 -0.39882565 0.9708873
-3.4717674 -6.5075488 -0.39884162 0.97088623
-3.6343067 -6.4183984 -0.39885208 0.97088552
-3.79458 -6.3252439 -0.39886236 0.97088456
-3.9524314 -6.2280369 -0.39887252 0.97088391
-4.1845212 -6.0748534 -0.39888749 0.97088283
-4.2605662 -6.0218844 -0.39889234 0.97088248
-4.6305466 -5.7428122 -0.3989161 0.97088081
-4.7735157 -5.6247559 -0.39892527 0.97088015
-4.982285 -5.4410157 -0.39893863 0.9708792
-5.050293 -5.378037 -0.39894298 0.97087896
-5.1175489 -5.314199 -0.3989473 0.97087866
-5.1839843 -5.2495508 -0.39895156 0.97087824
-5.3143845 -5.1177049 -0.39895985 0.97087771
-1.0286816 -0.94195312 -0.075423583 0.99442822
-1.0288379 -0.91860348 -0.074583665 0.99449015
-1.0291504 -0.8734082 -0.07299152 0.99460745
-1.0293164 -0.8515234 -0.072237663 0.99466294
