# .PCD v0.7 - Point Cloud Data file format
VERSION 0.7
FIELDS x y z intensity
SIZE 4 4 4 4
TYPE F F F F
COUNT 1 1 1 1
WIDTH 1085
HEIGHT 1
VIEWPOINT 0 0 0 1 0 0 0
POINTS 1085
DATA ascii
-6.9074802 7.9349608 -0.33528 0.95877141
-6.7324414 7.9330173 -0.33159709 0.95921499
-5.910615 7.9239354 -0.31504971 0.96121007
-5.6039062 7.920537 -0.30921653 0.96191448
-5.4547262 7.9188962 -0.30645287 0.96224844
-5.1641016 7.9156933 -0.30120921 0.96288222
-2.569248 4.2827344 -0.15916641 0.98021114
-2.3528125 4.4101171 -0.15930134 0.98019469
-2.3385351 4.5192285 -0.16216755 0.97984189
-3.9641407 7.9024315 -0.28175977 0.96523678
-3.839951 7.9010739 -0.27996764 0.96545392
-3.5961523 7.8983984 -0.27658212 0.96586448
-3.4764159 7.8970699 -0.27498367 0.96605831
-3.358037 7.895752 -0.2734473 0.96624476
-3.1251171 7.8931637 -0.27055195 0.96659619
-2.8969433 7.8906541 -0.26788494 0.9669199
-2.784492 7.8894043 -0.26663333 0.96707189
-2.5626268 7.8869529 -0.26429 0.9673565
-2.4531152 7.8857517 -0.26319531 0.96748942
-2.3444922 7.884541 -0.26215169 0.96761632
-1.9179882 7.8798437 -0.2584601 0.96806496
-1.8131347 7.8786716 -0.25765416 0.96816295
-1.6053418 7.8763866 -0.25617906 0.9683423
-1.3997852 7.8741112 -0.25488007 0.96850032
-1.2977344 7.8729882 -0.2542955 0.96857136
-1.0949805 7.8707418 -0.253254 0.96869808
-0.99417967 7.8696189 -0.25279596 0.96875381
-0.89374995 7.8685055 -0.25237963 0.96880448
-0.79361326 7.8674216 -0.25200436 0.96885002
-0.59417969 7.8652148 -0.25137499 0.96892649
-0.39558592 7.862998 -0.25090781 0.96898341
-0.19761719 7.8608298 -0.25060126 0.96902078
-0.098769531 7.8597264 -0.25050706 0.96903229
0 7.8586426 -0.2504535 0.9690389
0.39509764 7.8542771 -0.25063008 0.96901733
0.69238281 7.850986 -0.25118005 0.96895039
0.79179686 7.8499022 -0.25144345 0.96891832
1.0915625 7.8465719 -0.25247544 0.96879268
1.1921093 7.8454685 -0.25290284 0.96874082
1.2930077 7.8443651 -0.25337064 0.96868384
1.5980859 7.8409762 -0.25502703 0.96848243
1.7007421 7.8398533 -0.25566518 0.96840477
1.8039062 7.8387008 -0.256347 0.96832192
2.0119922 7.8364158 -0.25784403 0.96813983
2.6530859 7.8293161 -0.26345551 0.96745801
2.9851756 7.825654 -0.26693085 0.96703583
3.0978515 7.8244042 -0.26819441 0.96688235
3.2116797 7.823154 -0.26951429 0.96672213
3.4427342 7.8206053 -0.27232075 0.96638137
3.678828 7.8179879 -0.27536413 0.9660123
3.7988865 7.8166795 -0.27697742 0.96581662
3.9204297 7.8153219 -0.27865288 0.96561331
4.4221091 7.8097949 -0.28602669 0.96471977
4.9524412 7.803906 -0.29456371 0.96368617
5.2300391 7.8008494 -0.2993159 0.96311116
5.3723044 7.7992673 -0.30182213 0.96280807
5.5169139 7.7976756 -0.30442032 0.96249419
5.8139453 7.7943945 -0.30989829 0.96183205
6.1220312 7.7909861 -0.31578323 0.96112174
6.2805662 7.789238 -0.31888571 0.9607473
6.9479294 7.7818456 -0.33247319 0.95910954
7.1239061 7.7799215 -0.33618727 0.95866209
7.303906 7.7779198 -0.34004176 0.95819825
7.8698826 7.7716699 -0.35249618 0.95670104
8.2712107 7.7672262 -0.36161169 0.95560658
9.6144333 7.7523923 -0.39361113 0.95177424
1.2655078 0.94398433 -0.050316162 0.99370152
1.265664 0.89550781 -0.049412686 0.99381435
1.2658007 0.87191403 -0.048984565 0.99386764
1.2659179 0.82588863 -0.04817215 0.9939692
1.2661718 0.75958985 -0.047056884 0.99410826
1.26625 0.73816407 -0.04671108 0.99415141
1.4607617 0.70995116 -0.051762085 0.99352121
1.5087109 0.70994139 -0.053140335 0.99334925
1.5592773 0.70995116 -0.05460247 0.9931668
1.6127148 0.70996094 -0.056157034 0.99297297
1.6692773 0.70995116 -0.057811812 0.99276668
1.7293164 0.70995116 -0.059576683 0.99254662
1.8610938 0.70995116 -0.063482553 0.99206001
1.9337695 0.70996094 -0.06565056 0.99178982
15.370937 3.5373828 -0.50267559 0.93882805
15.414257 3.343955 -0.50267869 0.93882775
15.493554 2.9555664 -0.50268441 0.93882728
15.529609 2.7606738 -0.50268704 0.93882674
15.563144 2.5653124 -0.50268948 0.93882644
15.62289 2.1734276 -0.50269383 0.93882573
15.648984 1.9769434 -0.5026958 0.93882567
15.71252 1.3857226 -0.50270069 0.93882513
15.728769 1.1881835 -0.502702 0.93882483
15.742499 0.99044919 -0.50270307 0.93882465
15.753711 0.79252928 -0.50270402 0.93882465
15.76248 0.59453124 -0.50270486 0.93882442
15.768691 0.39640623 -0.50270551 0.93882447
15.773671 1.953125e-05 -0.50270623 0.93882447
15.7725 -0.19820312 -0.50270635 0.93882424
15.75375 -0.79251951 -0.50270575 0.93882447
15.712617 -1.3857129 -0.50270361 0.93882477
15.693965 -1.5830566 -0.50270259 0.93882471
15.672773 -1.7801465 -0.5027014 0.93882495
15.649101 -1.9769238 -0.50270003 0.93882525
15.622969 -2.1734083 -0.50269848 0.93882543
15.529804 -2.7606738 -0.50269294 0.93882602
15.414453 -3.3439746 -0.50268584 0.93882704
15.371211 -3.5373926 -0.50268316 0.93882704
15.32541 -3.7302539 -0.50268036 0.93882757
15.277266 -3.9225292 -0.50267732 0.93882781
14.71666 -4.3760252 -0.48931491 0.94040453
14.043789 -4.3687892 -0.46873209 0.94283837
2.0101757 -0.65314454 -0.067360722 0.99157691
2.0103905 -0.70953125 -0.067943916 0.99150425
1.9337499 -0.70994139 -0.065650329 0.99178988
1.8611132 -0.70994139 -0.063482858 0.99205995
1.7931249 -0.70995116 -0.061462782 0.9923116
1.6692773 -0.70994139 -0.057811849 0.99276668
1.3307421 -0.70994139 -0.048068311 0.99398202
1.266289 -0.71701169 -0.046377409 0.9941932
1.26625 -0.73814452 -0.046711005 0.99415141
1.2661718 -0.75958008 -0.047056846 0.99410832
1.2660156 -0.80344725 -0.047786903 0.99401718
1.2659374 -0.82587886 -0.048172072 0.99396914
1.2657031 -0.89549804 -0.049412686 0.99381423
1.2655274 -0.94396484 -0.050316352 0.99370146
9.3299017 -8.3301268 -0.39861479 0.95117664
9.0942965 -8.3275385 -0.39299095 0.95184875
8.4253902 -8.3201466 -0.37737545 0.95371681
8.2139845 -8.3177929 -0.37255877 0.95429391
7.231328 -8.3069429 -0.35100245 0.95688087
7.0480857 -8.3049116 -0.34714526 0.95734429
6.8688278 -8.3029299 -0.34342772 0.95779127
6.5213671 -8.2990913 -0.33638218 0.9586392
6.35291 -8.2972364 -0.3330439 0.959041
6.1877341 -8.2954102 -0.32982281 0.95942891
5.7104492 -8.2901459 -0.32082298 0.96051401
5.5570507 -8.2884474 -0.31802872 0.96085089
5.2579298 -8.2851362 -0.31273195 0.96149033
5.1120114 -8.2835445 -0.31022185 0.96179342
4.9684176 -8.2819433 -0.30779973 0.96208608
4.6877537 -8.2788382 -0.3032091 0.96264082
4.4151759 -8.2758303 -0.29893926 0.96315706
4.2817187 -8.2743654 -0.29691851 0.96340138
4.149961 -8.2729006 -0.29497242 0.96363705
4.0199609 -8.2714643 -0.29309559 0.96386403
3.8916211 -8.2700386 -0.29128888 0.96408266
3.5154881 -8.2658787 -0.28626975 0.96469063
3.0327539 -8.2605371 -0.28044644 0.96539634
2.6827343 -8.25667 -0.27668333 0.96585274
2.568125 -8.2554007 -0.27553707 0.96599168
2.454375 -8.2541409 -0.27444431 0.9661243
2.2295702 -8.2516794 -0.27241063 0.96637076
2.00791 -8.2492085 -0.27057844 0.96659327
1.7890429 -8.2467775 -0.26893941 0.96679235
1.5727344 -8.2443943 -0.26748785 0.96696854
1.3585352 -8.2420311 -0.26621926 0.96712267
1.0407617 -8.2385254 -0.26464882 0.96731329
0.72624999 -8.2350388 -0.26347199 0.96745652
0.62199217 -8.2338867 -0.26316333 0.96749389
0.20683593 -8.2293158 -0.26235226 0.96759236
0.10339843 -8.2281637 -0.2622526 0.9676044
-0.20677733 -8.2247458 -0.26220652 0.96761006
-0.3101953 -8.2235842 -0.26227355 0.96760201
-0.62097657 -8.2201557 -0.26272413 0.96754724
-0.72488278 -8.2190132 -0.26295766 0.96751881
-0.82896483 -8.2178802 -0.26323345 0.96748525
-0.93330073 -8.2167091 -0.26355141 0.96744668
-1.0378906 -8.2155561 -0.26391095 0.96740288
-1.1427832 -8.2144041 -0.26431516 0.96735388
-1.2480469 -8.213232 -0.26476142 0.9672997
-1.4596484 -8.2108889 -0.26578519 0.96717542
-1.5661328 -8.2097263 -0.26636329 0.96710515
-1.6730468 -8.2085447 -0.26698613 0.96702951
-1.780498 -8.2073431 -0.26765415 0.96694845
-1.9971484 -8.2049608 -0.26912844 0.96676946
-2.1063867 -8.2037592 -0.26993498 0.96667141
-2.3269532 -8.2013178 -0.27169392 0.96645796
-2.4383593 -8.200078 -0.27264619 0.96634233
-2.5505664 -8.1988478 -0.27365011 0.96622062
-2.6635938 -8.1975975 -0.2747032 0.96609277
-2.8924022 -8.1950684 -0.27696821 0.96581811
-3.0082715 -8.193779 -0.27817875 0.96567112
-3.1251562 -8.1924801 -0.27944893 0.96551746
-3.2431445 -8.1911812 -0.28077069 0.96535701
-3.3622949 -8.1898727 -0.28215215 0.96518958
-3.4826171 -8.1885347 -0.28359106 0.96501511
-3.6041992 -8.1872072 -0.28509125 0.96483338
-3.7271092 -8.1858492 -0.28665185 0.96464425
-3.851367 -8.1844721 -0.28827646 0.96444756
-4.4955955 -8.1773634 -0.29739925 0.9633432
-4.7652926 -8.1743746 -0.30155185 0.96284097
-4.9030271 -8.1728611 -0.30374581 0.96257585
-5.0428419 -8.1713181 -0.30601838 0.96230102
-5.1847167 -8.1697454 -0.30837649 0.96201628
-5.328877 -8.1681538 -0.31081969 0.96172118
-5.4753613 -8.166543 -0.31335077 0.96141535
-5.7756834 -8.1632223 -0.31869492 0.96077055
-6.0866013 -8.1597748 -0.32443121 0.96007878
-6.4091501 -8.1562109 -0.33059004 0.95933646
-6.5751367 -8.1543846 -0.33383921 0.95894516
-6.7444139 -8.1525192 -0.3372052 0.95853978
-6.9171481 -8.1506052 -0.34069544 0.95811993
-7.093574 -8.1486616 -0.34431267 0.9576847
-7.2737889 -8.1466694 -0.34806299 0.95723379
-7.4580078 -8.1446285 -0.35195351 0.95676637
-7.6464453 -8.1425486 -0.35598773 0.95628172
-8.0366602 -8.1382322 -0.3645159 0.95525819
-8.2389355 -8.1359863 -0.36902541 0.95471758
-8.6591015 -8.1313572 -0.37856713 0.95357406
-1.0348047 -0.94754881 -0.044716492 0.9944005
-1.035 -0.90096676 -0.043732412 0.99452341
-1.0352539 -0.83475584 -0.042383231 0.99469191
-1.0353711 -0.81355464 -0.041964721 0.99474412
-1.0354297 -0.7927832 -0.041560896 0.99479461
-1.0355859 -0.75238281 -0.040794831 0.99489033
-1.0589062 -0.70994139 -0.040630188 0.9949109
-1.0882422 -0.70994139 -0.041409682 0.9948135
-1.1834375 -0.70994139 -0.043981817 0.99449223
-1.2178613 -0.70995116 -0.044926453 0.99437428
-1.3719823 -0.70995116 -0.04923214 0.99383676
-1.4607812 -0.70993161 -0.051762044 0.99352115
-1.6693066 -0.70995116 -0.057811737 0.99276656
-1.7809374 -0.67936522 -0.060747754 0.99240071
-1.7808985 -0.65381837 -0.060461309 0.99243641
-11.76999 -4.1540818 -0.39778537 0.95127553
-12.366796 -4.0182033 -0.41441208 0.94929159
-12.888398 -4.009336 -0.43016788 0.94741517
-13.458047 -4.0017772 -0.44746643 0.94535935
-14.075507 -3.9935644 -0.46629092 0.94312727
-15.263281 -3.7151463 -0.50064194 0.93906784
-15.351708 -3.3303614 -0.50063562 0.93906826
-15.392178 -3.1371582 -0.5006327 0.93906891
-15.430322 -2.9434764 -0.50062996 0.93906915
-15.466015 -2.7493358 -0.5006274 0.93906945
-15.499228 -2.5547655 -0.50062501 0.93906987
-15.530068 -2.3597851 -0.50062275 0.93907005
-15.558437 -2.1644237 -0.50062066 0.93907028
-15.584346 -1.9687402 -0.5006187 0.93907046
-15.607734 -1.7727343 -0.50061697 0.93907094
-15.62872 -1.5764648 -0.5006153 0.93907118
-15.647295 -1.3799413 -0.50061387 0.93907118
-14.452783 1.953125e-05 -0.50069201 0.94379544
-14.451591 0.18162109 -0.50069189 0.94379562
-14.44251 0.54473633 -0.50069207 0.94379544
-14.424257 0.90750974 -0.5006929 0.9437955
-14.379853 1.4505175 -0.50069529 0.94379526
-14.22998 2.5296288 -0.50070417 0.94379437
-14.16207 2.8864551 -0.50070828 0.94379377
-14.124726 3.0641992 -0.50071061 0.94379359
-14.043407 3.4182324 -0.50071561 0.943793
-13.953203 3.770117 -0.50072128 0.94379246
-12.916543 4.0181251 -0.46862265 0.94729865
-12.343007 4.0105076 -0.44960743 0.94938201
-11.826103 4.0075192 -0.4325788 0.95125163
-11.351377 4.0063672 -0.4170236 0.95296276
-1.7818555 0.70549804 -0.066391446 0.99235898
-1.6693164 0.70996094 -0.062842712 0.99276584
-1.6127148 0.70996094 -0.061043967 0.99297231
-1.5592871 0.70996094 -0.059354398 0.99316609
-1.5087206 0.70996094 -0.057764739 0.99334854
-1.4152832 0.70996094 -0.05485256 0.99368274
-1.3719921 0.70995116 -0.053516272 0.99383616
-1.2913965 0.70997071 -0.051053084 0.99411905
-1.2538183 0.70995116 -0.049915962 0.9942497
-1.1504102 0.70995116 -0.046831969 0.99460399
-1.0589062 0.70995116 -0.044165917 0.99491042
-1.0350391 0.71296871 -0.043540724 0.9949823
-1.0349609 0.73225582 -0.043921087 0.99493855
-1.0348047 0.77188474 -0.044723511 0.99484628
-1.0347265 0.79225582 -0.045146484 0.99479765
-1.0345508 0.83417964 -0.046039086 0.99469507
-1.0344336 0.85578126 -0.046509895 0.99464101
-1.034336 0.87782222 -0.046997983 0.99458498
-1.0342578 0.90034175 -0.047503736 0.9945268
-1.0341406 0.92333007 -0.048027992 0.9944666
-8.255332 7.9498434 -0.39704084 0.95516539
-7.8460836 7.945322 -0.3868418 0.9562915
-7.6491699 7.9431443 -0.38202521 0.95682383
-7.269609 7.9389453 -0.37291664 0.95783114
-6.9074802 7.9349608 -0.36445636 0.95876771
-6.5611715 7.9311328 -0.35659197 0.95963925
-6.3935447 7.929287 -0.3528682 0.96005207
-6.2293262 7.9274511 -0.34927702 0.96045071
-5.910615 7.9239354 -0.3424671 0.96120656
-5.7558298 7.922236 -0.33923951 0.96156496
-5.4547262 7.9188962 -0.33312091 0.96224505
-5.3081541 7.917285 -0.33022028 0.96256751
-5.1641016 7.9156933 -0.3274208 0.96287882
-2.6309471 4.2631836 -0.1735509 0.98014903
-2.4953027 4.280488 -0.17164683 0.98036462
-2.4135058 4.2624216 -0.16969326 0.98058599
-3.839951 7.9010544 -0.3043319 0.96545082
-3.717324 7.8997068 -0.30245566 0.96566004
-3.4764159 7.8970604 -0.29891396 0.96605527
-3.358037 7.8957324 -0.29724425 0.96624178
-3.2409766 7.8944335 -0.29563731 0.96642101
-3.1251562 7.8931541 -0.29409572 0.96659315
-3.0104785 7.8918943 -0.29261649 0.96675843
-2.8969433 7.8906541 -0.29119664 0.96691692
-2.784492 7.8894043 -0.28983721 0.96706891
-2.6730664 7.8881736 -0.28853473 0.96721441
-2.2367187 7.8833494 -0.28388301 0.96773428
-1.8131347 7.8786716 -0.2800757 0.96816009
-1.7089355 7.8775191 -0.27925 0.96825254
-1.5022851 7.8752441 -0.2777414 0.9684211
-1.3997852 7.8741112 -0.27706006 0.96849746
-1.0949805 7.8707418 -0.27529243 0.96869522
-0.79361326 7.8674216 -0.27393425 0.96884722
-0.69374996 7.8663082 -0.27357152 0.96888793
-0.59417969 7.8652148 -0.27325097 0.96892369
-0.49478516 7.8641305 -0.2729761 0.9689545
-0.39558592 7.862998 -0.27274311 0.96898061
-0.29654297 7.8619332 -0.27255437 0.96900165
-0.098769531 7.8597264 -0.27230674 0.96902949
0 7.8586426 -0.27224728 0.9690361
0.098710932 7.8575387 -0.27223107 0.96903795
0.39509764 7.8542871 -0.27244112 0.96901447
0.49406248 7.8531833 -0.27259627 0.96899706
0.59314454 7.8520899 -0.27279553 0.96897471
0.69238281 7.850986 -0.27303803 0.96894759
0.99136716 7.8476954 -0.2740297 0.96883667
1.8039062 7.8387008 -0.27865463 0.96831906
1.9076562 7.8375583 -0.27944496 0.96823072
2.0119922 7.8364158 -0.28028315 0.96813691
2.2227149 7.8340816 -0.28210872 0.9679327
2.3291211 7.8329101 -0.28309879 0.96782202
2.4362891 7.8317184 -0.2841399 0.96770567
2.5442772 7.8305273 -0.28523391 0.9675833
2.6530859 7.8293161 -0.28638169 0.96745503
2.7628319 7.8281054 -0.28758433 0.96732056
2.9851756 7.825654 -0.29016072 0.96703279
3.0978515 7.8244042 -0.29153344 0.96687937
3.678828 7.8179684 -0.29932752 0.96600926
3.7988865 7.8166599 -0.30108041 0.96581358
4.1679688 7.8125777 -0.30675921 0.96518004
4.2941599 7.8111815 -0.30880064 0.96495265
4.6833982 7.8068943 -0.3153888 0.96421826
4.9524412 7.803906 -0.32019827 0.96368289
5.0901561 7.8023825 -0.32273376 0.96340042
5.5169139 7.7976756 -0.3309114 0.9624908
5.8139453 7.7943945 -0.33686727 0.96182859
6.1220312 7.7909861 -0.34326324 0.96111822
6.2805662 7.789238 -0.34663552 0.96074373
6.7758203 7.7837501 -0.35751072 0.95953739
7.1239061 7.779902 -0.36544457 0.9586584
7.303906 7.7779198 -0.36963385 0.95819449
7.4880662 7.7758884 -0.37397987 0.95771354
8.0679684 7.7694626 -0.38803163 0.95616013
8.2711716 7.7672262 -0.39307925 0.95560271
8.479804 7.7649217 -0.39832434 0.95502371
8.5905857 7.6700778 -0.39896849 0.95495278
8.6864252 7.5616503 -0.39897498 0.95495206
8.8739643 7.3411913 -0.39898771 0.95495081
8.965703 7.229238 -0.39899397 0.95494992
9.0559378 7.1161032 -0.39900008 0.95494938
9.144805 7.0018454 -0.3990061 0.95494866
1.2649219 0.87131834 -0.053212088 0.99387127
1.2651953 0.80291992 -0.051911924 0.99402046
1.2652735 0.7808398 -0.051508408 0.99406683
1.2913672 0.70996094 -0.051052894 0.99411917
1.3307421 0.70995116 -0.052251548 0.99398142
1.3719531 0.70996094 -0.053516194 0.99383628
1.4152734 0.70995116 -0.054852597 0.9936828
1.4607617 0.70995116 -0.056266479 0.99352062
1.5087109 0.70994139 -0.057764586 0.9933486
1.6127148 0.70996094 -0.061043967 0.99297231
1.6692773 0.70995116 -0.062842712 0.99276602
1.7931249 0.70995116 -0.066811711 0.99231088
1.9337695 0.70996094 -0.071363829 0.99178904
2.0125 0.71029294 -0.073934518 0.9914946
2.0123827 0.68194336 -0.073609769 0.99153179
11.876797 3.6946776 -0.43090221 0.95143616
12.387891 3.6836133 -0.44772753 0.94958818
12.906582 3.6619334 -0.46477637 0.94771993
14.177929 3.0757616 -0.50259662 0.94358796
14.215508 2.897373 -0.5025993 0.94358778
14.250977 2.7185156 -0.50260186 0.94358706
14.284003 2.5392187 -0.50260425 0.94358712
14.369785 1.999082 -0.50261056 0.94358623
14.452148 1.2745898 -0.50261682 0.94358599
14.490097 0.72897458 -0.50261992 0.94358534
14.498125 0.54682618 -0.50262064 0.94358528
14.503867 0.36459962 -0.50262123 0.94358522
14.507343 -0.18230468 -0.50262201 0.94358504
14.503906 -0.36458984 -0.50262201 0.94358504
14.498164 -0.54681641 -0.50262183 0.9435851
14.490117 -0.72896481 -0.50262147 0.94358522
14.479804 -0.91099608 -0.502621 0.94358528
14.435137 -1.4561034 -0.50261861 0.9435854
14.415703 -1.6373632 -0.50261748 0.9435854
14.393867 -1.8183692 -0.50261623 0.94358587
14.343515 -2.179502 -0.50261325 0.94358629
14.315039 -2.35958 -0.50261152 0.94358611
14.28418 -2.5392675 -0.50260967 0.94358641
14.251055 -2.7185156 -0.50260764 0.94358677
14.215703 -2.8973827 -0.5026055 0.94358701
14.138242 -3.2536817 -0.50260067 0.94358766
14.09621 -3.4310839 -0.50259811 0.94358778
14.051933 -3.6079102 -0.50259537 0.94358796
14.005351 -3.7841797 -0.50259244 0.9435885
13.905742 -4.1348925 -0.50258619 0.94358885
2.0123827 -0.68193358 -0.073609695 0.99153179
1.6692773 -0.70994139 -0.062842824 0.99276602
1.6127343 -0.70993161 -0.061043851 0.99297225
1.5592773 -0.70994139 -0.059354361 0.99316621
1.5087109 -0.70994139 -0.057764623 0.9933486
1.4607812 -0.70995116 -0.056266401 0.9935205
1.2654883 -0.71656251 -0.050381508 0.9941963
1.2651953 -0.80292964 -0.051911771 0.99402046
1.2651172 -0.82534176 -0.052329902 0.99397248
1.2649413 -0.87131834 -0.053211972 0.99387121
1.2648437 -0.89490235 -0.05367687 0.99381781
1.2647461 -0.91889644 -0.054158669 0.99376255
9.0599995 -7.1192675 -0.39917663 0.95492971
8.7848244 -7.4553318 -0.39915863 0.95493174
8.5944338 -7.6735253 -0.3991462 0.95493305
8.4972067 -7.7808104 -0.39913982 0.95493364
8.398613 -7.8868065 -0.39913332 0.95493454
8.2986908 -7.991611 -0.3991268 0.95493525
8.1975002 -8.0951166 -0.39912018 0.95493591
7.9912109 -8.2982712 -0.39910665 0.95493746
7.8067183 -8.3133001 -0.39508143 0.95538187
7.6104488 -8.3111324 -0.39040247 0.9558984
6.8688278 -8.3029299 -0.37331337 0.95778751
6.6933007 -8.3009958 -0.36941588 0.95821899
6.5213866 -8.2991018 -0.36565474 0.95863539
6.1877341 -8.2954102 -0.35852569 0.95942527
5.8666406 -8.2918749 -0.35188705 0.96016133
5.7104492 -8.2901459 -0.34874132 0.96051043
5.4062109 -8.2867775 -0.34277403 0.96117282
4.9684176 -8.2819433 -0.33458498 0.96208262
4.8270507 -8.2803802 -0.33204499 0.96236497
4.6877537 -8.2788382 -0.32959479 0.96263748
4.4151759 -8.2758303 -0.32495436 0.96315372
4.1500001 -8.2729006 -0.3206414 0.96363372
4.0199609 -8.2714643 -0.3186022 0.96386075
3.6393945 -8.2672558 -0.31293046 0.96449256
3.39291 -8.2645407 -0.30950135 0.96487468
3.1516016 -8.2618551 -0.30633786 0.96522748
3.0327539 -8.2605562 -0.30485144 0.96539319
2.915 -8.2592573 -0.30342796 0.96555203
2.7983594 -8.2579584 -0.30206418 0.96570414
2.5681055 -8.2554293 -0.29951465 0.96598852
2.0078905 -8.2492285 -0.29412672 0.96659017
1.6806054 -8.2455854 -0.29152992 0.96688026
1.3585352 -8.2420311 -0.28938708 0.96711969
1.1462696 -8.2396975 -0.28820205 0.96725208
0.93562496 -8.2373533 -0.28720725 0.9673633
0.72624999 -8.2350388 -0.28639868 0.9674536
0.62199217 -8.2338867 -0.28606412 0.96749097
0.31042969 -8.2304592 -0.28533486 0.96757239
0.20683593 -8.2293158 -0.28518257 0.96758944
-0.41367185 -8.2224512 -0.28521502 0.9675858
-0.51726562 -8.2213182 -0.2853792 0.9675675
-0.93330073 -8.2167091 -0.2864871 0.9674437
-1.0378906 -8.2155466 -0.28687787 0.96739995
-1.4596484 -8.2108889 -0.28891408 0.96717244
-1.5661328 -8.2097263 -0.28954345 0.96710217
-1.780498 -8.2073431 -0.29094586 0.96694547
-2.326992 -8.2013283 -0.29533732 0.96645486
-2.4383593 -8.2000875 -0.2963742 0.96633929
-2.5505664 -8.1988573 -0.29746261 0.96621752
-2.6635938 -8.197607 -0.29860947 0.96608967
-3.1251757 -8.1925001 -0.30376571 0.96551424
-3.4826171 -8.1885443 -0.30826962 0.96501195
-3.6041992 -8.1872168 -0.30990145 0.96483016
-3.851367 -8.1844826 -0.31336269 0.96444428
-3.9770703 -8.1830959 -0.31519881 0.96423978
-4.2330565 -8.180254 -0.31908715 0.96380669
-4.3634763 -8.1788378 -0.32114425 0.96357751
-4.6295018 -8.1758785 -0.32549515 0.96309334
-4.7652926 -8.1743746 -0.32779461 0.96283764
-5.1847167 -8.1697454 -0.33521178 0.96201289
-5.328877 -8.1681538 -0.33786881 0.96171772
-5.624238 -8.1649017 -0.34347251 0.96109515
-5.7756834 -8.1632223 -0.34642819 0.96076703
-5.9297657 -8.1615133 -0.34948978 0.96042717
-6.5751171 -8.1543751 -0.36289024 0.95894152
-6.7444139 -8.1525192 -0.36655065 0.95853609
-6.9171481 -8.1506052 -0.37034333 0.95811617
-7.093574 -8.1486721 -0.37427655 0.95768088
-7.4580078 -8.144619 -0.38258108 0.95676249
-7.8392577 -8.14042 -0.39151701 0.95577526
-8.0366602 -8.1382322 -0.39623785 0.95525414
-8.2757616 -7.969492 -0.39802229 0.95505702
-8.3750782 -7.8647165 -0.39801559 0.95505786
-1.0341406 -0.92332029 -0.048028067 0.99446666
-1.0344532 -0.85576171 -0.046510007 0.99464101
-1.0345508 -0.83416015 -0.046039276 0.99469513
-1.0347265 -0.79223633 -0.045146674 0.99479771
-1.0348828 -0.75188476 -0.044315148 0.99489325
-1.0349414 -0.73223633 -0.043920975 0.99493867
-1.0350391 -0.71294922 -0.043540381 0.9949823
-1.0589062 -0.70994139 -0.044165876 0.99491042
-1.0882422 -0.70994139 -0.045013122 0.99481302
-1.1503906 -0.70994139 -0.046832122 0.99460411
-1.2178613 -0.70995116 -0.048836134 0.99437374
-1.3307226 -0.70993161 -0.052251622 0.99398154
-1.3719823 -0.70995116 -0.053516347 0.99383622
-1.4152832 -0.70994139 -0.054852713 0.9936828
-1.4607812 -0.70993161 -0.056266516 0.99352056
-1.5087304 -0.70994139 -0.057764512 0.99334854
-1.6127245 -0.70995116 -0.061044045 0.99297225
-1.6693066 -0.70995116 -0.062842786 0.9927659
-1.7293261 -0.70995116 -0.064761616 0.9925459
-1.7818457 -0.70545894 -0.066391222 0.9923591
-11.871406 -4.0228515 -0.4342362 0.95106959
-12.888398 -4.009336 -0.46760115 0.94741046
-13.999687 -3.594502 -0.50072598 0.94379169
-14.08539 -3.2414942 -0.50071996 0.94379252
-14.124912 -3.0642285 -0.5007171 0.94379288
-14.230175 -2.5296385 -0.50070953 0.94379359
-14.260742 -2.350625 -0.50070733 0.94379395
-14.315225 -1.9914745 -0.50070328 0.94379431
-14.339043 -1.8114355 -0.50070149 0.94379461
-14.360624 -1.6310937 -0.50069988 0.94379479
-14.37999 -1.450498 -0.50069839 0.94379479
-14.39704 -1.2696972 -0.50069708 0.94379491
-14.411806 -1.0886718 -0.50069588 0.94379514
-14.43456 -0.72616208 -0.50069398 0.94379532
-14.451631 -0.18158203 -0.50069231 0.9437955
-13.379004 0.33634764 -0.50076318 0.9478392
-13.37372 0.50443357 -0.50076336 0.9478392
-13.345263 1.0081249 -0.50076473 0.94783902
-13.315702 1.3431835 -0.50076634 0.94783902
-13.297773 1.5103906 -0.50076735 0.94783902
-13.231552 2.0105665 -0.50077122 0.94783843
-13.205273 2.1766503 -0.50077283 0.94783837
-13.176894 2.3424315 -0.5007745 0.94783831
-13.114003 2.6728516 -0.50077838 0.94783777
-13.042773 3.0015917 -0.50078279 0.94783741
-12.920586 3.4911034 -0.50079042 0.94783658
-12.828906 3.8147168 -0.50079614 0.9478361
-12.780058 3.9756737 -0.50079924 0.94783568
-12.343027 4.010498 -0.48560977 0.94937706
-11.81416 4.0034766 -0.46674544 0.9512949
-1.782666 0.6800195 -0.071390077 0.99239188
-1.6693164 0.70996094 -0.067874752 0.99276513
-1.4608008 0.70996094 -0.060771864 0.99351978
-1.4152832 0.70996094 -0.059244879 0.99368215
-1.2538183 0.70995116 -0.053912848 0.99424911
-1.1834179 0.70996094 -0.051637456 0.99449116
-1.0589062 0.70995116 -0.047702447 0.99490994
-1.034336 0.7124902 -0.046995658 0.99498516
-1.0342578 0.73176754 -0.047406156 0.99494147
-1.0341797 0.75137693 -0.047831193 0.99489623
-1.0341015 0.77135742 -0.048271637 0.99484932
-1.0340039 0.79170895 -0.048727989 0.99480075
-1.0339062 0.81244141 -0.049201012 0.99475044
-1.033789 0.8336035 -0.049690779 0.99469835
-1.033711 0.85516602 -0.050198592 0.99464428
-1.0333984 0.92266601 -0.05183582 0.99447
-7.751533 7.2791696 -0.3978799 0.95832914
-7.5664062 7.4719138 -0.39789203 0.95832777
-6.7324414 7.9330173 -0.38931635 0.9592073
-6.2293262 7.9274511 -0.37724373 0.96044683
-5.910615 7.9239354 -0.3698886 0.9612028
-5.7558298 7.922246 -0.36640403 0.96156114
-5.1641016 7.9156933 -0.3536388 0.96287519
-5.0224509 7.9141212 -0.35072112 0.96317577
-2.6302245 4.2620411 -0.18739727 0.98015237
-2.5675488 4.279912 -0.18674968 0.98022032
-2.4944921 4.2790918 -0.18533055 0.98036903
-2.4126756 4.2609277 -0.18321663 0.98059082
-2.3499999 4.4048829 -0.18680677 0.98021424
-2.3374901 4.5172458 -0.1903118 0.97984684
-3.96416 7.9024215 -0.3308042 0.96523023
-3.717324 7.8997068 -0.32667446 0.96565664
-3.5961816 7.8983493 -0.32472396 0.96585816
-3.4764159 7.8970604 -0.32284933 0.96605194
-3.358037 7.8957324 -0.32104462 0.96623844
-3.1251562 7.8931541 -0.31764531 0.96658987
-2.784492 7.8893943 -0.31304455 0.96706569
-2.5626464 7.8869433 -0.31029338 0.96735036
-2.4531152 7.8857422 -0.309008 0.96748334
-2.0235155 7.8809958 -0.30444804 0.96795535
-1.9180077 7.8798242 -0.30344862 0.96805894
-1.708955 7.8775096 -0.30161074 0.96824944
-1.5023047 7.8752246 -0.29998228 0.96841806
-1.3997852 7.8741012 -0.29924437 0.96849436
-1.1961621 7.8718357 -0.29792279 0.96863145
-1.0949805 7.8707323 -0.29733616 0.96869218
-0.99417967 7.8695993 -0.29679862 0.96874797
-0.89374995 7.8684959 -0.2963098 0.96879858
-0.69376951 7.8662987 -0.29547647 0.96888494
-0.59417969 7.8651853 -0.29513139 0.96892077
-0.49478516 7.8641109 -0.29483345 0.96895152
-0.395625 7.862988 -0.29458287 0.96897763
-0.19761719 7.8608103 -0.29422188 0.969015
0 7.8586326 -0.2940473 0.96903306
0.098710932 7.8575487 -0.29402861 0.96903491
0.19746093 7.8564548 -0.2940585 0.96903193
0.29624999 7.8553514 -0.29413378 0.96902412
0.39509764 7.8542676 -0.29425567 0.96901149
0.49402341 7.8531637 -0.294424 0.96899408
0.59312499 7.8520703 -0.29463926 0.96897179
0.69234371 7.8509665 -0.29490119 0.96894467
0.79179686 7.8498926 -0.29520959 0.96891248
0.89144528 7.8487792 -0.29556715 0.96887559
1.0915625 7.8465524 -0.29642344 0.9687869
1.2929688 7.8443456 -0.2974731 0.968678
1.3942382 7.8432322 -0.29807171 0.96861595
1.5980859 7.8409667 -0.29941908 0.96847647
1.7007421 7.8398438 -0.30016696 0.96839881
1.9076562 7.8375487 -0.3018201 0.96822762
2.0119922 7.8364062 -0.30272633 0.96813381
2.1169922 7.8352442 -0.30368501 0.96803451
2.4362891 7.8317184 -0.30689123 0.96770245
2.7628124 7.8280859 -0.31061238 0.96731746
3.0978515 7.8244042 -0.31487757 0.96687609
3.2116797 7.8231344 -0.31642681 0.96671593
3.4427147 7.8205857 -0.31972313 0.96637511
3.560117 7.8192868 -0.3214744 0.96619415
3.678828 7.8179684 -0.32329497 0.96600592
4.0433984 7.8139548 -0.3292008 0.96539581
4.294199 7.8111815 -0.33352718 0.96494913
4.4221091 7.8097754 -0.33581245 0.96471316
4.5517969 7.8083105 -0.33818409 0.9644686
4.8168945 7.8054099 -0.34319332 0.96395183
4.9524412 7.803906 -0.34583667 0.96367931
5.0901561 7.8023825 -0.34857658 0.96339685
5.2300782 7.8008299 -0.35141575 0.96310419
5.5169139 7.7976756 -0.35740745 0.9624871
5.6641407 7.7960644 -0.36056685 0.96216172
5.9665232 7.7927051 -0.36723348 0.96147597
6.2805662 7.789238 -0.37439105 0.96073991
6.6073046 7.785625 -0.38208151 0.95994997
6.7758203 7.7837501 -0.38613808 0.95953339
7.1239061 7.779902 -0.39470735 0.95865434
7.4907422 7.5854588 -0.39889529 0.95822507
7.5855856 7.490859 -0.39890173 0.95822436
8.0415621 7.0003123 -0.39893264 0.95822132
8.3000784 6.6925387 -0.39895019 0.95821947
8.4659176 6.4820409 -0.39896145 0.95821816
1.26375 0.94268554 -0.058993947 0.99370897
1.2639062 0.91828126 -0.058455579 0.99376607
1.2641797 0.84758788 -0.056950454 0.99392617
1.2642578 0.82481444 -0.056483343 0.99397588
1.264375 0.80239254 -0.056032103 0.9940238
1.2644531 0.7803418 -0.05559719 0.99407005
1.2645313 0.758623 -0.055177268 0.9941147
1.2646484 0.73722655 -0.054772336 0.99415767
1.264707 0.71612304 -0.054381598 0.99419928
1.2913672 0.70996094 -0.055140801 0.99411857
1.3719531 0.70996094 -0.057801474 0.99383569
1.4152734 0.70995116 -0.059244841 0.99368215
1.6127148 0.70996094 -0.065931812 0.9929716
1.6692773 0.70995116 -0.067874677 0.99276531
1.7293164 0.70995116 -0.069946863 0.99254519
1.7931249 0.70996094 -0.072161518 0.99231011
1.9337695 0.70996094 -0.077078089 0.99178821
2.0145116 0.68267578 -0.079587862 0.99152201
2.0143945 0.65451169 -0.079251744 0.99155766
12.38668 3.6832128 -0.48353085 0.94958812
12.965117 3.503125 -0.50251532 0.94766164
13.008144 3.3399315 -0.50251836 0.94766152
13.049218 3.17625 -0.50252128 0.94766098
13.088124 3.0120213 -0.50252408 0.94766092
13.192539 2.5166309 -0.50253153 0.94766015
13.223203 2.3506639 -0.50253373 0.94765985
13.251719 2.1843164 -0.50253582 0.94765979
13.302558 1.8506249 -0.50253958 0.94765925
13.344941 1.515752 -0.50254273 0.94765896
13.363008 1.3479394 -0.50254416 0.94765872
13.378886 1.1799219 -0.50254536 0.94765872
13.404414 0.8433398 -0.50254744 0.9476583
13.421387 0.5062207 -0.50254893 0.94765824
13.429882 0.1687793 -0.50254983 0.94765824
13.429882 -0.16875976 -0.50255024 0.94765824
13.404433 -0.84333009 -0.50254923 0.94765824
13.392754 -1.0116992 -0.50254864 0.94765836
13.378964 -1.1799219 -0.50254792 0.94765842
13.363047 -1.3479199 -0.50254703 0.94765854
13.345058 -1.5157617 -0.50254601 0.94765854
13.324902 -1.6833105 -0.50254482 0.94765872
13.302656 -1.8506249 -0.50254357 0.9476589
13.27832 -2.0176368 -0.50254208 0.94765902
13.192754 -2.5166504 -0.50253689 0.94765931
13.159961 -2.6821971 -0.50253487 0.94765985
13.088301 -3.0120311 -0.50253052 0.94766021
12.920156 -3.6657715 -0.50251997 0.94766134
12.873008 -3.8278222 -0.50251698 0.94766158
12.823828 -3.989248 -0.50251389 0.94766182
2.0146484 -0.71103513 -0.079939306 0.9914847
1.7292968 -0.70993161 -0.069947049 0.99254531
1.5592773 -0.70994139 -0.064106867 0.99316549
1.4607812 -0.70995116 -0.060771864 0.9935199
1.2913672 -0.70994139 -0.055141028 0.99411863
1.2646874 -0.71611327 -0.054381523 0.9941994
1.264375 -0.80240232 -0.056032218 0.99402374
1.2641991 -0.84757811 -0.056950454 0.99392611
1.2641015 -0.87073243 -0.057434388 0.99387467
1.2639843 -0.8943066 -0.057935942 0.99382138
8.4696093 -6.4848728 -0.39913657 0.95820034
8.2188673 -6.7992382 -0.39912021 0.95820183
8.0451756 -7.0034471 -0.39910889 0.95820296
7.5889645 -7.4941993 -0.39907897 0.95820618
7.4941015 -7.5888672 -0.39907277 0.95820671
7.3007812 -7.7745214 -0.3990601 0.95820808
6.6933007 -8.3009958 -0.39899641 0.95821488
6.5214062 -8.2990913 -0.39493278 0.95863134
6.3529296 -8.2972364 -0.39101472 0.95903325
6.1877341 -8.2954102 -0.38723427 0.95942128
5.8666406 -8.2918749 -0.38006282 0.96015745
5.7104492 -8.2901459 -0.37666628 0.96050656
5.5570507 -8.2884474 -0.37338701 0.96084356
5.4062109 -8.2867775 -0.37022132 0.961169
5.1120114 -8.2835445 -0.36421898 0.96178627
4.9684176 -8.2819433 -0.3613764 0.96207893
4.8270507 -8.2803802 -0.3586331 0.96236128
4.5505075 -8.2773342 -0.35343337 0.96289659
4.4151759 -8.2758303 -0.35097343 0.96315014
3.764746 -8.268652 -0.33995137 0.96428645
3.6393945 -8.2672558 -0.33798695 0.9644891
3.5154881 -8.2658987 -0.33609888 0.96468389
3.39291 -8.2645407 -0.33428329 0.96487129
3.1516016 -8.2618551 -0.33086741 0.96522409
3.0327539 -8.2605562 -0.32926095 0.96538979
2.915 -8.2592573 -0.32772446 0.96554863
2.568125 -8.2554197 -0.32349807 0.96598518
2.454375 -8.2541599 -0.32221502 0.96611786
2.3415821 -8.2529001 -0.32099259 0.96624422
2.0078905 -8.2492285 -0.31767756 0.96658689
1.8981249 -8.2479982 -0.31668738 0.96668941
1.7890429 -8.2467966 -0.31575307 0.96678603
1.6805859 -8.2456055 -0.31487381 0.96687692
1.3585352 -8.2420406 -0.31255826 0.96711642
1.2521875 -8.2408686 -0.31189331 0.96718532
1.146289 -8.2396975 -0.3112784 0.96724886
1.0407422 -8.238555 -0.31071576 0.96730697
0.83078122 -8.2362204 -0.30974281 0.9674077
0.72624999 -8.2350483 -0.30933172 0.96745032
0.20683593 -8.2293358 -0.30801812 0.96758616
-0.20677733 -8.2247553 -0.30784702 0.96760392
-0.31017578 -8.2236233 -0.30792588 0.9675957
-0.4136914 -8.2224607 -0.30805331 0.96758258
-0.51726562 -8.2213278 -0.30822966 0.96756428
-0.62099606 -8.2201662 -0.30845481 0.96754104
-1.0378906 -8.2155666 -0.30984935 0.96739668
-1.1428027 -8.2144136 -0.31032178 0.96734768
-1.2480469 -8.2132416 -0.31084675 0.96729344
-1.9971484 -8.2049704 -0.31597388 0.96676314
-2.1064258 -8.2037697 -0.31692085 0.96666503
-2.3269532 -8.2013283 -0.31898606 0.96645159
-2.4383593 -8.2000875 -0.32010385 0.96633595
-2.5505664 -8.1988573 -0.3212826 0.96621418
-2.777539 -8.1963472 -0.3238177 0.96595216
-2.8924217 -8.1950874 -0.32517719 0.96581161
-3.3622949 -8.1898823 -0.33126339 0.96518296
-3.4826171 -8.1885443 -0.33295524 0.9650085
-3.6041992 -8.1872168 -0.33471423 0.9648267
-3.7271092 -8.1858587 -0.3365486 0.96463752
-3.9770703 -8.1830959 -0.34043694 0.96423626
-4.4955955 -8.1773634 -0.34916571 0.96333629
-4.6295018 -8.1758881 -0.35155991 0.9630897
-4.7652926 -8.1743746 -0.35404223 0.962834
-5.0428028 -8.1713181 -0.35928741 0.96229398
-5.1847167 -8.1697454 -0.36205363 0.96200919
-5.4753222 -8.166543 -0.36789477 0.9614082
-5.7756443 -8.1632128 -0.37416804 0.96076328
-5.9297462 -8.1615133 -0.37747481 0.96042335
-6.0866013 -8.1597853 -0.38090262 0.96007127
-6.4091306 -8.1562109 -0.38813379 0.95932883
-6.8846092 -8.1123142 -0.39811516 0.95830482
-7.0860252 -7.9364257 -0.39810154 0.95830643
-7.2830176 -7.7556152 -0.39808822 0.95830762
-7.3797851 -7.6633592 -0.39808166 0.95830828
-7.5697851 -7.475234 -0.39806882 0.95830959
-7.7549706 -7.2823925 -0.39805624 0.95831102
-1.0332421 -0.94614255 -0.052422408 0.99440783
-1.033711 -0.85513669 -0.050198324 0.99464434
-1.0338086 -0.83357418 -0.049690664 0.99469835
-1.0339258 -0.81243163 -0.049200822 0.99475044
-1.0339843 -0.79168946 -0.048727948 0.99480087
-1.0341015 -0.77134764 -0.048271522 0.99484932
-1.0342578 -0.73174804 -0.047405966 0.99494153
-1.034375 -0.7124902 -0.046995621 0.99498504
-1.1186913 -0.70994139 -0.049576417 0.99471056
-1.1503906 -0.70994139 -0.050581891 0.99460357
-1.2178613 -0.70995116 -0.05274643 0.9943732
-1.2913867 -0.70994139 -0.055141144 0.99411857
-1.3307226 -0.70993161 -0.05643566 0.99398094
-1.3719823 -0.70995116 -0.057801399 0.99383563
-1.4152832 -0.70994139 -0.059244726 0.99368215
-1.4607812 -0.70993161 -0.060771901 0.9935199
-1.5592871 -0.70994139 -0.064107053 0.99316549
-1.6693066 -0.70995116 -0.067874677 0.99276519
-1.7827051 -0.70581055 -0.071741983 0.99235463
-1.7826464 -0.68000001 -0.071390264 0.992392
-11.46542 -4.0465918 -0.45494041 0.95249701
-12.780322 -3.9757226 -0.5008077 0.94783467
-12.876016 -3.6532617 -0.50080097 0.94783539
-13.04293 -3.0016112 -0.50078911 0.94783682
-13.114141 -2.6728711 -0.50078404 0.94783723
-13.17708 -2.3424413 -0.50077951 0.94783759
-13.20539 -2.1766601 -0.50077742 0.94783789
-13.231602 -2.0105371 -0.50077552 0.94783825
-13.255849 -1.8441113 -0.50077373 0.94783819
-13.315762 -1.3431543 -0.5007692 0.94783884
-13.345254 -1.0081054 -0.50076687 0.94783902
-13.366377 -0.67242187 -0.50076509 0.94783902
-13.382177 -0.16817382 -0.50076348 0.9478392
-12.460878 9.7656248e-06 -0.50082475 0.95134002
-12.456914 0.31316406 -0.50082463 0.95134014
-12.452011 0.46964842 -0.50082487 0.95134008
-12.436308 0.7824316 -0.50082552 0.95133996
-12.425498 0.93864256 -0.50082612 0.9513399
-12.412754 1.0947168 -0.50082678 0.95133978
-12.398037 1.2506055 -0.50082761 0.95133972
-12.381328 1.4063085 -0.50082856 0.95133978
-12.362705 1.5617774 -0.50082964 0.95133966
-12.319638 1.8719823 -0.50083214 0.95133936
-12.295176 2.0266504 -0.50083363 0.95133919
-12.24041 2.335 -0.50083691 0.95133901
-12.210195 2.4886522 -0.50083882 0.95133865
-12.143838 2.7947168 -0.50084287 0.95133853
-12.107881 2.9471092 -0.50084513 0.95133805
-12.069921 3.0990429 -0.50084752 0.95133793
-12.030068 3.2504785 -0.50084996 0.95133775
-11.944736 3.5518064 -0.50085539 0.95133716
-11.899228 3.7016504 -0.50085825 0.95133692
-11.32831 3.9982226 -0.48283115 0.95304656
-1.783457 0.65477538 -0.076358184 0.9924233
-1.7835742 0.70618165 -0.077098958 0.99235004
-1.6693164 0.70996094 -0.07290756 0.99276435
-1.4608008 0.70996094 -0.06527824 0.99351913
-1.4152832 0.70996094 -0.063637808 0.99368143
-1.2913965 0.70997071 -0.059229735 0.99411786
-1.2178613 0.70995116 -0.056657597 0.99437261
-1.1834179 0.70996094 -0.055466346 0.99449062
-1.1504102 0.70995116 -0.05433258 0.99460286
-1.0882422 0.70995116 -0.052222479 0.99481189
-1.0589062 0.70995116 -0.051239736 0.99490935
-1.0335938 0.73127925 -0.050887145 0.99494421
-1.0331836 0.81187499 -0.052812424 0.99475354
-1.0328906 0.8765527 -0.05444698 0.99459153
-1.0326172 0.92198241 -0.055638656 0.99447358
-1.0325 0.94545895 -0.056267776 0.99441123
-7.2170897 6.7773046 -0.39791602 0.96114147
-7.1314645 6.8675585 -0.39792168 0.96114093
-6.5944724 7.385869 -0.39795691 0.96113765
-6.406992 7.5495114 -0.39796919 0.96113634
-6.3116894 7.6295309 -0.39797544 0.96113586
-6.2154102 7.7083492 -0.39798179 0.96113533
-6.1181931 7.7860055 -0.3979882 0.96113449
-5.7558298 7.922236 -0.3935726 0.96155715
-5.4547262 7.9188962 -0.38647383 0.96223736
-5.1641016 7.9156933 -0.37986082 0.96287131
-2.4936817 4.2777147 -0.19900802 0.9803732
-2.3498437 4.2743649 -0.1960438 0.98066288
-2.3486133 4.4022655 -0.20054035 0.98022372
-2.3370018 4.5162401 -0.20437823 0.9798491
-3.96416 7.9024215 -0.35533312 0.96522653
-3.839951 7.9010544 -0.35307488 0.96544379
-3.5961719 7.8983688 -0.34880304 0.96585447
-3.4764159 7.8970504 -0.34678832 0.96604836
-3.358037 7.8957324 -0.34484997 0.96623486
-3.1251171 7.8931541 -0.3411985 0.96658635
-2.8969433 7.8906345 -0.33783484 0.96691024
-2.6730664 7.888164 -0.33474654 0.96720773
-2.3444922 7.884531 -0.33060482 0.96760684
-1.9180077 7.8798242 -0.32595015 0.96805561
-1.708955 7.8775096 -0.32397482 0.96824604
-1.5023047 7.8752246 -0.32222572 0.96841472
-1.3997852 7.8741012 -0.32143417 0.96849102
-1.2977344 7.8729587 -0.32069704 0.96856219
-1.0949805 7.8707323 -0.31938341 0.96868885
-0.99417967 7.8695993 -0.31880713 0.96874464
-0.89374995 7.8684959 -0.31828094 0.9687953
-0.79361326 7.8674121 -0.31780761 0.9688409
-0.59417969 7.8651853 -0.31701508 0.96891743
-0.29654297 7.8619137 -0.31620795 0.96899539
-0.098808594 7.8597164 -0.31591958 0.96902317
0 7.8586326 -0.31585062 0.96902978
0.29624999 7.8553414 -0.31594458 0.9690209
0.39509764 7.8542676 -0.3160744 0.96900821
0.59312499 7.8520703 -0.31648648 0.96896851
0.79177731 7.8498826 -0.31710112 0.96890926
1.0915625 7.8465524 -0.3184031 0.96878356
1.2929688 7.8443456 -0.31953081 0.96867472
1.3942382 7.8432322 -0.32017353 0.96861267
1.5980859 7.8409667 -0.32161975 0.9684732
1.7007421 7.8398438 -0.32242545 0.96839547
1.9076562 7.8375487 -0.3242009 0.96822429
2.0119922 7.8364062 -0.32517341 0.96813047
2.1169922 7.8352442 -0.32620323 0.96803117
2.329082 7.8328905 -0.32843915 0.96781558
2.4362891 7.8317184 -0.3296479 0.96769905
2.7628124 7.8280859 -0.33364424 0.967314
3.0978515 7.8244042 -0.33822688 0.96687257
3.2116797 7.8231344 -0.33988982 0.96671242
3.560117 7.8192868 -0.34531143 0.96619058
3.7988865 7.8166599 -0.34930167 0.9658066
3.9203906 7.8153024 -0.35141486 0.96560335
4.0434375 7.8139548 -0.35361212 0.96539205
4.5517969 7.8083105 -0.36326045 0.96446484
4.6833982 7.8068943 -0.36590284 0.96421093
4.9524412 7.803906 -0.3714802 0.9636755
5.2300391 7.8008399 -0.37747306 0.96310037
5.3723044 7.7992673 -0.38063398 0.96279711
5.6641407 7.7960644 -0.38730392 0.96215773
5.8139453 7.7943945 -0.39081988 0.96182084
5.9665232 7.7927051 -0.39446494 0.96147192
6.7016406 7.3187008 -0.39884299 0.96105278
6.9730468 7.0612106 -0.39886135 0.96105111
7.0613279 6.9731641 -0.39886734 0.96105045
7.1485157 6.8839746 -0.39887321 0.96104985
7.2345309 6.7936912 -0.39887908 0.96104944
7.3194723 6.702363 -0.3988848 0.96104872
7.403203 6.609951 -0.3988905 0.96104825
1.2629297 0.94205076 -0.063325003 0.99371243
1.2631445 0.89371091 -0.062190514 0.99382478
1.2632812 0.870166 -0.061652374 0.99387795
1.2635351 0.80189449 -0.060148086 0.99402702
1.2636523 0.77984375 -0.059681546 0.99407315
1.2637695 0.75815427 -0.059231032 0.99411768
1.2639062 0.71568358 -0.05837715 0.99420232
1.5087109 0.70994139 -0.06701614 0.99334723
1.6692773 0.70995116 -0.07290756 0.99276453
1.7293164 0.70995116 -0.075133629 0.99254441
1.8611327 0.70996094 -0.080059625 0.9920575
1.9337695 0.70996094 -0.082793422 0.99178737
2.0166407 0.68338865 -0.085579447 0.99151218
11.862344 3.6901855 -0.49930626 0.95148402
11.982754 3.5631249 -0.50244981 0.95118612
12.02666 3.4122753 -0.50245291 0.95118582
12.146914 2.9566112 -0.50246137 0.95118505
12.183164 2.8037403 -0.502464 0.95118487
12.217519 2.6504686 -0.50246644 0.95118451
12.280371 2.3426073 -0.50247097 0.95118409
12.360078 1.878125 -0.50247675 0.95118356
12.403496 1.5669237 -0.50247997 0.95118308
12.453809 1.0983398 -0.50248379 0.95118284
12.49332 0.47123045 -0.50248712 0.9511826
12.502265 -0 -0.50248826 0.95118243
12.501269 -0.15710936 -0.50248832 0.95118243
12.498301 -0.31416014 -0.50248832 0.95118248
12.477578 -0.78500974 -0.50248742 0.95118248
12.466719 -0.94173825 -0.50248688 0.95118248
12.439023 -1.2547265 -0.50248533 0.95118284
12.422304 -1.4109374 -0.50248438 0.95118272
12.382832 -1.722666 -0.50248212 0.95118308
12.360195 -1.8781543 -0.50248075 0.95118314
12.308984 -2.1881151 -0.50247765 0.95118356
12.280469 -2.342617 -0.50247598 0.95118374
12.250039 -2.496748 -0.50247407 0.95118386
12.217617 -2.6504784 -0.50247204 0.95118415
12.026835 -3.4123144 -0.50246018 0.95118511
11.982929 -3.5631542 -0.50245744 0.95118546
2.0165038 -0.6551953 -0.085217819 0.99154794
2.0166016 -0.68335938 -0.085579336 0.99151242
1.6127343 -0.70993161 -0.070820689 0.99297082
1.5592773 -0.70994139 -0.068860665 0.99316478
1.5087109 -0.70994139 -0.067016333 0.99334723
1.4607812 -0.70995116 -0.065278165 0.99351919
1.2913672 -0.70994139 -0.059229698 0.99411803
1.263828 -0.73673826 -0.058796387 0.99416083
1.26375 -0.75812501 -0.059230957 0.9941178
1.2636523 -0.77984375 -0.059681356 0.99407315
1.2635547 -0.801875 -0.060148045 0.99402702
1.2633789 -0.84702146 -0.061133154 0.99392945
1.2631249 -0.89369136 -0.062190514 0.9938249
1.2630273 -0.91764647 -0.06274765 0.99376971
7.88416 -6.0366211 -0.39909711 0.96102846
7.8076172 -6.1351461 -0.39909211 0.96102881
7.7298045 -6.2326951 -0.39908701 0.96102935
7.6507421 -6.3292379 -0.39908186 0.96102995
7.406445 -6.6128516 -0.39906588 0.9610315
7.1516795 -6.887002 -0.39904922 0.96103305
6.7961912 -7.2371969 -0.39902586 0.96103537
6.7046485 -7.3219628 -0.39901987 0.96103573
6.3278904 -7.6490817 -0.39899513 0.96103817
6.2311521 -7.7278805 -0.39898875 0.96103883
6.1334567 -7.8054295 -0.39898232 0.96103948
5.9351563 -7.9568458 -0.39896926 0.96104074
5.5275388 -8.2444525 -0.39894241 0.96104324
5.2579298 -8.2851362 -0.39439371 0.96147901
5.1120505 -8.2835255 -0.39122692 0.96178222
4.5505075 -8.2773342 -0.37964165 0.96289265
3.891582 -8.2700586 -0.36735168 0.96407205
3.764746 -8.268652 -0.36515978 0.96428263
3.1516016 -8.2618551 -0.35540009 0.96522039
2.915 -8.2592573 -0.35202506 0.965545
2.7983594 -8.2579584 -0.35044411 0.96569711
2.6827343 -8.2566891 -0.34893093 0.9658426
2.5681055 -8.2554293 -0.34748635 0.96598154
2.1183593 -8.2504492 -0.3423585 0.96647507
2.0078905 -8.2492285 -0.34123409 0.96658337
1.7890429 -8.2467966 -0.33916602 0.96678251
1.5726953 -8.2444143 -0.33733547 0.96695876
1.4653516 -8.2432222 -0.33650592 0.96703863
1.3585352 -8.2420406 -0.33573544 0.96711296
1.2521875 -8.2408686 -0.33502001 0.96718186
1.146289 -8.2396975 -0.33435962 0.9672454
1.0407617 -8.2385349 -0.33375514 0.96730357
0.93562496 -8.2373724 -0.33320552 0.96735656
0.83078122 -8.2362204 -0.33271107 0.96740431
0.72624999 -8.2350483 -0.33226863 0.96744692
0.31039062 -8.2304688 -0.33103439 0.96756577
0.10339843 -8.2281837 -0.33073419 0.96759474
0 -8.2270412 -0.33066124 0.96760172
-0.20677733 -8.2247553 -0.33067381 0.96760052
-0.31017578 -8.2236233 -0.33075839 0.9675923
-0.4136914 -8.2224607 -0.33089533 0.96757919
-0.51726562 -8.2213278 -0.33108467 0.96756089
-0.62099606 -8.2201662 -0.33132666 0.96753758
-0.72488278 -8.2190237 -0.3316223 0.96750921
-0.82898438 -8.2178907 -0.33196902 0.96747559
-0.93330073 -8.2167282 -0.33237198 0.96743703
-1.0378906 -8.2155666 -0.33282462 0.96739322
-1.1427832 -8.2144136 -0.33333308 0.96734422
-1.4596484 -8.2108984 -0.33518785 0.96716571
-1.6730859 -8.2085638 -0.33670229 0.96701974
-1.7805371 -8.2073631 -0.33754387 0.96693861
-1.9971484 -8.2049704 -0.33940321 0.96675962
-2.2163281 -8.202549 -0.34150001 0.96655774
-2.6635938 -8.197607 -0.34643391 0.96608275
-2.7775195 -8.1963472 -0.3478286 0.96594858
-3.1251757 -8.1925001 -0.35241824 0.96550727
-3.3623145 -8.1898823 -0.3558287 0.96517926
-3.4826171 -8.1885548 -0.3576436 0.9650048
-3.7271092 -8.1858587 -0.36150351 0.96463382
-3.851367 -8.1844826 -0.36355224 0.96443707
-3.9770703 -8.1830959 -0.36568016 0.9642325
-4.1042676 -8.1816893 -0.3678939 0.96402001
-4.233037 -8.180254 -0.37019238 0.96379936
-4.6295018 -8.1758881 -0.37762785 0.96308583
-4.7652926 -8.1743746 -0.38029441 0.96283007
-5.1847167 -8.1697454 -0.38890088 0.96200514
-5.6242185 -8.1649017 -0.39848423 0.96108729
-5.7221971 -8.0877142 -0.39819258 0.961115
-5.8232713 -8.0150099 -0.39818576 0.96111572
-6.022656 -7.8659177 -0.39817232 0.96111685
-6.4098434 -7.5528512 -0.39814621 0.96111947
-6.6896286 -7.3055663 -0.39812729 0.96112126
-7.1346092 -6.8705759 -0.39809716 0.96112418
-1.0332031 -0.81186521 -0.052812308 0.99475354
-1.0333984 -0.77082032 -0.051815644 0.99485224
-1.033496 -0.7508691 -0.051343191 0.99489909
-1.0589062 -0.70994139 -0.051239774 0.99490941
-1.0882422 -0.70994139 -0.052222669 0.99481195
-1.1186913 -0.70994139 -0.053252563 0.99470997
-1.1503906 -0.70994139 -0.054332502 0.99460298
-1.1834375 -0.70994139 -0.055466346 0.99449056
-1.2537988 -0.70994139 -0.057910573 0.99424857
-1.3307226 -0.70993161 -0.060620382 0.99398029
-1.3719823 -0.70995116 -0.062087364 0.99383497
-1.4152832 -0.70994139 -0.063637882 0.99368149
-1.4607812 -0.70993161 -0.065278284 0.99351925
-1.5087304 -0.70994139 -0.067016222 0.99334717
-1.6693066 -0.70995116 -0.072907634 0.99276441
-1.7293261 -0.70995116 -0.075133629 0.99254435
-1.7835156 -0.68033201 -0.07672096 0.99238747
-11.46542 -4.0465918 -0.48867553 0.95249206
-11.802773 -3.9996092 -0.50087285 0.95133561
-11.852051 -3.8509667 -0.50086939 0.95133579
-12.107968 -2.947119 -0.50085139 0.95133775
-12.143984 -2.7947168 -0.50084883 0.95133799
-12.210263 -2.4886425 -0.50084406 0.95133841
-12.240546 -2.3349903 -0.50084192 0.95133853
-12.268896 -2.1809959 -0.50083983 0.95133865
-12.295283 -2.0266407 -0.50083792 0.95133883
-12.362812 -1.5617774 -0.50083292 0.95133924
-12.412764 -1.0946972 -0.5008291 0.95133978
-12.425527 -0.93863279 -0.50082809 0.95133984
-12.452041 -0.46963868 -0.50082582 0.95133996
-12.459883 -0.15656249 -0.50082493 0.95134008
-11.656347 0.14649414 -0.50087821 0.9544003
-11.653584 0.29295897 -0.50087821 0.9544003
-11.634267 0.73198241 -0.50087905 0.9544003
-11.624189 0.87812495 -0.50087953 0.95440012
-11.582851 1.3156152 -0.50088185 0.95440006
-11.565478 1.4610547 -0.50088286 0.95439982
-11.477578 2.0403516 -0.50088811 0.95439935
-11.451074 2.1844139 -0.50088972 0.95439917
-11.422744 2.3281446 -0.50089145 0.95439911
-11.392627 2.4715135 -0.50089329 0.95439893
-11.327002 2.757041 -0.50089735 0.95439863
-11.291523 2.8991895 -0.50089955 0.95439833
-11.254248 3.0408494 -0.50090188 0.95439816
-11.174414 3.3227344 -0.50090694 0.95439762
-11.131836 3.4629297 -0.50090963 0.95439738
-11.0875 3.6025488 -0.50091243 0.95439714
-11.041377 3.7416015 -0.50091535 0.95439708
-10.993584 3.8800781 -0.50091839 0.95439667
-1.7842969 0.65508789 -0.081670076 0.99241889
-1.7843456 0.68069333 -0.082057528 0.992383
-1.7292968 0.70995116 -0.080321237 0.99254358
