# .PCD v0.7 - Point Cloud Data file format
VERSION 0.7
FIELDS x y z intensity
SIZE 4 4 4 4
TYPE F F F F
COUNT 1 1 1 1
WIDTH 1083
HEIGHT 1
VIEWPOINT 0 0 0 1 0 0 0
POINTS 1083
DATA ascii
-1.0882422 -0.70995116 -0.06304279 0.99480999
-1.1187304 -0.70997071 -0.064286001 0.99470782
-1.1834375 -0.70996094 -0.06695877 0.99448848
-1.253828 -0.70997071 -0.06990917 0.9942463
-1.3307617 -0.70995116 -0.073180161 0.9939779
-1.3719921 -0.70996094 -0.074951477 0.99383265
-1.4152734 -0.70997071 -0.076823458 0.99367911
-1.6127343 -0.70997071 -0.085494496 0.9929682
-1.7860937 -0.68131834 -0.092750512 0.9923737
-1.7860546 -0.6557129 -0.092311516 0.99240953
-9.7590523 -3.4443555 -0.5021283 0.9594022
-9.8016014 -3.3214648 -0.50213003 0.95940208
-9.882041 -3.074121 -0.50213331 0.95940179
-9.9909859 -2.6995215 -0.50213772 0.95940137
-10.085712 -2.3210547 -0.50214154 0.95940107
-10.140898 -2.0668848 -0.50214368 0.95940089
-10.189658 -1.8113867 -0.50214559 0.95940083
-10.21165 -1.6832031 -0.50214642 0.95940071
-10.232012 -1.5547558 -0.5021472 0.95940059
-10.250723 -1.4260449 -0.50214791 0.95940071
-10.267851 -1.2971387 -0.50214851 0.95940059
-10.297265 -1.0386816 -0.50214952 0.95940042
-10.309502 -0.90920895 -0.50214994 0.95940042
-10.320117 -0.77959961 -0.50215024 0.95940042
-10.329082 -0.64984375 -0.50215054 0.95940048
-10.342197 -0.39006835 -0.50215083 0.9594003
-10.348711 -0.13004883 -0.50215083 0.95940036
-9.7817287 0.36892578 -0.5021252 0.96155238
-9.7762794 0.4918164 -0.50212485 0.96155256
-9.7608395 0.73734373 -0.50212395 0.9615525
-9.7508001 0.85994136 -0.50212336 0.96155256
-9.7392282 0.98239255 -0.5021227 0.9615525
-9.7113867 1.226836 -0.50212121 0.9615528
-9.6952248 1.3487695 -0.50212038 0.96155274
-9.6582518 1.5919726 -0.50211847 0.9615528
-9.6374702 1.7132226 -0.5021174 0.96155286
-9.6151075 1.8341601 -0.50211632 0.96155316
-9.591279 1.9548438 -0.50211513 0.96155322
-9.5659571 2.0752246 -0.50211388 0.96155322
-9.5391111 2.1952832 -0.50211257 0.96155328
-9.4495115 2.5532129 -0.50210822 0.96155363
-9.4166107 2.6717381 -0.50210667 0.96155387
-9.3464546 2.9075196 -0.50210327 0.96155405
-9.2301369 3.2576756 -0.50209779 0.96155447
-1.7868944 0.65601563 -0.097642474 0.99240494
-1.7869531 0.68164062 -0.098106958 0.992369
-1.6127343 0.70993161 -0.09038841 0.99296725
-1.5087304 0.70993161 -0.085532717 0.99334383
-1.253828 0.70993161 -0.073911324 0.99424559
-1.0589453 0.70993161 -0.065396883 0.99490672
-1.0307031 0.74882811 -0.065352097 0.9949103
-1.0304687 0.78897458 -0.06657318 0.99481535
-1.030332 0.80961913 -0.067216717 0.9947654
-1.0302148 0.83064449 -0.067883797 0.9947136
-1.0300781 0.85210937 -0.068575174 0.9946599
-1.0299219 0.87403321 -0.069291301 0.99460429
-1.0296093 0.91927731 -0.070803449 0.99448687
-1.0294532 0.94264644 -0.071601525 0.99442494
-5.6656933 5.3204298 -0.39868709 0.96934986
-5.4610252 5.5300584 -0.39867783 0.96935058
-5.3202538 5.6654882 -0.39867145 0.96935093
-5.1028028 5.8618164 -0.39866164 0.96935177
-3.5199022 4.2548046 -0.2832613 0.97812551
-3.4430566 4.2700877 -0.28137875 0.97826964
-3.354707 4.2691989 -0.27851784 0.97848797
-3.2166209 4.3122654 -0.27596512 0.97868299
-3.2371776 4.4555955 -0.28251189 0.97818285
-4.3274999 6.4545603 -0.39862674 0.96935445
-4.163867 6.561162 -0.39861938 0.96935499
-3.9975781 6.6636033 -0.3986119 0.96935558
-3.9135058 6.7132421 -0.39860815 0.96935582
-3.7434764 6.8093262 -0.39860052 0.96935648
-3.657578 6.8557715 -0.39859667 0.96935678
-3.5711229 6.9011326 -0.39859283 0.96935701
-3.484082 6.9453907 -0.39858893 0.96935731
-3.3964942 6.9885545 -0.39858499 0.96935761
-3.2197266 7.0715623 -0.39857712 0.96935821
-3.1305859 7.1113963 -0.3985731 0.9693585
-3.0409276 7.1500974 -0.39856911 0.96935886
-2.9508104 7.1876659 -0.39856508 0.96935916
-2.860244 7.2240915 -0.39856106 0.96935952
-2.7691991 7.2593942 -0.39855698 0.96935982
-2.4008887 7.389082 -0.39854056 0.96936095
-2.3078125 7.4185739 -0.39853641 0.96936131
-2.2143848 7.4469237 -0.39853224 0.9693616
-2.1206055 7.474072 -0.3985281 0.96936196
-2.026494 7.5000486 -0.3985239 0.96936226
-1.9320703 7.5248532 -0.39851969 0.96936256
-1.8373437 7.5484567 -0.39851546 0.96936285
-1.7423047 7.570869 -0.39851126 0.96936321
-1.6470312 7.5920801 -0.398507 0.96936351
-1.5514648 7.6120996 -0.3985028 0.96936387
-1.4557031 7.6308985 -0.39849854 0.96936423
-1.2634375 7.6649117 -0.39848998 0.96936482
-0.77960938 7.7287107 -0.39846849 0.96936643
-0.58515626 7.7456932 -0.39845991 0.96936709
-0.29277343 7.761992 -0.39844695 0.96936804
0.097578123 7.7665429 -0.39842972 0.96936947
0.39023438 7.7571092 -0.39841679 0.96937037
0.68228513 7.7366309 -0.39840388 0.96937138
0.7794531 7.7273631 -0.39839962 0.96937168
1.0701171 7.692275 -0.39838681 0.96937257
1.3592578 7.6462302 -0.39837405 0.96937352
1.4551953 7.6284571 -0.39836982 0.96937388
1.5508984 7.6094823 -0.39836562 0.96937424
1.7416406 7.5679488 -0.39835724 0.96937484
2.0255468 7.4966989 -0.39834476 0.96937579
2.2132812 7.4432616 -0.39833653 0.96937644
2.3066015 7.4147558 -0.39833245 0.96937686
2.5843358 7.3223629 -0.39832023 0.9693777
2.6761327 7.2892184 -0.39831623 0.96937805
2.7674804 7.2549415 -0.39831221 0.96937835
2.9488671 7.1829491 -0.39830428 0.96937901
3.0388672 7.1452732 -0.39830035 0.96937919
3.3939061 6.9832811 -0.39828482 0.96938044
4.1599998 6.5550876 -0.39825141 0.96938294
4.3233204 6.448369 -0.39824432 0.96938348
4.4039841 6.393486 -0.3982408 0.96938372
4.7194529 6.1639352 -0.39822707 0.96938479
4.7965231 6.1040821 -0.39822376 0.96938503
4.8728123 6.0432715 -0.39822045 0.96938527
5.096992 5.8551755 -0.39821073 0.96938604
5.1701169 5.7906055 -0.39820755 0.96938634
5.2424607 5.7251563 -0.39820442 0.9693864
5.3139453 5.6587791 -0.39820138 0.9693867
5.3845897 5.5915036 -0.39819828 0.96938694
5.5232811 5.4543357 -0.39819229 0.96938753
5.724824 5.2421775 -0.39818361 0.96938813
5.7902341 5.1698141 -0.39818081 0.96938819
5.8546872 5.0965915 -0.39817804 0.96938848
5.9182029 5.0225782 -0.3981753 0.96938878
5.9808202 4.947783 -0.39817259 0.96938896
6.1032224 4.7958493 -0.39816737 0.96938926
6.1629295 4.7187595 -0.39816481 0.9693895
1.2594922 0.93947262 -0.080602109 0.99372637
1.2600391 0.84480464 -0.077819444 0.99394232
1.2604101 0.77782226 -0.075976104 0.99408537
1.2605274 0.75619137 -0.075404316 0.99412978
1.2607226 0.71385741 -0.074320145 0.994214
1.2913672 0.70995116 -0.075594708 0.994115
1.3307421 0.70994139 -0.077369228 0.99397719
1.4607812 0.70993161 -0.083314396 0.99351597
1.6126952 0.70994139 -0.090388447 0.99296743
1.6692773 0.70995116 -0.093051679 0.9927609
1.7292968 0.70994139 -0.095892407 0.99254072
1.8610938 0.70994139 -0.10217964 0.99205363
2.0242188 0.68593746 -0.10963532 0.99147618
9.3667574 2.7852342 -0.50127614 0.96161634
9.4009762 2.667295 -0.50127476 0.96161652
9.4337301 2.548955 -0.50127339 0.96161658
9.4649801 2.4302051 -0.5012722 0.96161669
9.4947653 2.3110743 -0.50127095 0.96161669
9.5988283 1.8310839 -0.5012669 0.96161699
9.641758 1.5892773 -0.50126523 0.96161717
9.6609764 1.467998 -0.50126451 0.96161717
9.6786518 1.3464745 -0.50126386 0.96161717
9.6948042 1.2247461 -0.50126332 0.96161717
9.7093744 1.1028222 -0.50126278 0.96161741
9.7340231 0.8584668 -0.50126195 0.96161741
9.7440233 0.73607421 -0.50126165 0.96161747
9.7524996 0.61357421 -0.50126141 0.96161747
9.7594528 0.4909668 -0.50126117 0.96161747
9.7648439 0.36831054 -0.50126112 0.96161747
9.7687111 0.2455664 -0.50126112 0.96161741
9.7710152 0.12279297 -0.50126112 0.96161747
9.7687302 -0.2455664 -0.50126159 0.96161735
9.764863 -0.36830077 -0.50126189 0.96161741
9.7594728 -0.49098632 -0.50126225 0.96161735
9.7525387 -0.61358398 -0.50126266 0.96161735
9.7440624 -0.73608398 -0.5012632 0.96161735
9.7224998 -0.98072261 -0.50126439 0.96161729
9.7094336 -1.1028222 -0.50126511 0.96161717
9.67873 -1.3464745 -0.50126672 0.96161687
9.6610346 -1.4679883 -0.50126767 0.96161693
9.6418161 -1.5892968 -0.50126863 0.96161693
9.6211128 -1.710332 -0.5012697 0.96161681
9.5989056 -1.8310937 -0.50127077 0.96161669
9.4948435 -2.311084 -0.5012759 0.9616164
9.4650784 -2.4302247 -0.50127733 0.96161634
9.4010935 -2.6673534 -0.50128043 0.96161598
9.3668747 -2.7852831 -0.5012821 0.96161586
9.3311911 -2.9027734 -0.50128376 0.96161562
2.0242188 -0.65772462 -0.10917934 0.99151146
2.0241797 -0.68596679 -0.10963546 0.9914763
2.0241797 -0.71444333 -0.11011257 0.99143928
1.8611132 -0.70996094 -0.10217964 0.99205357
1.7931055 -0.70997071 -0.098928183 0.99230546
1.7292968 -0.70995116 -0.095892712 0.99254072
1.6692773 -0.70995116 -0.093052059 0.9927609
1.5592773 -0.70995116 -0.087886237 0.99316132
1.2913672 -0.70996094 -0.075594522 0.994115
1.2607422 -0.71389645 -0.074320026 0.99421388
1.2604101 -0.77785152 -0.075976066 0.99408531
1.2601563 -0.82213867 -0.077182882 0.99399167
1.2600195 -0.84481442 -0.077819176 0.99394232
1.2598828 -0.86788082 -0.078478657 0.99389118
1.2596093 -0.91519529 -0.079869077 0.9937833
6.165586 -4.7207713 -0.39833584 0.96937656
6.1058397 -4.7979493 -0.39833853 0.96937621
5.9833984 -4.9499021 -0.39834416 0.96937597
5.8572264 -5.0987887 -0.39834988 0.96937543
5.792695 -5.1720309 -0.3983528 0.96937531
5.6609764 -5.3160644 -0.39835876 0.96937484
5.5937696 -5.386826 -0.3983618 0.9693746
5.3869138 -5.593955 -0.39837119 0.96937382
5.3162498 -5.6612401 -0.39837441 0.96937358
5.2447267 -5.7276464 -0.3983776 0.96937335
4.8749413 -6.045918 -0.39839432 0.96937209
4.7215624 -6.1666112 -0.39840126 0.96937156
4.6437106 -6.2255273 -0.39840472 0.96937132
4.4058986 -6.3962989 -0.39841542 0.96937048
4.3252344 -6.4512401 -0.39841902 0.96937007
4.1618161 -6.5579882 -0.39842635 0.96936965
3.9117968 -6.710361 -0.39843756 0.96936888
3.741992 -6.8066993 -0.39844519 0.96936822
3.5698242 -6.8987012 -0.39845291 0.96936768
3.4828906 -6.9430957 -0.39845678 0.96936733
3.3073828 -7.0285645 -0.39846465 0.96936673
3.1297655 -7.1096091 -0.39847258 0.96936613
3.0401952 -7.1484571 -0.3984766 0.96936584
2.9501953 -7.186162 -0.39848059 0.96936548
2.8596485 -7.2227244 -0.39848465 0.9693653
2.7687109 -7.2581539 -0.39848867 0.969365
2.6773241 -7.2924805 -0.39849281 0.96936452
2.4932811 -7.3575974 -0.39850101 0.96936393
2.400625 -7.3884082 -0.39850512 0.96936375
2.2142577 -7.4465623 -0.39851341 0.96936309
2.1205468 -7.473877 -0.39851761 0.96936274
1.5516015 -7.6128612 -0.39854288 0.96936083
1.4558398 -7.6318455 -0.39854711 0.96936047
1.2636328 -7.6661816 -0.39855567 0.96935987
1.167207 -7.6815429 -0.39855996 0.96935952
1.070586 -7.6956835 -0.39856425 0.96935922
0.97380859 -7.7086325 -0.39856854 0.9693588
0.77978516 -7.7308006 -0.39857715 0.96935827
0.68261719 -7.7400875 -0.39858145 0.96935791
0.58529294 -7.7481246 -0.39858574 0.96935761
0.48787108 -7.7549605 -0.39859009 0.96935725
0.29283202 -7.7649608 -0.3985987 0.96935654
0.19525391 -7.7680955 -0.39860302 0.9693563
0.097636715 -7.7700391 -0.39860731 0.96935588
-0.1953125 -7.7684374 -0.39862028 0.96935493
-0.29289061 -7.7654686 -0.3986246 0.96935457
-0.48796874 -7.7558007 -0.39863321 0.96935397
-0.58539063 -7.7491503 -0.39863753 0.96935362
-0.68273437 -7.7412696 -0.39864179 0.96935326
-0.8770898 -7.7218261 -0.39865038 0.96935266
-1.4563476 -7.6343064 -0.39867586 0.96935076
-1.5521874 -7.6155076 -0.39868012 0.96935034
-1.7430859 -7.5742579 -0.3986885 0.96934968
-1.838164 -7.5518355 -0.3986927 0.96934938
-1.9329492 -7.5282125 -0.39869684 0.96934909
-2.0274024 -7.5033984 -0.39870101 0.96934879
-2.215332 -7.4502149 -0.39870924 0.96934831
-2.3088281 -7.4218845 -0.39871338 0.96934789
-2.4946485 -7.36165 -0.39872155 0.96934736
-2.586992 -7.3298144 -0.39872557 0.96934694
-2.9521191 -7.1908493 -0.39874157 0.96934581
-3.0423045 -7.1532712 -0.39874548 0.96934539
-3.1319726 -7.1145411 -0.39874941 0.96934515
-3.309834 -7.0337305 -0.39875719 0.96934456
-3.3979688 -6.9916501 -0.39876106 0.96934432
-3.485625 -6.9484863 -0.39876488 0.9693439
-3.5726953 -6.9041891 -0.39876869 0.96934366
-3.6591992 -6.8587985 -0.39877245 0.96934342
-3.8304784 -6.7648239 -0.3987799 0.96934277
-3.9993358 -6.666533 -0.39878729 0.96934229
-4.0828319 -6.6158104 -0.39879093 0.96934205
-4.1656737 -6.564033 -0.39879456 0.96934181
-4.2478905 -6.51124 -0.39879811 0.96934146
-4.410244 -6.4025583 -0.39880514 0.96934092
-4.5698338 -6.2898145 -0.39881209 0.96934038
-4.6485548 -6.2319431 -0.39881554 0.96934009
-4.7265234 -6.1731153 -0.39881891 0.96933979
-4.8037596 -6.1132321 -0.39882225 0.96933973
-4.9559665 -5.9907227 -0.39882883 0.96933907
-5.0308981 -5.9280176 -0.39883208 0.96933883
-5.1050196 -5.8643556 -0.39883533 0.96933866
-5.178359 -5.7997947 -0.39883849 0.96933842
-5.5325193 -5.463418 -0.39885378 0.96933722
-5.6007714 -5.3935056 -0.39885673 0.96933699
-5.6681542 -5.3227344 -0.39885962 0.96933681
-1.0294532 -0.94265622 -0.071601637 0.99442488
-1.0299219 -0.87404293 -0.069291458 0.99460429
-1.0303515 -0.8096289 -0.067216836 0.99476528
-1.0304687 -0.78899413 -0.066573068 0.99481529
-1.0305859 -0.76874024 -0.065951616 0.99486363
-1.0307031 -0.74883789 -0.065351903 0.99491024
-1.0308203 -0.72931641 -0.064773023 0.99495518
-1.0589453 -0.70996094 -0.065396838 0.99490666
-1.1187304 -0.70997071 -0.067966036 0.99470711
-1.1504296 -0.70995116 -0.069344327 0.99460012
-1.1834375 -0.70996094 -0.07079155 0.99448776
-1.253828 -0.70997071 -0.073910862 0.99424553
-1.2914063 -0.70996094 -0.075594291 0.99411488
-1.4152734 -0.70997071 -0.081220739 0.99367827
-1.50875 -0.70996094 -0.085532531 0.99334371
-1.6127343 -0.70997071 -0.090388142 0.99296719
-1.6693358 -0.70997071 -0.093051642 0.99276066
-1.7293359 -0.70996094 -0.095892675 0.99254054
-1.7869531 -0.6816504 -0.09810669 0.992369
-1.7868944 -0.65602535 -0.097642519 0.99240494
-9.2705078 -3.1415038 -0.50210637 0.96155375
-9.3465528 -2.9075487 -0.50210947 0.96155369
-9.3823729 -2.7898729 -0.5021109 0.96155357
-9.4167576 -2.671787 -0.50211233 0.96155328
-9.480957 -2.4342871 -0.50211495 0.96155322
-9.5392084 -2.1952929 -0.50211728 0.96155292
-9.5660543 -2.075254 -0.50211829 0.96155286
-9.6374998 -1.7132128 -0.50212109 0.96155274
-9.6775484 -1.4704882 -0.50212258 0.96155262
-9.6952925 -1.348789 -0.50212324 0.9615525
-9.7392282 -0.98240232 -0.50212479 0.9615525
-9.7608786 -0.7373535 -0.5021255 0.96155238
-9.7763081 -0.4918164 -0.50212592 0.96155244
-9.7817287 -0.36892578 -0.50212604 0.96155238
-9.7879095 -0.12298828 -0.50212604 0.96155238
-9.2824612 0.23334961 -0.50210327 0.96348745
-9.2787886 0.34996092 -0.50210303 0.96348745
-9.2670507 0.58303708 -0.50210226 0.96348751
-9.2494526 0.81574219 -0.50210124 0.96348757
-9.2384567 0.93189448 -0.50210065 0.96348763
-9.2259865 1.0479003 -0.50209993 0.96348774
-9.2121096 1.1637597 -0.50209922 0.96348768
-9.1967382 1.2794141 -0.50209844 0.96348774
-9.1799221 1.3948926 -0.50209755 0.9634878
-9.1616011 1.5101269 -0.50209659 0.9634881
-9.1207714 1.7398633 -0.50209457 0.96348804
-9.0486135 2.0823827 -0.50209099 0.9634884
-8.8305273 2.869199 -0.5020805 0.96348912
-8.7937403 2.9799414 -0.50207877 0.96348923
-8.7555666 3.0901952 -0.50207698 0.96348935
-1.7878125 0.68197262 -0.10347019 0.99236423
-1.7879101 0.7078613 -0.10398144 0.99232662
-1.5592968 0.70994139 -0.092646062 0.99316025
-1.4607812 0.70993161 -0.087826386 0.99351501
-1.3719921 0.70994139 -0.083533555 0.99383092
-1.2914063 0.70994139 -0.079688758 0.99411404
-1.253828 0.70993161 -0.077913627 0.99424475
-1.2178906 0.70994139 -0.07622841 0.99436885
-1.183457 0.70995116 -0.074625321 0.99448687
-1.1504296 0.70993161 -0.073099971 0.99459934
-1.1187109 0.70993161 -0.071646839 0.99470645
-1.0882422 0.70993161 -0.070260964 0.99480861
-1.0307031 0.70994139 -0.067675665 0.99499905
-1.0301367 0.72881836 -0.068235323 0.9949578
-1.0298828 0.76819336 -0.069476396 0.99486643
-1.0297656 0.78840816 -0.070130117 0.99481821
-1.0296093 0.80905271 -0.070808068 0.99476826
-1.0294726 0.83007812 -0.071510009 0.99471653
-1.0293359 0.85151362 -0.0722377 0.99466294
-1.0288671 0.9185937 -0.074583545 0.99449009
-5.3105469 5.1140528 -0.39867163 0.97089833
-5.2458496 5.1803222 -0.39866868 0.97089851
-5.1139255 5.3104391 -0.39866272 0.97089899
-4.9787889 5.4371972 -0.39865661 0.97089934
-3.4418359 4.2685351 -0.29650858 0.97827423
-3.2559276 4.2524219 -0.28961018 0.97877419
-3.2150586 4.3101563 -0.29076862 0.97869021
-3.2356443 4.4534669 -0.29766795 0.97819
-4.1817384 6.0708008 -0.39862067 0.97090197
-4.1050782 6.1228223 -0.39861724 0.9709022
-4.0277734 6.1738672 -0.39861378 0.9709025
-3.6320019 6.4143162 -0.39859602 0.97090375
-3.5510936 6.459404 -0.39859241 0.97090393
-3.387578 6.5464649 -0.39858508 0.97090453
-3.0542674 6.7081442 -0.39857018 0.9709056
-2.8846776 6.7826657 -0.39856261 0.97090608
-2.6269238 6.8863573 -0.39855111 0.97090697
-2.5401366 6.9187794 -0.3985472 0.97090721
-2.3654199 6.9802537 -0.39853942 0.97090787
-2.2774999 7.0093746 -0.39853552 0.97090811
-2.1892188 7.0373631 -0.39853156 0.9709084
-2.1005859 7.0642772 -0.39852762 0.97090858
-1.9223633 7.1146579 -0.39851969 0.9709093
-1.8327929 7.1381931 -0.3985157 0.97090954
-1.7429297 7.1605859 -0.39851174 0.97090983
-1.6528125 7.1818357 -0.39850768 0.97091013
-1.4717578 7.2209568 -0.39849967 0.97091073
-1.2898047 7.255527 -0.39849159 0.97091126
-1.1985157 7.2711129 -0.39848754 0.9709115
-1.0153906 7.2987499 -0.3984794 0.97091222
-0.83166015 7.321826 -0.39847127 0.97091275
-0.64736325 7.3402438 -0.3984631 0.97091341
-0.55507809 7.3477244 -0.39845902 0.97091371
-0.46267578 7.3540721 -0.39845493 0.97091389
-0.37023437 7.3592186 -0.39845085 0.97091419
-3.9062499e-05 7.3682418 -0.39843443 0.97091532
0.18515624 7.3657422 -0.39842626 0.97091597
0.27767578 7.3627539 -0.39842215 0.97091633
0.46259764 7.3533106 -0.39841399 0.97091687
0.55496091 7.3468261 -0.39840996 0.97091722
0.92337888 7.3093653 -0.39839369 0.97091836
1.1067188 7.2837009 -0.39838561 0.97091895
1.198164 7.2691503 -0.39838156 0.97091925
1.289414 7.2534471 -0.39837757 0.97091949
1.3804296 7.2366209 -0.39837354 0.97091973
2.0107422 7.0868554 -0.39834586 0.97092175
2.1881249 7.0339255 -0.39833808 0.97092241
2.3641405 6.9765916 -0.39833033 0.97092295
2.4516406 6.9462986 -0.39832649 0.97092307
2.8827929 6.7783008 -0.39830765 0.97092462
2.9677148 6.7414942 -0.3983039 0.97092479
3.0521679 6.7036033 -0.39830023 0.97092509
3.1361523 6.6646872 -0.39829656 0.97092521
3.2196093 6.6246481 -0.39829293 0.97092563
3.302578 6.5836325 -0.39828926 0.97092581
3.385 6.5415525 -0.39828566 0.97092611
3.5482616 6.4542966 -0.39827856 0.97092664
3.6290429 6.4091306 -0.39827502 0.97092694
3.7092578 6.3629785 -0.39827156 0.97092718
3.7889061 6.3158007 -0.39826804 0.97092742
3.8679492 6.2676659 -0.39826462 0.97092754
3.946367 6.2184958 -0.39826122 0.97092783
4.0241599 6.1683397 -0.39825782 0.97092819
4.1013083 6.1172361 -0.39825445 0.97092843
4.2537107 6.0121579 -0.39824784 0.97092873
4.477129 5.8474216 -0.39823812 0.97092956
4.5502343 5.7906346 -0.39823496 0.9709298
4.6226172 5.7329588 -0.39823183 0.97092998
4.7651367 5.6148925 -0.39822567 0.97093046
4.8353124 5.5545411 -0.3982226 0.97093058
4.9046679 5.4932909 -0.39821965 0.97093087
4.9732423 5.4311814 -0.39821666 0.97093117
5.1080856 5.3044043 -0.39821082 0.97093159
5.1743164 5.2397752 -0.39820796 0.97093171
5.3680272 5.0409179 -0.39819962 0.9709323
5.6143746 4.7646971 -0.39818901 0.97093314
5.7322655 4.6220603 -0.39818397 0.97093344
5.7898631 4.5496287 -0.3981815 0.97093362
1.2586328 0.93883789 -0.084909476 0.99372971
1.2589062 0.89071286 -0.083392978 0.99384147
1.2591991 0.84424806 -0.081980094 0.99394542
1.2596093 0.77733397 -0.08003933 0.99408829
1.2597265 0.75571287 -0.079437293 0.99413264
1.2598437 0.73441404 -0.078856274 0.99417537
1.2599413 0.71341795 -0.078295976 0.99421674
1.2913672 0.70995116 -0.079688564 0.99411416
1.3719531 0.70993161 -0.083533473 0.9938311
1.6126952 0.70994139 -0.095283389 0.99296635
1.7292968 0.70994139 -0.10108604 0.99253964
1.8610938 0.70994139 -0.10771324 0.9920525
1.9337305 0.70994139 -0.11139148 0.99178219
2.0241406 0.65767574 -0.11508804 0.99151057
8.8520699 2.7537303 -0.5012989 0.96354491
8.9183979 2.530371 -0.50129622 0.96354526
8.9791403 2.3054492 -0.50129378 0.96354538
9.1060543 1.7370801 -0.50128877 0.96354586
9.1468163 1.5076855 -0.50128722 0.96354592
9.2438478 0.69831055 -0.50128376 0.9635461
9.2584763 0.46578124 -0.50128341 0.96354616
9.2672262 0.23296875 -0.50128323 0.96354628
9.2694721 0.11648437 -0.50128329 0.96354604
9.269453 -0.11648437 -0.50128353 0.96354616
9.2519531 -0.58208007 -0.50128484 0.96354592
9.234375 -0.81440425 -0.50128579 0.96354598
9.2110157 -1.0462207 -0.5012871 0.96354592
9.1971483 -1.1618946 -0.50128782 0.96354586
9.1061716 -1.7371093 -0.50129247 0.96354538
9.0836325 -1.8513964 -0.5012936 0.96354538
9.0596676 -1.9654199 -0.50129479 0.96354526
9.034297 -2.0790918 -0.50129604 0.96354514
9.0074606 -2.1924608 -0.50129735 0.96354508
8.9791794 -2.3054786 -0.50129873 0.9635452
8.9495697 -2.4181542 -0.5013001 0.96354491
8.8860159 -2.6422949 -0.50130314 0.96354473
8.8521481 -2.7537498 -0.50130481 0.96354461
1.9337499 -0.70995116 -0.11139134 0.99178207
1.7931055 -0.70997071 -0.104286 0.99230433
1.7292968 -0.70995116 -0.10108581 0.99253958
1.6692773 -0.70995116 -0.0980912 0.99275982
1.6126952 -0.70996094 -0.095283315 0.99296635
1.5592773 -0.70995116 -0.092646062 0.99316031
1.5087109 -0.70995116 -0.090164639 0.99334288
1.4607617 -0.70995116 -0.087826118 0.99351501
1.4152343 -0.70996094 -0.085619353 0.9936775
1.2598242 -0.73444337 -0.078856237 0.99417543
1.2594531 -0.79931641 -0.080663301 0.99404234
1.2592187 -0.84425777 -0.081979901 0.99394536
1.2590625 -0.86730468 -0.082673989 0.99389428
1.2589452 -0.89073241 -0.083392866 0.99384129
1.2585937 -0.93885738 -0.084909588 0.99372977
5.7347264 -4.624033 -0.3983548 0.97092116
5.616797 -4.7667575 -0.39836013 0.97092074
5.4952927 -4.9064841 -0.39836565 0.97092038
5.4332418 -4.9751658 -0.39836848 0.97092021
5.3703513 -5.0430861 -0.39837134 0.97091997
5.241992 -5.1765428 -0.39837715 0.97091949
5.0432615 -5.3705564 -0.39838615 0.97091889
4.9067774 -5.4956641 -0.39839232 0.97091854
4.8373828 -5.5569334 -0.39839545 0.9709183
4.6962891 -5.676826 -0.39840183 0.97091782
4.6246095 -5.7354784 -0.39840502 0.97091752
4.4791017 -5.8499804 -0.3984116 0.97091699
4.3307419 -5.9607911 -0.39841828 0.97091651
4.255527 -6.0147753 -0.39842167 0.97091633
4.1796679 -6.0678515 -0.39842504 0.97091597
4.0259376 -6.1710739 -0.39843199 0.9709155
3.8696289 -6.2704 -0.39843899 0.97091508
3.6306446 -6.4119625 -0.39844969 0.9709143
3.1375194 -6.6676073 -0.39847177 0.97091269
3.0535157 -6.7065721 -0.39847553 0.9709124
2.8840625 -6.7812791 -0.39848313 0.97091198
2.7127929 -6.8517771 -0.39849076 0.97091132
2.6265235 -6.8853807 -0.3984946 0.97091109
2.5397656 -6.9179196 -0.39849845 0.97091085
2.2773242 -7.0089355 -0.39851016 0.97090995
2.0116014 -7.0899997 -0.39852199 0.97090906
1.832832 -7.1384473 -0.39852995 0.97090852
1.7430078 -7.160996 -0.39853394 0.97090822
1.5625196 -7.2026758 -0.39854199 0.97090763
1.4718945 -7.2218161 -0.39854598 0.97090739
1.3810742 -7.2398338 -0.39855003 0.97090697
1.29 -7.2566795 -0.39855406 0.97090673
1.1987109 -7.2723923 -0.39855811 0.97090644
1.0155859 -7.3003612 -0.39856628 0.9709059
0.92378902 -7.3126073 -0.39857033 0.97090566
0.73972654 -7.3336816 -0.39857849 0.97090501
0.64753902 -7.3424802 -0.39858258 0.97090465
0.18523437 -7.3690429 -0.39860305 0.97090316
0.092617184 -7.3708396 -0.39860713 0.97090292
-0.092656247 -7.3709764 -0.39861533 0.97090244
-0.18523437 -7.3693161 -0.39861941 0.97090209
-0.37041014 -7.3624902 -0.39862761 0.97090149
-1.0158594 -7.302002 -0.39865607 0.9708994
-1.3815234 -7.2420216 -0.39867216 0.97089827
-1.4724219 -7.2241697 -0.39867613 0.97089797
-1.6535156 -7.185029 -0.39868414 0.97089744
-1.9232031 -7.1178222 -0.39869598 0.97089654
-2.0125389 -7.093154 -0.39869991 0.9708963
-2.1015038 -7.0673728 -0.39870384 0.97089601
-2.1901855 -7.0404782 -0.39870772 0.97089571
-2.278496 -7.0124903 -0.39871159 0.97089535
-2.3664551 -6.9833689 -0.39871544 0.97089511
-2.54125 -6.9218259 -0.3987231 0.97089458
-2.6280468 -6.8893943 -0.39872691 0.9708944
-2.7144628 -6.8559079 -0.3987307 0.97089398
-2.9709961 -6.7489157 -0.3987419 0.97089326
-3.1397362 -6.672236 -0.39874929 0.97089273
-3.2233496 -6.6323142 -0.39875293 0.97089249
-3.3064647 -6.5913477 -0.39875656 0.97089219
-3.5526464 -6.4622169 -0.39876732 0.97089142
-3.713994 -6.370996 -0.39877433 0.97089094
-3.7937889 -6.3239059 -0.39877784 0.97089064
-3.9515917 -6.2266698 -0.3987847 0.9708901
-4.029541 -6.1765819 -0.39878809 0.97088987
-4.1068845 -6.1254883 -0.39879146 0.97088969
-4.1835446 -6.0734568 -0.39879477 0.97088951
-4.2595997 -6.0204782 -0.39879811 0.97088909
-4.5568552 -5.7990232 -0.39881101 0.97088826
-4.7012205 -5.6827731 -0.39881727 0.97088778
-4.7722754 -5.623291 -0.39882034 0.9708876
-4.8426075 -5.5629296 -0.39882338 0.97088736
-5.0489354 -5.3765626 -0.39883232 0.97088677
-5.1161523 -5.3127441 -0.39883521 0.97088647
-5.1825585 -5.2480664 -0.39883807 0.97088629
-5.2481251 -5.1825585 -0.39884093 0.97088611
-5.3767676 -5.0491209 -0.39884648 0.97088569
-1.028711 -0.94195312 -0.075423621 0.99442816
-1.0288671 -0.91862303 -0.074583434 0.99449003
-1.0291797 -0.87342769 -0.072991677 0.99460733
-1.0294532 -0.8300879 -0.071510196 0.99471658
-1.0298828 -0.76822263 -0.069476202 0.99486631
-1.0300391 -0.74834961 -0.06884487 0.9949128
-1.0301367 -0.72883785 -0.068235323 0.9949578
-1.0882422 -0.70995116 -0.070261039 0.99480855
-1.1504296 -0.70995116 -0.073100053 0.99459928
-1.1834375 -0.70996094 -0.074625239 0.99448693
-1.2178515 -0.70996094 -0.076228216 0.99436897
-1.2914063 -0.70996094 -0.079688683 0.99411398
-1.3307617 -0.70995116 -0.081559218 0.99397624
-1.4152734 -0.70996094 -0.08561939 0.99367738
-1.4608008 -0.70995116 -0.087826423 0.9935149
-1.50875 -0.70996094 -0.090164796 0.99334276
-1.5592968 -0.70996094 -0.092645913 0.99316025
-1.6693358 -0.70997071 -0.098091163 0.99275959
-1.7293359 -0.70996094 -0.10108577 0.99253947
-1.7878906 -0.70789063 -0.10398124 0.99232662
-1.787832 -0.68199217 -0.10347007 0.99236417
-1.7877538 -0.65633786 -0.10297981 0.99240017
-8.7556829 -3.0902343 -0.5020836 0.96348888
-8.7938576 -2.9799805 -0.50208515 0.96348876
-8.8306246 -2.8692479 -0.50208664 0.9634887
-8.866025 -2.7580566 -0.50208807 0.96348852
-8.8999901 -2.6464355 -0.50208944 0.96348846
-8.9934959 -2.3091505 -0.50209326 0.96348816
-9.0218353 -2.1959472 -0.50209439 0.96348804
-9.0487013 -2.0824022 -0.50209546 0.9634881
-9.0741892 -1.9685351 -0.50209641 0.96348792
-9.0982027 -1.8543555 -0.50209737 0.96348798
-9.1208496 -1.7398925 -0.50209826 0.96348774
-9.1419821 -1.6251464 -0.50209904 0.96348774
-9.1799507 -1.3949023 -0.50210053 0.96348768
-9.2121487 -1.1637695 -0.50210172 0.96348751
-9.2385349 -0.93190426 -0.50210261 0.96348733
-9.2494822 -0.81573242 -0.50210297 0.96348745
-9.2590237 -0.69943357 -0.50210327 0.96348739
-9.2736912 -0.46654296 -0.50210369 0.96348733
-9.2824898 -0.23333983 -0.50210381 0.96348733
-8.8137398 0.55451173 -0.50208223 0.9652369
-8.8060741 0.66521484 -0.50208181 0.9652369
-8.7970114 0.77582031 -0.50208127 0.96523696
-8.786562 0.88630855 -0.50208068 0.96523696
-8.7614937 1.1068262 -0.50207937 0.96523702
-8.7468557 1.2168359 -0.50207859 0.9652372
-8.7308788 1.3266504 -0.50207776 0.9652372
-8.7135057 1.4362597 -0.50207686 0.9652372
-8.6947556 1.545625 -0.50207597 0.96523732
-8.6531439 1.7636328 -0.50207382 0.96523738
-8.6060152 1.9805371 -0.50207156 0.96523768
-8.5534964 2.196162 -0.502069 0.9652378
-8.5251951 2.303457 -0.50206763 0.96523792
-8.4955759 2.4103906 -0.5020662 0.96523792
-8.3985834 2.7288671 -0.50206155 0.96523833
-1.7293359 0.70993161 -0.10628071 0.99253833
-1.6692969 0.70993161 -0.10313191 0.99275869
-1.6127343 0.70993161 -0.10018005 0.99296516
-1.5592968 0.70994139 -0.097407185 0.99315923
-1.5087304 0.70993161 -0.094798394 0.99334186
-1.3719921 0.70994139 -0.087826155 0.99382997
-1.253828 0.70993161 -0.081917763 0.99424386
-1.2178906 0.70994139 -0.080145337 0.99436796
-1.1504296 0.70993161 -0.076856457 0.99459851
-1.1187109 0.70993161 -0.075328633 0.99470568
-1.0882422 0.70993161 -0.073871799 0.99480778
-1.0589453 0.70993161 -0.072481304 0.99490517
-1.0307031 0.70994139 -0.071153373 0.99499828
-1.0289062 0.80846679 -0.074395217 0.99477112
-1.0287499 0.82949215 -0.075132407 0.99471945
-1.0283008 0.89511716 -0.077508427 0.99455279
-5.1116209 4.800117 -0.39866316 0.97229719
-5.050869 4.863945 -0.39866039 0.97229737
-4.9892969 4.9269824 -0.39865765 0.97229761
-4.8638377 5.0507517 -0.39865196 0.97229797
-4.7999706 5.1114159 -0.39864907 0.97229815
-4.735322 5.1712985 -0.39864612 0.97229838
-4.536953 5.3459764 -0.39863715 0.97229898
-3.4405859 4.2669826 -0.3116309 0.9782787
-3.2135155 4.3081055 -0.30556536 0.978697
-3.2132127 4.5415235 -0.31628507 0.97795749
-3.8308399 5.8719821 -0.39860541 0.97230119
-3.5308299 6.0568457 -0.39859191 0.97230208
-3.4544237 6.1006541 -0.39858848 0.97230238
-3.2999609 6.1854491 -0.39858162 0.97230285
-3.2219629 6.2263865 -0.39857811 0.97230297
-3.064414 6.3052635 -0.39857104 0.97230351
-2.9848926 6.3432322 -0.3985675 0.97230375
-2.9049315 6.3801756 -0.39856392 0.97230399
-2.743623 6.451035 -0.39855674 0.97230452
-2.662334 6.484951 -0.39855307 0.97230476
-2.5806055 6.5178123 -0.39854941 0.97230506
-2.2497852 6.6390133 -0.39853469 0.97230601
-2.0821776 6.6933298 -0.3985272 0.97230655
-1.9978906 6.7189059 -0.39852348 0.97230679
-1.8283983 6.7668552 -0.39851591 0.97230732
-1.7431836 6.789238 -0.3985121 0.97230756
-1.6577344 6.8105369 -0.39850834 0.97230786
-1.5719922 6.8307714 -0.39850453 0.9723081
-1.4860351 6.8499217 -0.39850071 0.97230834
-1.3998241 6.8679686 -0.39849684 0.9723087
-1.3133984 6.8849511 -0.39849302 0.97230893
-0.96576172 6.9419918 -0.39847758 0.97230995
-0.70339841 6.9732418 -0.39846596 0.97231078
-0.61572266 6.9814649 -0.39846206 0.97231102
-0.44011718 6.9945898 -0.39845431 0.97231162
-0.26414061 7.0033102 -0.3984465 0.97231209
-0.088085935 7.0075974 -0.39843872 0.97231263
0.52785152 6.9877734 -0.39841151 0.97231448
0.61562496 6.9805174 -0.39840767 0.97231477
0.7908203 6.9627051 -0.39839992 0.97231531
0.9655273 6.9404783 -0.3983922 0.97231591
1.1395898 6.9138966 -0.39838454 0.97231638
1.2263867 6.8989744 -0.39838073 0.97231662
1.7424999 6.7866015 -0.39835802 0.97231817
1.8276172 6.7640915 -0.39835429 0.97231853
1.9969921 6.7158985 -0.39834684 0.97231901
2.1650977 6.663486 -0.39833948 0.97231942
2.2486327 6.6356835 -0.39833578 0.97231972
2.4970703 6.5460448 -0.39832491 0.97232044
2.5791016 6.5141015 -0.39832133 0.97232068
2.6607225 6.4811034 -0.39831775 0.97232097
2.8226953 6.4121094 -0.39831069 0.97232139
2.9030273 6.3760548 -0.39830717 0.97232169
3.0623047 6.3010058 -0.3983002 0.97232205
3.2196288 6.2219238 -0.39829335 0.97232258
3.3748827 6.1389356 -0.39828655 0.97232318
3.5280468 6.0520997 -0.39827988 0.97232354
3.6037891 6.0072265 -0.3982766 0.97232378
3.8275585 5.866992 -0.39826682 0.97232443
3.9737108 5.7688575 -0.3982605 0.97232491
4.188242 5.6148825 -0.39825115 0.97232538
4.5323439 5.3406153 -0.39823622 0.97232652
4.7302928 5.1658592 -0.39822769 0.97232723
4.8585739 5.0453024 -0.39822212 0.97232747
4.9215426 4.9837985 -0.39821941 0.97232777
5.0451951 4.8584862 -0.39821407 0.97232801
5.1058006 4.7946777 -0.39821148 0.97232825
5.2246094 4.6648045 -0.39820635 0.97232854
5.3966017 4.4644823 -0.39819896 0.97232914
5.5070505 4.3273926 -0.39819422 0.97232938
5.5609374 4.257822 -0.3981919 0.97232962
1.258086 0.89011717 -0.087620087 0.99384451
1.2583789 0.84369141 -0.086136281 0.99394846
1.2585156 0.8210547 -0.08543285 0.99399775
1.2586523 0.79876953 -0.08475399 0.99404532
1.2590234 0.73395509 -0.082856253 0.99417824
1.2591602 0.71297848 -0.082267724 0.99421942
1.3719531 0.70993161 -0.087826155 0.99383014
1.4152343 0.70993161 -0.090019301 0.9936766
1.4607812 0.70993161 -0.092339821 0.993514
1.6126952 0.70994139 -0.10018009 0.99296528
1.7292968 0.70994139 -0.10628051 0.99253851
1.8610938 0.70994139 -0.11324852 0.99205124
1.9337305 0.70994139 -0.11711597 0.99178094
2.0240624 0.71437496 -0.12203251 0.99143732
2.0240624 0.68588865 -0.12150352 0.99147427
2.0240428 0.65764648 -0.12099835 0.99150968
8.4828119 2.4067872 -0.50131559 0.96528924
8.5406055 2.1928515 -0.50131327 0.96528924
8.5929689 1.9775293 -0.50131124 0.96528941
8.6170893 1.869375 -0.50131029 0.96528965
8.639883 1.760957 -0.50130934 0.96528971
8.6613474 1.6522363 -0.50130856 0.96528965
8.7000971 1.4340527 -0.50130707 0.96528977
8.7333593 1.2149512 -0.50130582 0.96528989
8.7479296 1.105127 -0.50130528 0.96528989
8.7729683 0.8849414 -0.50130445 0.96528983
8.7924213 0.66419923 -0.50130379 0.96528983
8.8000193 0.55365235 -0.50130361 0.96529007
8.8062887 0.44302735 -0.50130337 0.96529007
8.8111525 0.33233398 -0.50130332 0.96529007
8.8167572 0.11080078 -0.50130332 0.96528995
8.817441 -9.7656248e-06 -0.50130337 0.96529001
8.8146877 -0.22158203 -0.50130373 0.96528989
8.8111715 -0.33234376 -0.50130403 0.96529001
8.7833595 -0.77463865 -0.5013057 0.96528995
8.7729683 -0.88493162 -0.5013063 0.96528983
8.7611523 -0.99510741 -0.50130695 0.96528983
8.7001562 -1.4340723 -0.50131011 0.96528953
8.6614065 -1.652246 -0.50131208 0.96528941
8.5675001 -2.0853808 -0.50131667 0.96528918
8.5406637 -2.1928711 -0.50131798 0.96528906
8.4520311 -2.5132422 -0.50132221 0.9652887
8.4197655 -2.6192675 -0.50132376 0.9652887
2.0240819 -0.65767574 -0.12099819 0.9915095
2.0240428 -0.68591797 -0.12150367 0.99147433
2.0240624 -0.71439451 -0.12203258 0.99143726
1.8611132 -0.70996094 -0.11324867 0.99205118
1.6126952 -0.70996094 -0.10017978 0.99296528
1.5087109 -0.70995116 -0.0947982 0.99334186
1.3719531 -0.70995116 -0.087826155 0.99383008
1.3307031 -0.70996094 -0.085750423 0.99397546
1.2589062 -0.75524414 -0.083466373 0.9941355
1.2586328 -0.79878902 -0.084753796 0.99404532
1.2583984 -0.8437109 -0.086136393 0.99394834
1.2582226 -0.86672848 -0.086865082 0.99389738
1.258086 -0.89012694 -0.087619893 0.99384451
1.2579297 -0.91397458 -0.0884021 0.99378967
1.2577734 -0.93821287 -0.089212149 0.99373299
5.6109762 -4.2961326 -0.40177444 0.97208416
5.2850389 -4.6007032 -0.39837462 0.9723171
5.1678514 -4.7321582 -0.39837995 0.97231656
5.1079884 -4.7967381 -0.39838266 0.9723165
5.0473633 -4.8605857 -0.39838544 0.97231627
4.9858985 -4.9236522 -0.39838821 0.97231615
4.7968946 -5.1081834 -0.39839676 0.97231555
4.6670899 -5.2272067 -0.39840263 0.97231507
4.5343165 -5.3429294 -0.39840862 0.97231466
4.3298044 -5.5101366 -0.3984178 0.97231412
4.2602735 -5.5641599 -0.39842093 0.97231388
4.1900392 -5.6173043 -0.39842415 0.97231364
4.1191406 -5.6695409 -0.39842731 0.97231352
4.047617 -5.7209177 -0.39843056 0.97231323
3.9026561 -5.8209372 -0.39843702 0.97231269
3.8292186 -5.8695703 -0.39844036 0.97231251
3.6805663 -5.9640331 -0.39844704 0.97231209
3.6053514 -6.0098534 -0.39845037 0.97231191
3.1425781 -6.2646971 -0.39847115 0.97231042
2.8239648 -6.4149218 -0.39848536 0.97230935
2.6618946 -6.4839649 -0.3984926 0.97230893
2.5802343 -6.516953 -0.39849624 0.97230875
2.4981639 -6.548945 -0.39849991 0.9723084
2.3328125 -6.609746 -0.3985073 0.97230804
2.2496288 -6.6386328 -0.39851099 0.97230762
2.0821288 -6.6931739 -0.39851844 0.97230721
1.9978906 -6.7188864 -0.39852223 0.97230685
1.9133008 -6.743535 -0.39852598 0.97230661
1.8284374 -6.7670798 -0.39852977 0.97230643
1.6577929 -6.8110352 -0.39853737 0.97230589
1.3135742 -6.8859863 -0.39855263 0.97230482
1.1401563 -6.9169626 -0.39856032 0.97230428
1.0531055 -6.9307909 -0.39856422 0.97230411
0.87863278 -6.9552245 -0.39857197 0.97230351
0.79117185 -6.9657812 -0.39857581 0.97230321
0.70359373 -6.975234 -0.39857972 0.97230297
0.61589843 -6.9836035 -0.39858359 0.97230268
0.52808595 -6.990859 -0.3985875 0.97230244
0.35224608 -7.00208 -0.39859527 0.97230178
0.088085935 -7.0105567 -0.39860693 0.97230113
-0.17621094 -7.0091114 -0.39861861 0.97230029
-0.44027343 -6.997705 -0.39863029 0.97229946
-0.52816403 -6.9916697 -0.39863417 0.97229922
-0.61597657 -6.9845605 -0.39863807 0.97229892
-0.70374995 -6.9763474 -0.39864191 0.97229862
-0.79136717 -6.9670115 -0.39864579 0.97229838
-0.87882811 -6.9565821 -0.39864963 0.97229815
-1.0533984 -6.9324412 -0.39865732 0.97229761
-1.1404296 -6.9187107 -0.3986612 0.97229737
-1.4004492 -6.8710055 -0.39867264 0.9722966
-1.4866797 -6.8529391 -0.3986764 0.9722963
-1.5726953 -6.8337693 -0.39868018 0.97229612
-1.914121 -6.7463965 -0.3986952 0.97229499
-1.9987891 -6.7218552 -0.39869893 0.97229475
-2.2507715 -6.641953 -0.39870992 0.97229391
-2.3341014 -6.613203 -0.39871359 0.97229367
-2.4170215 -6.5833983 -0.39871725 0.9722935
-2.5817187 -6.5206933 -0.39872447 0.97229308
-2.8257713 -6.4189353 -0.39873511 0.97229224
-3.1447949 -6.2690721 -0.39874908 0.97229129
-3.2233496 -6.2291112 -0.39875251 0.97229105
-3.3013964 -6.1881638 -0.39875591 0.97229087
-3.4559276 -6.1033692 -0.39876264 0.97229034
-3.5324023 -6.0594821 -0.39876598 0.97229016
-3.9060545 -5.8259764 -0.39878225 0.97228903
-4.193965 -5.622529 -0.39879477 0.97228819
-4.2643261 -5.5694237 -0.39879784 0.97228801
-4.3340135 -5.5154591 -0.39880085 0.97228771
-4.402998 -5.4606051 -0.39880386 0.97228754
-4.6719627 -5.2326169 -0.39881548 0.9722867
-4.7373729 -5.1735349 -0.39881831 0.97228652
-4.8020411 -5.1136522 -0.39882109 0.97228628
-4.8659372 -5.0529199 -0.39882386 0.97228622
-4.9290724 -4.991406 -0.3988266 0.97228605
-4.9914646 -4.929111 -0.39882931 0.97228581
-5.0530272 -4.866035 -0.39883193 0.97228563
-1.0281055 -0.9179492 -0.078358956 0.99449325
-1.0283008 -0.89513671 -0.077508502 0.99455273
-1.0286328 -0.85092771 -0.075896338 0.99466574
-1.0287499 -0.8295117 -0.075132214 0.99471939
-1.0289062 -0.80850583 -0.074395292 0.994771
-1.0293359 -0.74784178 -0.07233391 0.99491549
-1.0294532 -0.72834957 -0.071693838 0.99496037
-1.1504296 -0.70995116 -0.076856539 0.99459851
-1.2178515 -0.70996094 -0.080145374 0.99436808
-1.2914063 -0.70996094 -0.083783373 0.99411309
-1.3719921 -0.70996094 -0.087825924 0.99382991
-1.4152734 -0.70996094 -0.090019412 0.99367636
-1.4608008 -0.70995116 -0.092339434 0.99351388
-1.50875 -0.70996094 -0.0947982 0.99334174
-1.5592968 -0.70996094 -0.097407341 0.99315917
-1.7293359 -0.70996094 -0.10628063 0.99253833
-1.7886914 -0.68232423 -0.1088401 0.99235934
-1.7886132 -0.65666014 -0.10832405 0.9923954
-8.3274221 -2.9390721 -0.50206447 0.96523809
-8.4956446 -2.4104297 -0.50207132 0.96523762
-8.5535841 -2.1962109 -0.50207365 0.96523744
-8.6303511 -1.8722656 -0.50207669 0.96523714
-8.6948147 -1.5456543 -0.50207925 0.96523702
-8.7135639 -1.4362695 -0.50207996 0.96523702
-8.730937 -1.3266602 -0.50208062 0.96523696
-8.7469234 -1.2168456 -0.50208116 0.9652369
-8.7747459 -0.9966504 -0.50208217 0.9652369
-8.8137598 -0.5545215 -0.50208342 0.96523684
-8.8200483 -0.4437207 -0.5020836 0.96523678
-8.8249121 -0.33285156 -0.50208372 0.96523684
-8.8304586 -0.11097656 -0.50208372 0.96523696
-8.4192085 -0 -0.50206536 0.96682608
-8.4185638 0.10579101 -0.50206524 0.96682602
-8.416543 0.21157226 -0.50206506 0.96682608
-8.4132318 0.31732422 -0.50206482 0.96682608
-8.4025974 0.52864259 -0.50206411 0.96682608
-8.3952637 0.6341992 -0.50206369 0.96682614
-8.3766794 0.8449707 -0.50206262 0.96682614
-8.3235931 1.2647558 -0.50205982 0.96682638
-8.2276564 1.7848926 -0.50205505 0.96682674
-8.2045803 1.8881445 -0.50205392 0.96682674
-8.1801758 1.991084 -0.50205272 0.96682686
-8.1544628 2.0937207 -0.50205147 0.96682703
-8.099287 2.2979589 -0.50204879 0.96682698
-8.0697365 2.3995409 -0.50204736 0.96682715
-8.0388861 2.5007617 -0.50204593 0.96682733
-7.9388571 2.8019433 -0.50204116 0.96682763
-1.7894921 0.65696287 -0.11367508 0.99239045
-1.7895312 0.68262696 -0.11421661 0.99235451
-1.7896484 0.70855469 -0.11478172 0.99231678
-1.7293359 0.70993161 -0.11147686 0.99253714
-1.6692969 0.70993161 -0.10817432 0.9927575
-1.6127343 0.70993161 -0.1050782 0.99296403
-1.5592968 0.70994139 -0.10216969 0.9931581
-1.3719921 0.70994139 -0.092120439 0.99382895
-1.3307421 0.70994139 -0.089943007 0.99397439
-1.2914063 0.70994139 -0.087880053 0.99411219
-1.253828 0.70993161 -0.085922964 0.99424297
-1.2178906 0.70994139 -0.084064104 0.99436706
-1.183457 0.70995116 -0.08229652 0.99448514
-1.1504296 0.70993161 -0.080614395 0.99459767
-1.0882422 0.70993161 -0.077483483 0.99480695
-1.0589453 0.70993161 -0.076025315 0.9949044
-1.0286328 0.74731445 -0.075819321 0.99491817
-1.0283203 0.78734374 -0.077233195 0.99482375
-1.0278906 0.85031247 -0.079550818 0.99466872
-1.0275586 0.89447266 -0.081239469 0.99455583
-1.0273633 0.91725582 -0.082130395 0.99449641
-4.8732224 4.5762501 -0.39865288 0.97356778
-4.8152928 4.6370897 -0.39865023 0.97356796
-4.7566113 4.697197 -0.39864758 0.97356814
-4.6971774 4.7565722 -0.39864489 0.97356832
-4.5761032 4.8730469 -0.39863941 0.97356868
-4.4521384 4.9864259 -0.39863381 0.97356904
-4.389111 5.0419335 -0.39863098 0.97356921
-3.517246 4.2515917 -0.3290495 0.97813189
-3.4393358 4.265449 -0.32674927 0.97828299
-3.2533104 4.2490039 -0.31912449 0.97878444
-3.2325194 4.4491892 -0.32795307 0.97820395
-3.2120116 4.5398045 -0.33163422 0.9779622
-3.7222753 5.5518456 -0.39860091 0.9735713
-3.6521776 5.5981541 -0.39859778 0.97357148
-3.5103123 5.688076 -0.39859143 0.97357184
-3.2933495 5.8162012 -0.39858168 0.97357243
-3.2199512 5.85708 -0.39857841 0.97357267
-3.1460838 5.8970313 -0.3985751 0.97357291
-3.0717089 5.9360547 -0.39857176 0.97357309
-2.8457227 6.0474415 -0.39856166 0.9735738
-2.6157227 6.1502442 -0.39855137 0.97357446
-2.538203 6.1825681 -0.39854792 0.9735747
-2.460283 6.2139354 -0.39854446 0.97357488
-2.3033202 6.2736912 -0.39853743 0.97357529
-1.9851172 6.3812594 -0.39852324 0.97357631
-1.9047461 6.4056249 -0.39851967 0.97357661
-1.7431641 6.4513669 -0.39851248 0.97357696
-1.661914 6.4727149 -0.39850888 0.9735772
-1.4167578 6.5305567 -0.39849797 0.97357798
-1.3345703 6.5477829 -0.39849433 0.97357821
-1.2521484 6.5639939 -0.39849067 0.97357839
-1.0867773 6.5932322 -0.39848331 0.97357905
-1.0038671 6.606318 -0.39847964 0.97357923
-0.83749998 6.6293454 -0.39847225 0.97357965
-0.67060548 6.6481738 -0.39846489 0.97358012
-0.58699214 6.6560254 -0.39846113 0.97358036
-0.25183594 6.6768651 -0.39844629 0.97358131
-0.16792968 6.6794138 -0.3984426 0.97358167
-0.083945312 6.6809568 -0.3984389 0.97358179
-1.953125e-05 6.6814256 -0.39843518 0.97358203
0.083925776 6.68083 -0.39843145 0.97358233
0.16789062 6.6791797 -0.39842775 0.97358257
0.25179687 6.6764941 -0.39842406 0.97358274
0.33566406 6.6727343 -0.39842033 0.97358304
0.50324219 6.6620603 -0.39841297 0.97358352
0.58691406 6.6551561 -0.39840928 0.97358376
0.67050779 6.6471777 -0.39840555 0.97358406
0.75394529 6.638164 -0.39840189 0.97358429
1.0864843 6.59166 -0.39838722 0.97358525
1.2517968 6.5621676 -0.39837995 0.97358567
1.6612695 6.4703121 -0.39836195 0.97358692
1.8233203 6.4264059 -0.39835483 0.97358739
1.9842187 6.3784571 -0.39834777 0.97358775
2.0641992 6.3529587 -0.39834425 0.97358799
2.1438282 6.3264647 -0.39834079 0.97358829
2.380703 6.2409959 -0.39833036 0.97358894
2.4589257 6.2105274 -0.39832699 0.97358918
2.6141405 6.1466699 -0.39832014 0.97358966
2.9195898 6.0073633 -0.39830685 0.97359049
2.9948046 5.9701366 -0.39830357 0.97359079
3.0696094 5.9319825 -0.39830029 0.97359097
3.143867 5.8928905 -0.39829704 0.97359121
3.217617 5.8528905 -0.39829382 0.97359139
3.4358788 5.7273145 -0.39828429 0.97359198
3.6492186 5.5936227 -0.39827499 0.97359258
4.0599999 5.3026075 -0.39825714 0.97359377
4.1262889 5.2511425 -0.39825428 0.97359395
4.3848047 5.0370407 -0.3982431 0.97359467
4.5099411 4.9251661 -0.39823768 0.97359508
4.6322069 4.8102441 -0.39823237 0.97359538
4.6922655 4.7516112 -0.39822981 0.97359556
4.7515626 4.6922364 -0.39822721 0.9735958
4.8101172 4.6321387 -0.39822471 0.97359592
4.924922 4.5097361 -0.39821973 0.97359633
4.9811716 4.4474607 -0.39821735 0.97359651
5.1982422 4.1914549 -0.39820805 0.97359705
1.2571094 0.9133203 -0.09266182 0.99379289
1.2578515 0.79825193 -0.088840179 0.99404812
1.2579882 0.77633786 -0.088154107 0.99409401
1.2581249 0.75474608 -0.08749149 0.99413824
1.2583593 0.7125293 -0.086236037 0.9942221
1.3719531 0.70993161 -0.092120357 0.99382913
1.5592773 0.70993161 -0.1021698 0.99315822
1.6126952 0.70994139 -0.10507793 0.99296415
1.7930859 0.70993161 -0.11500652 0.992302
1.8610938 0.70994139 -0.11878593 0.99204999
2.0239649 0.68585938 -0.12744026 0.99147332
8.0275002 2.4972265 -0.50133568 0.96687353
8.1427736 2.090703 -0.50133097 0.96687376
8.1926756 1.8854101 -0.501329 0.96687406
8.2157421 1.7823046 -0.50132805 0.966874
8.2579098 1.5752832 -0.50132644 0.96687406
8.2770309 1.4713769 -0.50132573 0.96687418
8.2948437 1.367246 -0.50132501 0.96687424
8.311367 1.2629199 -0.50132442 0.96687424
8.3265619 1.1583788 -0.50132382 0.96687436
8.3530273 0.94875973 -0.50132293 0.96687442
8.3742189 0.73853517 -0.50132221 0.96687442
8.3828125 0.63323241 -0.50132191 0.96687454
8.3901167 0.52787107 -0.50132173 0.96687454
8.3961134 0.42239258 -0.50132155 0.96687442
8.4040623 0.21126953 -0.50132143 0.96687448
8.4060545 0.10563476 -0.50132149 0.96687448
8.4060545 -0.10564453 -0.50132173 0.96687448
8.4040623 -0.21124999 -0.50132191 0.96687448
8.4007416 -0.31687498 -0.50132215 0.96687448
8.3960934 -0.42239258 -0.50132245 0.96687448
8.3742189 -0.73854488 -0.50132376 0.96687442
8.3642769 -0.8437109 -0.50132436 0.96687442
8.3405075 -1.0536621 -0.50132561 0.96687412
8.326601 -1.1583984 -0.50132632 0.96687418
8.2949219 -1.3672851 -0.50132793 0.96687394
8.2375393 -1.6789355 -0.50133079 0.96687376
8.2157812 -1.782334 -0.50133187 0.96687382
8.1927538 -1.8854296 -0.501333 0.96687376
8.1428318 -2.0907421 -0.50133544 0.96687353
8.0877342 -2.2947071 -0.50133812 0.96687347
8.05832 -2.396162 -0.5013395 0.96687329
8.0275784 -2.4972558 -0.50134099 0.96687323
2.0239844 -0.65765625 -0.12690997 0.99150854
2.0239844 -0.68587887 -0.12743972 0.9914732
2.0239649 -0.71436524 -0.12799473 0.9914363
1.7931055 -0.70995116 -0.11500629 0.99230194
1.6126952 -0.70996094 -0.10507816 0.99296415
1.5592773 -0.70995116 -0.10216976 0.99315816
1.4152343 -0.70996094 -0.09442047 0.99367553
1.3307031 -0.70996094 -0.089943156 0.99397451
1.2913672 -0.70996094 -0.087880284 0.99411231
1.2583593 -0.71254879 -0.086236112 0.9942221
1.2582421 -0.73350585 -0.086852565 0.99418092
1.2581249 -0.75478512 -0.087491609 0.99413818
1.2579687 -0.77636719 -0.088153988 0.99409401
1.2578125 -0.79827148 -0.088840291 0.99404824
1.2576953 -0.82052732 -0.089551695 0.99400067
1.257539 -0.84315425 -0.090288505 0.99395144
1.2574023 -0.86616206 -0.091051675 0.99390042
1.2572266 -0.88954097 -0.091842495 0.99384767
5.6050587 -4.2916112 -0.42097458 0.97210872
5.4610548 -4.2912693 -0.41417742 0.9725529
5.0935154 -4.3226657 -0.39838278 0.97358561
5.0063086 -4.4698439 -0.40022242 0.9734652
4.9270701 -4.5116796 -0.39839035 0.97358501
4.8121676 -4.6341114 -0.39839557 0.97358483
4.6341991 -4.8123045 -0.39840361 0.97358418
4.5733981 -4.8701854 -0.39840636 0.973584
4.1937108 -5.2010546 -0.39842352 0.97358298
4.1280665 -5.2533884 -0.39842647 0.97358274
4.0617576 -5.3049216 -0.39842948 0.97358245
3.7901952 -5.502461 -0.3984417 0.97358167
3.5802343 -5.6415524 -0.39845112 0.97358096
3.3651171 -5.7726169 -0.39846078 0.97358036
3.0709178 -5.9345899 -0.39847395 0.97357959
2.9961133 -5.972744 -0.39847729 0.97357947
2.7689648 -6.0816016 -0.39848748 0.97357863
2.3817382 -6.2437305 -0.39850473 0.97357756
1.9047656 -6.4057517 -0.39852598 0.97357613
1.8241405 -6.4292283 -0.39852959 0.97357589
1.6620116 -6.4731641 -0.39853683 0.97357541
1.580586 -6.4935837 -0.39854041 0.97357517
1.4988476 -6.5129981 -0.39854407 0.973575
1.416914 -6.5313668 -0.39854771 0.97357476
1.334707 -6.5487399 -0.39855132 0.97357446
1.2523438 -6.5650682 -0.39855498 0.97357416
1.0869921 -6.5945702 -0.39856234 0.97357374
0.92093748 -6.6199217 -0.3985697 0.97357327
0.8376953 -6.6310253 -0.3985734 0.97357303
0.67078125 -6.6501169 -0.39858082 0.97357255
0.50347656 -6.6650095 -0.39858821 0.97357202
0.41968748 -6.6708689 -0.39859191 0.97357178
0.33583984 -6.6756735 -0.39859566 0.97357154
0.083984375 -6.6837692 -0.39860678 0.97357082
-0.083984375 -6.6838865 -0.39861423 0.97357041
-0.33585936 -6.6761618 -0.39862537 0.97356963
-0.41976562 -6.6714745 -0.39862907 0.97356939
-0.58726561 -6.6589551 -0.39863643 0.97356886
-0.83785152 -6.6322656 -0.39864749 0.9735682
-0.92115229 -6.6212792 -0.39865115 0.9735679
-1.1700782 -6.5820408 -0.39866209 0.97356719
-1.2527149 -6.566875 -0.39866576 0.97356695
-1.3351562 -6.5506539 -0.39866939 0.97356677
