# .PCD v0.7 - Point Cloud Data file format
VERSION 0.7
FIELDS x y z intensity
SIZE 4 4 4 4
TYPE F F F F
COUNT 1 1 1 1
WIDTH 1080
HEIGHT 1
VIEWPOINT 0 0 0 1 0 0 0
POINTS 1080
DATA ascii
-3.3673339 -8.2021484 -0.20882681 0.96514618
-3.9830077 -8.1953316 -0.21460994 0.96419865
-4.1104198 -8.1939354 -0.21590792 0.96398586
-4.2393556 -8.1925001 -0.21725738 0.96376503
-4.3700099 -8.1910744 -0.21865833 0.96353555
-4.5023241 -8.189599 -0.2201124 0.96329767
-4.9103904 -8.1850977 -0.22480907 0.9625293
-5.4835348 -8.1787691 -0.23191719 0.96136749
-5.7842965 -8.1754293 -0.23587251 0.96072197
-6.9275389 -8.1628122 -0.25215694 0.95806795
-7.1041989 -8.1608591 -0.25483358 0.95763224
-7.284668 -8.1588669 -0.25760937 0.9571808
-7.6578708 -8.1547365 -0.26347384 0.9562276
-8.0486908 -8.1504097 -0.26978669 0.95520282
-8.4589844 -8.1458788 -0.27658817 0.95409977
-1.0371484 -0.92603511 -0.032748032 0.9944523
-1.0372461 -0.90292966 -0.032389298 0.9945128
-1.0373242 -0.88032222 -0.032043647 0.99457121
-1.0373828 -0.85818356 -0.031709861 0.99462759
-1.0374218 -0.83651364 -0.031388052 0.99468207
-1.0375781 -0.79441404 -0.030777892 0.99478507
-1.0589062 -0.70992184 -0.030026359 0.99491215
-1.0882031 -0.70994139 -0.030602226 0.99481481
-1.1186719 -0.70994139 -0.031205826 0.99471283
-1.1503906 -0.70994139 -0.031838834 0.99460584
-1.2914063 -0.70995116 -0.03470844 0.99412096
-1.3307421 -0.70994139 -0.035523299 0.99398339
-1.3719531 -0.70993161 -0.036383018 0.99383831
-1.4152539 -0.70993161 -0.037291754 0.99368495
-1.5087109 -0.70993161 -0.039271392 0.99335074
-1.5592968 -0.70993161 -0.040352326 0.99316835
-1.6127148 -0.70994139 -0.041500662 0.99297458
-1.6692969 -0.70994139 -0.042723846 0.99276829
-1.7783788 -0.67837888 -0.044828832 0.99241334
-1.7783593 -0.65288085 -0.044617612 0.99244887
-16.030928 -5.6579394 -0.40039024 0.93424255
-16.100996 -5.4561229 -0.40039772 0.93424159
-16.168545 -5.2534571 -0.40040493 0.93424058
-16.233524 -5.0499606 -0.40041187 0.93423963
-16.413164 -4.4347458 -0.40043089 0.93423635
-21.070137 -3.7455566 -0.504031 0.91793787
-21.157919 -3.2149217 -0.50404 0.91793668
-21.232372 -2.6822557 -0.50404763 0.91793543
-21.264599 -2.4152539 -0.50405091 0.91793472
-21.318817 -1.8801172 -0.50405627 0.91793382
-21.359444 -1.3437988 -0.50406015 0.9179334
-21.39501 -0.5378027 -0.50406319 0.91793305
-19.137157 0.24050781 -0.50381464 0.9262777
-19.132616 0.48095703 -0.50381386 0.92627776
-19.114414 0.96161133 -0.50381136 0.926278
-19.100733 1.2017285 -0.50380963 0.92627835
-19.04162 1.9207519 -0.50380236 0.92627925
-18.986982 2.398623 -0.50379586 0.92628056
-18.955254 2.6370118 -0.50379211 0.92628092
-18.798134 3.5859473 -0.50377387 0.92628348
-18.70166 4.0571289 -0.50376278 0.92628509
-17.669882 4.0664454 -0.47730759 0.93001723
-16.650898 4.0529099 -0.45112291 0.93372625
-15.760839 4.0467286 -0.4283528 0.93696362
-14.956758 4.0412793 -0.4078474 0.9398886
-14.626269 4.1498828 -0.40022567 0.94097805
-14.458056 4.6977243 -0.40018713 0.94098365
-14.334365 5.0591893 -0.40015781 0.94098794
-1.7791991 0.65320313 -0.049892731 0.99244481
-1.7792187 0.67872071 -0.050129011 0.99240917
-1.7792578 0.70447266 -0.050375517 0.99237204
-1.7292968 0.70996094 -0.049210165 0.99254787
-1.5592773 0.70995116 -0.045101624 0.99316788
-1.4152734 0.70997071 -0.041680984 0.99368435
-1.3307031 0.70996094 -0.039704513 0.99398309
-1.2913867 0.70996094 -0.038793754 0.9941206
-1.2178515 0.70995116 -0.037109144 0.99437523
-1.1834375 0.70996094 -0.036328774 0.99449307
-1.0882226 0.70995116 -0.03420414 0.9948144
-1.0589062 0.70997071 -0.033560675 0.99491167
-1.0370312 0.73373044 -0.033441581 0.99492973
-1.0368359 0.7938965 -0.03437664 0.99478835
-1.0367968 0.81471676 -0.034711074 0.99473768
-1.0366406 0.85760742 -0.035416793 0.99463099
-1.036582 0.87971675 -0.035789184 0.99457467
-1.0365039 0.90230465 -0.03617527 0.99451631
-1.0364063 0.9253906 -0.036575545 0.99445581
-7.6371775 7.9307032 -0.2898345 0.95690066
-7.4454098 7.9285741 -0.286313 0.95741272
-3.4683788 4.4138966 -0.14777313 0.97778833
-3.4566307 4.5146289 -0.14967972 0.97750515
-5.9013376 7.9115233 -0.25982198 0.96127582
-5.7467871 7.9098239 -0.25737441 0.96163356
-5.5951171 7.9081249 -0.25501129 0.96197903
-5.1560059 7.9032812 -0.24840732 0.96294516
-4.8754196 7.9001856 -0.24437973 0.96353477
-4.0835252 7.8914351 -0.23390174 0.96507078
-3.9579198 7.8900485 -0.23236665 0.96529579
-3.8339257 7.8886914 -0.23088962 0.96551257
-3.7114744 7.8873339 -0.22946832 0.96572143
-3.0057421 7.8795114 -0.22200184 0.96681798
-2.6688671 7.8758006 -0.21890458 0.96727312
-2.4492579 7.8733883 -0.21705818 0.96754473
-2.3408008 7.8721871 -0.21619695 0.96767139
-2.2331934 7.870996 -0.2153755 0.96779209
-2.1263866 7.8698044 -0.21459678 0.96790689
-1.9149609 7.8674707 -0.21315166 0.96811932
-1.810293 7.8663278 -0.21248798 0.96821707
-1.3975781 7.8617578 -0.21019928 0.9685539
-1.2956836 7.8606248 -0.20971783 0.96862495
-1.0932422 7.8583884 -0.20885906 0.96875137
-0.99261719 7.8572946 -0.20848107 0.96880692
-0.79234374 7.8550682 -0.20782907 0.96890312
-0.59320313 7.8528609 -0.20731071 0.96897948
-0.29607421 7.8495798 -0.20678167 0.96905732
-0.098632812 7.8474021 -0.20659441 0.96908498
0.59218746 7.8397655 -0.20696527 0.96903038
0.69130856 7.8386817 -0.20714788 0.9690032
0.89003903 7.8364844 -0.20761657 0.96893436
0.98982418 7.835371 -0.20790008 0.96889257
1.1902343 7.8331738 -0.20856942 0.96879399
1.3920703 7.8309274 -0.20937499 0.96867532
1.5956055 7.828691 -0.21032207 0.96853602
1.6980859 7.8275585 -0.21084803 0.96845853
2.5402734 7.8182321 -0.21640237 0.96764147
2.6489453 7.8170505 -0.21727151 0.96751326
2.9804688 7.8133788 -0.22013821 0.96709192
3.7929492 7.8043942 -0.2284233 0.96587473
3.9142578 7.8030562 -0.2298065 0.96567184
4.1614451 7.8003321 -0.23273396 0.96524227
4.2874413 7.7989354 -0.23428033 0.96501529
4.4151564 7.7975192 -0.23588625 0.96477979
4.6760349 7.7946286 -0.23927936 0.96428233
4.8093748 7.7931638 -0.24107102 0.96401978
5.0821676 7.7901464 -0.24485292 0.96346587
5.2218356 7.7885938 -0.24684797 0.96317387
6.5969529 7.7734079 -0.26838812 0.96002531
6.9370508 7.7696676 -0.27419233 0.95917869
7.1127734 7.7677341 -0.27725571 0.95873195
7.2924609 7.7657223 -0.28043455 0.958269
7.476367 7.763711 -0.28373116 0.95778877
7.8575387 7.7594919 -0.29070529 0.95677423
8.0553322 7.7572947 -0.29439253 0.95623815
8.2582417 7.7550683 -0.29822281 0.95568156
8.4664841 7.7527537 -0.30220073 0.95510381
8.6804295 7.7504101 -0.30633709 0.95450354
8.9003706 7.7479587 -0.31063679 0.95387977
9.1266012 7.7454586 -0.31511155 0.95323139
9.5993748 7.7402539 -0.32461256 0.95185548
9.8466797 7.7375193 -0.32966137 0.95112526
1.2673242 0.92077148 -0.04123741 0.99375141
1.2673827 0.89672852 -0.040869523 0.99380696
1.2674609 0.87306637 -0.040515136 0.99386054
1.267539 0.84983397 -0.040172614 0.99391222
1.2676562 0.80451173 -0.03952343 0.99401033
1.2677343 0.78235352 -0.039215658 0.99405682
1.2678906 0.71791989 -0.038355865 0.99418682
1.2914063 0.70997071 -0.038793981 0.99412054
1.3307421 0.70996094 -0.039704666 0.99398297
1.5087109 0.70996094 -0.043893851 0.99335027
1.6692969 0.70997071 -0.04775257 0.99276775
1.7292968 0.70996094 -0.049210396 0.99254787
1.7931249 0.70995116 -0.050768163 0.99231279
1.8611327 0.70996094 -0.052436866 0.99206114
1.9337499 0.70993161 -0.054227371 0.99179125
2.0061524 0.70803708 -0.056003228 0.99152344
14.553866 3.9324217 -0.39686313 0.94145948
14.90834 3.6287889 -0.40391445 0.94045097
16.590467 3.5991211 -0.44689506 0.93432677
18.687832 3.3221092 -0.49966109 0.92686296
18.728046 3.0869823 -0.49965695 0.92686319
18.765078 2.8513768 -0.49965313 0.92686421
18.884218 1.9048632 -0.49964106 0.92686582
18.906582 1.6674218 -0.49963886 0.92686611
18.95582 0.95364255 -0.49963424 0.92686677
18.978125 0.23848632 -0.49963251 0.92686737
18.979609 1.953125e-05 -0.49963263 0.92686743
18.978203 -0.23848632 -0.49963301 0.92686707
18.966328 -0.71533203 -0.49963483 0.92686665
18.955936 -0.95361328 -0.49963626 0.92686629
18.926132 -1.4296875 -0.49964005 0.92686576
18.90666 -1.6674023 -0.4996424 0.92686582
18.884394 -1.9048632 -0.49964511 0.92686516
18.830702 -2.3788671 -0.49965149 0.92686462
18.765429 -2.8514061 -0.49965918 0.9268629
18.688202 -3.3221092 -0.49966815 0.92686158
18.645039 -3.5567284 -0.4996731 0.92686135
18.59914 -3.7908008 -0.4996784 0.92686033
18.243925 -4.4406247 -0.49428535 0.92762071
16.333008 -4.4130759 -0.44537586 0.93454242
14.792675 -4.398613 -0.40626091 0.94011551
14.402148 -4.4802341 -0.39704981 0.94143254
1.9337499 -0.70994139 -0.054227218 0.99179119
1.8610938 -0.70994139 -0.052436635 0.99206132
1.7931249 -0.70992184 -0.050768316 0.99231285
1.7293164 -0.70993161 -0.04921028 0.99254787
1.6126952 -0.70994139 -0.046385724 0.99297416
1.5592968 -0.70995116 -0.045101624 0.99316782
1.5087304 -0.70993161 -0.043893624 0.99335027
1.4607812 -0.70992184 -0.042755391 0.99352223
1.4152734 -0.70992184 -0.041680984 0.99368447
1.3307421 -0.70993161 -0.039704628 0.99398303
1.2913867 -0.70995116 -0.038793907 0.9941206
1.2678906 -0.71791011 -0.038356017 0.99418682
1.2678516 -0.73908204 -0.03863224 0.99414498
1.2674805 -0.87304688 -0.040514983 0.99386054
1.2673047 -0.92075193 -0.041237373 0.99375153
1.2672656 -0.94525391 -0.041618194 0.99369389
10.635019 -8.3568745 -0.35605478 0.94731748
9.8367968 -8.3480568 -0.3396318 0.94968539
9.5866795 -8.345293 -0.33459094 0.95041335
8.8785543 -8.3374805 -0.32062379 0.95243329
8.4380274 -8.3325977 -0.31217989 0.95365638
8.019824 -8.3279781 -0.30435681 0.95479101
7.8184566 -8.3257513 -0.30066216 0.95532751
7.6218553 -8.3235741 -0.29710039 0.95584476
7.2421679 -8.3193846 -0.29036146 0.95682448
7.0586524 -8.3173532 -0.28717157 0.95728844
6.8791208 -8.3153706 -0.28409547 0.95773607
6.70332 -8.3134174 -0.281129 0.95816815
6.1969919 -8.3078318 -0.27284148 0.95937586
5.7190232 -8.3025293 -0.26539466 0.96046239
5.1197071 -8.2959175 -0.25662658 0.96174341
4.8343163 -8.2927637 -0.2526899 0.96231902
4.5573435 -8.2897167 -0.24902748 0.96285492
4.1562109 -8.2852831 -0.24401142 0.96358937
4.0260158 -8.2838478 -0.24245925 0.96381658
3.8974023 -8.2824221 -0.24096572 0.96403557
3.7703905 -8.2810059 -0.23952788 0.96424639
3.6448827 -8.2796383 -0.23814254 0.96444911
3.3979883 -8.2768946 -0.23553327 0.96483189
3.1563475 -8.2742376 -0.23312634 0.96518493
3.0373046 -8.2729101 -0.23199424 0.96535093
2.802578 -8.2703314 -0.22987525 0.96566212
2.5719726 -8.2677832 -0.22793445 0.96594691
2.4580858 -8.2665138 -0.22703031 0.96607977
2.345078 -8.2652636 -0.22616795 0.96620625
2.1215038 -8.2628126 -0.22457153 0.96644092
1.7917578 -8.2591505 -0.22247638 0.9667486
1.6831445 -8.2579489 -0.22185715 0.96683967
1.3605859 -8.2543945 -0.22022621 0.9670794
1.1480273 -8.2520409 -0.21932435 0.96721196
0.93701172 -8.2497168 -0.21856719 0.96732324
0.83205074 -8.2485447 -0.21824265 0.96737111
0.31089842 -8.2427931 -0.21714319 0.96753269
0.20716797 -8.2416401 -0.21702695 0.9675498
0.10357422 -8.2404976 -0.2169458 0.96756178
-0.10351562 -8.238203 -0.21688478 0.96757066
-0.41429687 -8.2347755 -0.21705201 0.96754611
-0.51800781 -8.233633 -0.2171759 0.96752787
-0.62189454 -8.23248 -0.21733518 0.9675045
-0.72595704 -8.231328 -0.2175279 0.96747607
-0.9346875 -8.2290335 -0.21801902 0.96740383
-1.039414 -8.2278614 -0.21831766 0.96736008
-1.2499024 -8.2255268 -0.21901935 0.96725672
-1.355664 -8.2243748 -0.21942489 0.96719712
-1.4618359 -8.2232027 -0.21986672 0.96713221
-1.6755469 -8.220849 -0.22085963 0.96698618
-1.8913672 -8.2184572 -0.22200252 0.96681815
-2.1095507 -8.2160444 -0.22329968 0.9666276
-2.2196288 -8.2148237 -0.22400713 0.96652371
-2.3304296 -8.2136135 -0.22475478 0.96641386
-2.441992 -8.2123632 -0.22554302 0.96629816
-2.5543554 -8.211133 -0.22637272 0.96617627
-2.7816894 -8.2086229 -0.22815919 0.96591389
-3.0127537 -8.2060642 -0.2301202 0.965626
-3.1298535 -8.2047653 -0.23116843 0.96547216
-3.4878514 -8.2008104 -0.23459652 0.96496916
-4.1104198 -8.1939354 -0.24132077 0.96398342
-4.2393751 -8.1925097 -0.24282773 0.96376252
-4.3700099 -8.1910744 -0.2443947 0.9635331
-4.636445 -8.1881151 -0.24770513 0.96304828
-4.7724414 -8.1866207 -0.2494543 0.96279222
-4.9103904 -8.1850977 -0.2512683 0.9625268
-5.938623 -8.1737299 -0.26596498 0.960379
-6.0957127 -8.1720018 -0.26838002 0.9600265
-6.255713 -8.1702337 -0.27088273 0.95966142
-6.7544918 -8.1647167 -0.27894935 0.95848566
-7.2846875 -8.1588669 -0.28792924 0.95717788
-7.4691892 -8.156826 -0.29114735 0.9567098
-8.2513084 -8.1481733 -0.30526924 0.95465839
-8.4590034 -8.1458883 -0.30914161 0.95409662
-1.0363281 -0.94895506 -0.036990356 0.99439317
-1.0364257 -0.92537105 -0.03657547 0.99445581
-1.0365624 -0.87967771 -0.035789374 0.99457479
-1.0366406 -0.8575781 -0.03541702 0.99463105
-1.0367968 -0.81469727 -0.034711074 0.99473768
-1.0371094 -0.71437496 -0.03315109 0.9949736
-1.0589062 -0.70992184 -0.033560369 0.99491179
-1.1186719 -0.70994139 -0.034878768 0.99471247
-1.1503906 -0.70994139 -0.035586242 0.99460548
-1.2537891 -0.70993161 -0.037929647 0.99425125
-1.2914063 -0.70995116 -0.038793448 0.99412054
-1.3307421 -0.70994139 -0.03970436 0.99398297
-1.3719727 -0.70993161 -0.040665474 0.99383783
-1.4152539 -0.70993161 -0.041680869 0.99368447
-1.5087109 -0.70993161 -0.043893736 0.99335033
-1.6692969 -0.70994139 -0.04775238 0.99276781
-1.7292968 -0.70993161 -0.04921028 0.99254793
-1.7792578 -0.70445311 -0.050375897 0.99237204
-1.7791991 -0.65319335 -0.049893074 0.99244481
-14.336064 -5.0597458 -0.40020365 0.94098121
-14.39871 -4.8792772 -0.40021032 0.94098043
-14.517245 -4.5160351 -0.40022296 0.94097859
-14.573115 -4.3333497 -0.40022892 0.94097751
-14.62662 -4.1499219 -0.40023458 0.94097674
-14.83495 -4.0083203 -0.40452459 0.94036329
-16.344297 -3.9782519 -0.4428159 0.93490601
-17.236767 -3.9667284 -0.46560791 0.93167263
-18.955439 -2.637002 -0.50379777 0.92628026
-18.987324 -2.3986328 -0.50380099 0.92627931
-19.015985 -2.1598535 -0.50380391 0.92627925
-19.084209 -1.4416406 -0.50381058 0.926278
-19.10083 -1.2016991 -0.50381219 0.926278
-19.114492 -0.96158201 -0.50381345 0.9262777
-19.132626 -0.48092774 -0.50381494 0.9262777
-17.295811 0.65236324 -0.50361216 0.9330824
-17.273808 1.0867871 -0.50360924 0.933083
-17.258799 1.3037695 -0.50360739 0.93308294
-17.240917 1.5205176 -0.50360519 0.93308342
-17.197109 1.9533105 -0.50359994 0.93308401
-17.171124 2.1692286 -0.50359684 0.93308431
-17.142382 2.3848243 -0.50359344 0.93308479
-17.110909 2.6000097 -0.50358975 0.93308538
-17.076748 2.8148046 -0.50358582 0.93308592
-17.039911 3.0291405 -0.50358152 0.93308634
-16.913134 3.6691406 -0.50356698 0.93308824
-16.650898 4.0529199 -0.49863669 0.93372136
-15.737715 4.040781 -0.47277105 0.93704849
-13.076045 4.2486815 -0.40005425 0.94646698
-13.021162 4.4125195 -0.40004107 0.94646883
-1.7800391 0.65352535 -0.055173986 0.99244064
-1.7800585 0.67904294 -0.055435333 0.99240506
-1.7801172 0.70481443 -0.055708043 0.99236774
-1.6692969 0.70996094 -0.052781563 0.99276721
-1.5592773 0.70995116 -0.049851835 0.9931674
-1.4607812 0.70997071 -0.047258336 0.99352163
-1.3719921 0.70994139 -0.044948272 0.9938373
-1.2178515 0.70995116 -0.041017532 0.99437475
-1.1834375 0.70996094 -0.04015499 0.99449265
-1.0882226 0.70995116 -0.037806585 0.99481398
-1.0589062 0.70997071 -0.037094917 0.99491125
-1.0362109 0.77294922 -0.037614517 0.9948402
-1.0360742 0.81414062 -0.038340263 0.99474096
-1.0358202 0.87908202 -0.03953018 0.99457818
-1.0357226 0.90165037 -0.039956246 0.99451995
-1.0356641 0.92469722 -0.040398061 0.99445945
-8.4549217 7.9397364 -0.33747938 0.954647
-8.2423725 7.9373827 -0.33295012 0.9552418
-7.8337693 7.9328613 -0.3243973 0.95636606
-7.6371679 7.9306931 -0.32035935 0.9568975
-7.4454098 7.9285741 -0.3164697 0.9574095
-7.0753417 7.9245019 -0.30910924 0.95837909
-3.4587207 4.2895508 -0.16033183 0.97819096
-3.4559569 4.513701 -0.16541103 0.97750789
-5.4461622 7.9064841 -0.27934885 0.96230966
-5.2998338 7.9048824 -0.27691704 0.96263152
-5.1560059 7.9032812 -0.27457023 0.96294236
-4.7384863 7.8986816 -0.26800987 0.96381146
-4.6036525 7.8971777 -0.26597497 0.96408123
-4.3399119 7.8942676 -0.26211935 0.96459252
-4.2108302 7.8928514 -0.26029435 0.96483463
-4.0835252 7.8914351 -0.25853583 0.96506816
-3.8339257 7.8886914 -0.25520754 0.96550995
-3.2358885 7.8820701 -0.24791741 0.96647853
-3.0057421 7.8795214 -0.24538364 0.96681541
-2.7801073 7.8770213 -0.24305196 0.96712548
-2.6688671 7.8758006 -0.24196121 0.96727067
-2.4492774 7.8733883 -0.23991832 0.96754223
-2.3408203 7.8721776 -0.23896635 0.96766895
-2.1263866 7.8698044 -0.23719744 0.96790451
-1.810293 7.8663278 -0.23486671 0.96821469
-1.6028124 7.8640232 -0.23352167 0.96839386
-1.4999218 7.8629003 -0.23290947 0.96847528
-1.3975781 7.8617578 -0.23233798 0.96855152
-1.0932422 7.8583884 -0.23085563 0.96874905
-0.99261719 7.857285 -0.23043884 0.9688046
-0.79234374 7.8550777 -0.22971715 0.96890074
-0.69267577 7.8539648 -0.22941265 0.96894139
-0.59322262 7.8528709 -0.22914432 0.96897709
-0.49398437 7.8517871 -0.22891256 0.96900785
-0.098632812 7.8474021 -0.22835235 0.96908265
0 7.8463182 -0.22830221 0.96908927
0.098593749 7.8452244 -0.22828887 0.96909112
0.19714843 7.8441405 -0.22831073 0.96908808
0.29578125 7.8430467 -0.22836959 0.96908033
0.49328125 7.8408594 -0.22859481 0.96905029
0.59218746 7.8397655 -0.22876231 0.96902806
0.79056638 7.8375683 -0.22920489 0.96896899
0.89003903 7.8364844 -0.22948219 0.96893203
0.98982418 7.835371 -0.22979656 0.96889025
1.290957 7.8320508 -0.23096249 0.9687348
1.3920703 7.8309274 -0.23142679 0.96867293
1.4935937 7.8298144 -0.23193076 0.96860588
1.5955859 7.8286719 -0.23247263 0.96853369
1.6980859 7.8275585 -0.23305389 0.96845615
1.8010937 7.826406 -0.2336763 0.96837342
2.1136718 7.8229489 -0.23578531 0.96809256
2.2192187 7.8218064 -0.23657189 0.96798772
2.3254297 7.8206053 -0.23740159 0.96787739
2.4324608 7.8194528 -0.23827571 0.96776104
2.5402734 7.8182321 -0.23919244 0.96763903
2.7584765 7.8158398 -0.24116497 0.96737659
2.8690233 7.8146191 -0.24221982 0.9672361
3.321367 7.8096189 -0.24693196 0.9666096
3.4373436 7.80832 -0.24823727 0.96643603
3.5545506 7.8070407 -0.24959694 0.96625537
3.6730468 7.8057227 -0.25101048 0.96606749
4.0370703 7.8016992 -0.25559703 0.96545845
4.4151564 7.7975192 -0.26073048 0.96477717
4.6760349 7.7946286 -0.26448086 0.96427965
4.8093748 7.7931638 -0.26646096 0.96401703
4.9447069 7.7916698 -0.26851368 0.963745
5.2218356 7.7886033 -0.27284557 0.96317106
6.1124606 7.7787695 -0.287855 0.96118462
6.2707028 7.7770214 -0.29068354 0.9608109
6.5969138 7.7734275 -0.29665405 0.96002233
6.7651758 7.7715526 -0.29980442 0.95960653
7.2924609 7.7657127 -0.30996907 0.95826584
7.476367 7.763701 -0.31361437 0.95778561
7.6646094 7.761611 -0.31739709 0.95728773
8.2582026 7.7550488 -0.32963064 0.9556784
8.9003706 7.7479587 -0.34335259 0.95387632
9.8466406 7.7374997 -0.36438239 0.95112181
1.2665625 0.8961035 -0.045144003 0.99381059
1.2666405 0.87249023 -0.044752233 0.99386406
1.2666992 0.84926754 -0.044374466 0.9939158
1.2668555 0.80396485 -0.043657608 0.99401373
1.266914 0.78184569 -0.043317907 0.99406022
1.2669531 0.76009762 -0.042990226 0.99410504
1.3307421 0.70996094 -0.043886259 0.99398249
1.3719921 0.70996094 -0.044948578 0.99383724
1.6692969 0.70997071 -0.052782096 0.99276721
1.7292968 0.70996094 -0.054393273 0.99254727
1.8611327 0.70995116 -0.057959709 0.99206054
1.9337499 0.70993161 -0.059938736 0.99179059
2.0082617 0.70878905 -0.061966818 0.99151391
2.0081639 0.68051755 -0.061695021 0.99155098
13.029219 4.0531735 -0.39703029 0.94686049
13.126562 3.7243555 -0.39701995 0.94686204
14.876387 3.6209667 -0.44549674 0.94057035
16.590508 3.5991211 -0.49396366 0.93432176
16.91375 3.0067186 -0.49985608 0.9335649
16.983711 2.5806835 -0.4998489 0.93356591
17.043047 2.1530468 -0.49984282 0.93356645
17.091562 1.7240429 -0.49983793 0.93356729
17.111776 1.5091406 -0.49983597 0.93356764
17.144316 1.0786426 -0.49983287 0.93356758
17.172577 0.43169922 -0.49983042 0.93356836
17.172636 -0.43166015 -0.49983135 0.93356812
17.144316 -1.0786133 -0.49983516 0.93356758
17.068829 -1.9387012 -0.49984434 0.93356621
17.014921 -2.3670506 -0.49985072 0.93356544
16.983906 -2.5806932 -0.49985436 0.9335652
16.950233 -2.7939453 -0.49985826 0.93356478
16.742188 -3.8529296 -0.49988222 0.93356162
16.692617 -4.0630565 -0.49988788 0.93356097
16.332989 -4.4130759 -0.49228328 0.93453765
15.512949 -4.4014063 -0.46919718 0.93750954
14.768808 -4.3915234 -0.44832298 0.94020468
14.087891 -4.3824801 -0.42929178 0.94266886
2.0080469 -0.65245116 -0.061435699 0.99158651
2.0081835 -0.68050778 -0.061695136 0.99155092
2.0082617 -0.70879883 -0.061966855 0.99151391
1.9337499 -0.70994139 -0.059938431 0.99179059
1.7293164 -0.70993161 -0.054393042 0.99254727
1.6692969 -0.70993161 -0.052781716 0.99276727
1.6126952 -0.70994139 -0.051270749 0.99297363
1.3307421 -0.70993161 -0.043886144 0.99398255
1.2670507 -0.73861325 -0.042673834 0.99414825
1.2666211 -0.87247068 -0.044752121 0.99386418
1.2664844 -0.92012691 -0.045549545 0.99375516
10.635038 -8.3568554 -0.39355373 0.94731349
9.5866795 -8.345293 -0.36983073 0.95040965
9.3438864 -8.3426075 -0.36447716 0.95110935
9.1079292 -8.3399897 -0.35933548 0.95178241
8.8785152 -8.3374605 -0.35439077 0.95242989
8.6553316 -8.3350096 -0.34963515 0.95305294
8.4380074 -8.3325977 -0.34505942 0.95365298
8.019824 -8.3279877 -0.33641249 0.95478761
7.8184371 -8.3257418 -0.33232665 0.95532423
7.6218553 -8.3235836 -0.32839173 0.95584142
7.2421679 -8.3193941 -0.32094139 0.9568212
7.0586524 -8.3173628 -0.31741568 0.95728523
6.7033396 -8.3134279 -0.31073684 0.95816493
6.3624411 -8.3096676 -0.30452189 0.95898432
6.0347266 -8.3060255 -0.2987363 0.95974779
5.8754296 -8.3042965 -0.29599497 0.96010977
5.4143162 -8.2991991 -0.2883282 0.96112245
5.2658005 -8.2975483 -0.28594929 0.96143699
5.1197071 -8.2959175 -0.28365397 0.96174055
4.4217968 -8.2882128 -0.27333933 0.96310598
4.1562109 -8.2852831 -0.26971003 0.96358663
4.0260158 -8.2838478 -0.26799554 0.9638139
3.8974023 -8.2824221 -0.26634356 0.96403289
3.7703905 -8.2810059 -0.26475427 0.96424371
3.6448631 -8.2796192 -0.26322529 0.96444654
3.3979883 -8.2768946 -0.26034006 0.96482921
3.2765625 -8.2755756 -0.25898188 0.96500927
2.802578 -8.2703314 -0.25408506 0.96565956
2.6867969 -8.2690525 -0.25298756 0.96580517
2.5719726 -8.2677832 -0.25194106 0.96594435
2.345078 -8.2652636 -0.24998954 0.96620375
2.1215038 -8.2628126 -0.24822275 0.96643841
2.0109179 -8.2615814 -0.24740656 0.96654677
1.7917187 -8.2591505 -0.24590813 0.96674615
1.6831445 -8.2579489 -0.24522258 0.96683717
1.5750586 -8.2567673 -0.24458043 0.96692258
1.4675585 -8.2555561 -0.24397998 0.96700257
1.254082 -8.2532129 -0.24290177 0.96714592
1.1479882 -8.2520313 -0.24242403 0.96720958
1.0423046 -8.2508783 -0.24198522 0.96726781
0.93703121 -8.2497072 -0.24158716 0.9673208
0.72734374 -8.2473822 -0.24090783 0.96741128
0.20716797 -8.2416401 -0.23988467 0.96754736
-0.10351562 -8.238203 -0.23972754 0.96756822
-0.20707031 -8.2370701 -0.23975076 0.96756506
-0.31062499 -8.2359276 -0.23981261 0.96755683
-0.41429687 -8.2347755 -0.23991151 0.96754366
-0.62189454 -8.23248 -0.24022423 0.96750206
-0.72595704 -8.231328 -0.24043751 0.96747363
-0.83019531 -8.2301855 -0.24069007 0.96744007
-1.039414 -8.2278614 -0.24131034 0.96735758
-1.783164 -8.2196484 -0.24473242 0.96690249
-1.8913672 -8.2184572 -0.24538419 0.96681565
-2.0001562 -8.2172556 -0.24607967 0.9667232
-2.2196288 -8.2148237 -0.24760011 0.9665212
-2.3304296 -8.2136135 -0.24842535 0.96641135
-2.5543554 -8.211133 -0.2502149 0.96617371
-2.667578 -8.2098732 -0.25117731 0.96604568
-2.7816894 -8.2086134 -0.25218838 0.96591139
-3.1298535 -8.2047653 -0.25551462 0.96546954
-3.4878125 -8.2008104 -0.25930479 0.9649666
-3.6095898 -8.1994724 -0.26067555 0.96478456
-3.8571093 -8.1967382 -0.26358891 0.96439821
-4.2393751 -8.1925097 -0.26840296 0.96375978
-4.636445 -8.1881151 -0.27379411 0.96304554
-5.0503807 -8.1835546 -0.27981129 0.9622488
-5.1925001 -8.1819725 -0.28196609 0.96196365
-5.3368359 -8.1803808 -0.28420085 0.96166819
-5.4835544 -8.1787691 -0.28651664 0.96136194
-5.6326561 -8.1771288 -0.28891513 0.96104479
-5.938623 -8.1737299 -0.29397705 0.96037602
-6.255713 -8.1702337 -0.29941151 0.95965838
-6.4187498 -8.168437 -0.30227768 0.95928013
-6.5849609 -8.1665821 -0.30524781 0.95888841
-6.7544918 -8.1647167 -0.30832621 0.95848256
-7.1041989 -8.1608686 -0.31482527 0.95762622
-7.284668 -8.1588764 -0.31825614 0.95717466
-7.4691796 -8.1568356 -0.3218118 0.95670658
-7.6578708 -8.1547461 -0.32549971 0.95622134
-8.4589939 -8.1458979 -0.34169966 0.95409316
-8.6720705 -8.1435347 -0.34614635 0.95351005
-1.0355663 -0.9482519 -0.040856019 0.99439687
-1.0358202 -0.87906247 -0.039530218 0.99457824
-1.0359374 -0.85696286 -0.039119262 0.99463439
-1.0359961 -0.83532226 -0.038722761 0.99468869
-1.0362695 -0.75290036 -0.037270583 0.99488735
-1.0364063 -0.71388668 -0.036618348 0.99497658
-1.0589062 -0.70992184 -0.037094917 0.99491137
-1.1187109 -0.70994139 -0.038552169 0.99471194
-1.1834375 -0.70993161 -0.040154874 0.99449271
-1.2178515 -0.70994139 -0.041017342 0.99437481
-1.2537891 -0.70993161 -0.041924551 0.99425083
-1.2914063 -0.70995116 -0.0428796 0.99412012
-1.4152539 -0.70993161 -0.046070594 0.99368399
-1.4607812 -0.70994139 -0.047258187 0.99352169
-1.5087109 -0.70993161 -0.048516385 0.99334979
-1.5592968 -0.70993161 -0.049851529 0.99316734
-1.6692969 -0.70994139 -0.052781522 0.99276721
-1.7292968 -0.70994139 -0.054392926 0.99254733
-1.7801172 -0.70479488 -0.055708084 0.9923678
-1.7800391 -0.65351564 -0.05517368 0.99244064
-13.021835 -4.4126954 -0.40005878 0.94646621
-13.076416 -4.2487597 -0.40006462 0.94646555
-13.524981 -4.0216894 -0.41056532 0.94509965
-14.125351 -4.0077052 -0.42722747 0.94293642
-14.79955 -3.9987597 -0.44606385 0.94049686
-16.344257 -3.9782519 -0.4894515 0.93490136
-16.91333 -3.6691406 -0.50357479 0.93308753
-17.040174 -3.0291698 -0.50358802 0.93308538
-17.076952 -2.8148143 -0.50359184 0.93308514
-17.111065 -2.6000195 -0.50359535 0.93308479
-17.142529 -2.3848145 -0.50359857 0.93308425
-17.17119 -2.1692188 -0.50360149 0.93308407
-17.197256 -1.9532714 -0.50360411 0.93308347
-17.258867 -1.3037499 -0.50361019 0.9330827
-17.273886 -1.086748 -0.50361156 0.9330827
-17.286249 -0.86962891 -0.50361276 0.9330824
-17.29582 -0.6523242 -0.50361353 0.9330824
-17.306816 -0.21747071 -0.50361431 0.93308216
-15.795752 0.19851562 -0.50344807 0.93873686
-15.785762 0.59540039 -0.50344652 0.93873692
-15.735644 1.3877538 -0.5034402 0.93873793
-15.716943 1.5853906 -0.50343794 0.93873799
-15.671904 1.979834 -0.50343257 0.93873888
-15.645781 2.1766112 -0.50342947 0.93873888
-15.552217 2.7646778 -0.50341862 0.93874043
-15.516142 2.959873 -0.50341439 0.93874085
-15.436572 3.3487988 -0.50340527 0.93874198
-15.347314 3.7356153 -0.50339508 0.93874282
-14.914492 4.0298533 -0.49236819 0.94004393
-12.883974 4.0080075 -0.43001953 0.9474327
-12.329433 4.0061035 -0.41315854 0.94944078
-11.880039 4.0258298 -0.39976341 0.9510392
-11.828349 4.1747265 -0.39975759 0.95103991
-1.7808789 0.65382808 -0.060460776 0.99243647
-1.7808985 0.67936522 -0.060747679 0.99240083
-1.7292968 0.70996094 -0.059576605 0.99254668
-1.6692969 0.70995116 -0.057811622 0.99276662
-1.4607812 0.70997071 -0.05176197 0.99352109
-1.4152734 0.70997071 -0.050461348 0.99368334
-1.3307031 0.70996094 -0.048068389 0.99398214
-1.0882226 0.70995116 -0.04140972 0.99481356
-1.0589062 0.70997071 -0.040630225 0.99491084
-1.0357422 0.7134375 -0.04008133 0.99497938
-1.0351952 0.85638672 -0.042817079 0.99463767
-1.035078 0.87845701 -0.043266371 0.99458158
-1.035 0.90098631 -0.043732338 0.99452335
-1.0348828 0.92402339 -0.044215355 0.99446309
-1.0348047 0.94755858 -0.04471653 0.9944005
-8.4549217 7.9397364 -0.36964172 0.95464325
-8.2423725 7.9373827 -0.36467963 0.9552381
-7.6371679 7.9306931 -0.35088992 0.95689392
-3.6323535 4.2801075 -0.17890701 0.9777844
-3.5251367 4.2611814 -0.17624934 0.97811067
-3.4552832 4.5127931 -0.18113773 0.97751045
-5.7467771 7.9098144 -0.31159195 0.9616276
-5.5951171 7.9081249 -0.30873141 0.96197301
-5.4461622 7.9064841 -0.30597031 0.9623065
-5.2998338 7.9048924 -0.30330649 0.96262842
-5.1560059 7.9032812 -0.30073616 0.96293932
-4.7384863 7.8986816 -0.29355055 0.96380848
-4.3399119 7.8942676 -0.28710127 0.9645896
-4.2108302 7.8928514 -0.28510082 0.96483171
-4.0835252 7.8914351 -0.28317481 0.96506524
-3.8339257 7.8886814 -0.27952838 0.96550715
-3.7114744 7.8873339 -0.27780503 0.965716
-3.5905077 7.8859959 -0.27614838 0.96591711
-3.2358885 7.8820701 -0.27154329 0.96647573
-3.1202245 7.8808007 -0.27012852 0.96664762
-3.0057421 7.8795214 -0.26876831 0.96681267
-2.8924022 7.8782711 -0.26746374 0.96697092
-2.7801073 7.8770213 -0.26621538 0.96712273
-2.6688671 7.8758006 -0.26501963 0.96726793
-2.4492774 7.8733883 -0.26278207 0.96753955
-2.3408203 7.8721776 -0.26174036 0.96766627
-2.2332129 7.870986 -0.26074728 0.96778697
-2.0203125 7.8686523 -0.25890446 0.96801084
-1.3975781 7.8617578 -0.25447938 0.96854895
-1.2957031 7.8606153 -0.25389537 0.96861994
-1.1942773 7.8595114 -0.25335592 0.96868569
-1.0932422 7.8583884 -0.25285667 0.96874642
-0.79234374 7.8550777 -0.25160864 0.96889812
-0.69267577 7.8539648 -0.2512753 0.96893883
-0.59322262 7.8528709 -0.25098124 0.96897453
-0.49398437 7.8517871 -0.2507292 0.96900529
-0.29607421 7.8495798 -0.25034174 0.96905237
-0.098632812 7.8474021 -0.25011382 0.96908009
0.098593749 7.8452244 -0.25004432 0.96908855
0.19714843 7.8441405 -0.25006831 0.96908551
0.29578125 7.8430467 -0.25013369 0.96907777
0.39449218 7.8419528 -0.25023577 0.96906519
0.98982418 7.835371 -0.25169659 0.96888763
1.0898827 7.8342772 -0.2520799 0.96884084
1.4935937 7.8298144 -0.25403413 0.96860325
1.9046874 7.8252831 -0.2566708 0.96828252
2.1136718 7.8229489 -0.25825709 0.96808988
2.2192187 7.8218064 -0.25911781 0.96798503
2.5402734 7.8182321 -0.26198798 0.96763629
2.7585156 7.8158398 -0.2641485 0.96737385
2.8690233 7.8146191 -0.26530305 0.96723342
3.0930078 7.8121386 -0.26777467 0.96693337
3.321367 7.8096189 -0.27046499 0.96660686
3.4373045 7.8083396 -0.27189463 0.96643329
3.5545311 7.8070211 -0.27338299 0.96625262
4.1614451 7.8003321 -0.28175974 0.96523678
4.2874413 7.7989354 -0.28363314 0.96500975
4.4151564 7.7975192 -0.28557798 0.96477425
4.6760349 7.7946286 -0.2896854 0.96427667
4.8093748 7.7931638 -0.29185408 0.96401405
5.2218356 7.7885938 -0.29884681 0.96316803
5.3638282 7.7870407 -0.30134875 0.96286541
5.5082812 7.7854295 -0.30394125 0.96255189
5.6551952 7.7838278 -0.30662909 0.96222717
6.1124606 7.7787695 -0.31528825 0.96118146
6.9370704 7.7696581 -0.3319512 0.95917219
7.1127734 7.7677245 -0.33566138 0.95872545
7.2924609 7.7657127 -0.33951014 0.95826244
7.8575387 7.7594824 -0.35194364 0.95676744
8.0553122 7.7573047 -0.3564083 0.95623124
8.6804495 7.7504001 -0.37086928 0.95449632
8.9003706 7.7479587 -0.37607425 0.9538725
9.1266012 7.7454782 -0.38149142 0.953224
9.5993748 7.7402439 -0.39299452 0.95184791
9.8998432 7.5799508 -0.39736992 0.95132536
1.2655468 0.94398433 -0.050316315 0.9937014
1.2655859 0.919541 -0.049856719 0.99375892
1.2657031 0.89551759 -0.04941288 0.99381417
1.2659374 0.82589841 -0.048172109 0.99396908
1.2661718 0.75959957 -0.047056962 0.99410826
1.2662109 0.73816407 -0.046711273 0.99415153
1.3307421 0.70996094 -0.048068542 0.99398196
1.5087109 0.70996094 -0.053140372 0.99334919
1.5592968 0.70994139 -0.054602966 0.99316674
1.6127343 0.70996094 -0.056157149 0.99297285
1.7292968 0.70996094 -0.05957653 0.99254668
1.8611327 0.70995116 -0.063482933 0.99205989
1.9337499 0.70993161 -0.065651014 0.99178988
2.0102735 0.68122071 -0.067645796 0.99154145
12.308672 3.6600292 -0.40925276 0.94990689
12.856718 3.6478124 -0.42591614 0.94792116
13.470371 3.6396387 -0.44469485 0.94568855
15.411523 2.9399219 -0.50002098 0.93914109
15.480273 2.5516503 -0.50001389 0.93914205
15.539335 2.1618066 -0.50000781 0.9391427
15.565175 1.9663378 -0.50000519 0.93914312
15.628008 1.3782812 -0.4999989 0.93914396
15.644101 1.1817871 -0.49999735 0.9391439
15.677422 0.59131837 -0.49999431 0.93914431
15.687304 0.1971582 -0.49999365 0.93914437
15.688516 1.953125e-05 -0.49999374 0.93914449
15.687304 -0.19712891 -0.49999407 0.93914437
15.683594 -0.39425781 -0.4999947 0.93914437
15.657773 -0.98508787 -0.49999815 0.93914372
15.644218 -1.1817774 -0.49999985 0.93914348
15.511191 -2.356914 -0.50001568 0.93914181
15.411679 -2.9399316 -0.50002724 0.9391405
15.29041 -3.5188086 -0.50004113 0.93913859
15.245078 -3.7106934 -0.50004631 0.93913823
15.197421 -3.9020214 -0.50005174 0.93913758
15.147422 -4.0927439 -0.50005746 0.93913668
15.094941 -4.2828126 -0.50006342 0.93913609
14.08791 -4.3824801 -0.47020456 0.94266409
2.0101953 -0.65315425 -0.06736061 0.99157679
1.9337499 -0.70994139 -0.065650783 0.99178988
1.7931249 -0.70993161 -0.061463051 0.9923116
1.7293164 -0.70993161 -0.05957672 0.99254662
1.5087304 -0.70993161 -0.053140145 0.99334919
1.4607812 -0.70992184 -0.051762044 0.99352115
1.4152734 -0.70992184 -0.050461348 0.99368346
1.3307421 -0.70993161 -0.048068579 0.99398202
1.2913867 -0.70995116 -0.046965905 0.9941197
1.2663085 -0.71702147 -0.046377525 0.99419308
1.2662305 -0.73813474 -0.046711043 0.99415153
1.2661718 -0.75958008 -0.047057036 0.99410832
1.2660937 -0.78133786 -0.047415581 0.99406356
1.265957 -0.82587886 -0.048172109 0.99396908
1.2658594 -0.84871089 -0.048571244 0.99391931
1.2657812 -0.87189454 -0.048984639 0.9938677
1.2656054 -0.91949219 -0.049856491 0.99375892
1.2655078 -0.94396484 -0.050316427 0.99370158
9.8084373 -7.7073531 -0.39755729 0.95130301
9.7110939 -7.8302341 -0.39756814 0.95130163
9.1079683 -8.3399897 -0.39357796 0.95177829
8.6553707 -8.3349905 -0.38295466 0.953049
7.8184371 -8.3257418 -0.36399651 0.95532054
7.6218162 -8.3235836 -0.35968623 0.95583785
7.429863 -8.321455 -0.35553312 0.9563365
7.2421679 -8.3193941 -0.35152769 0.95681763
6.8791208 -8.3153811 -0.34394225 0.9577294
6.7033396 -8.3134279 -0.34035033 0.95816147
6.5311522 -8.3115234 -0.33688504 0.95857847
6.0347071 -8.306035 -0.32720578 0.95974445
5.8754101 -8.3042774 -0.32420239 0.96010655
5.565371 -8.300849 -0.31850538 0.9607935
5.4143357 -8.2991991 -0.31580535 0.96111923
5.2658005 -8.2975588 -0.3131997 0.96143377
4.8342772 -8.2927637 -0.30592072 0.96231318
4.6948047 -8.2912207 -0.30366337 0.96258593
4.5573435 -8.2897167 -0.30148658 0.96284908
4.2881446 -8.2867479 -0.29736346 0.96334761
3.7703905 -8.2810059 -0.28998581 0.96424073
3.6448631 -8.2796192 -0.28831011 0.96444362
3.2765625 -8.2755756 -0.28366247 0.96500641
3.156328 -8.2742376 -0.28223601 0.96517944
3.0373046 -8.2729101 -0.28086674 0.96534544
2.9193945 -8.2716112 -0.27955484 0.96550447
2.802578 -8.2703123 -0.27829885 0.96565676
2.4580858 -8.2665138 -0.27485582 0.96607435
2.345078 -8.2652636 -0.27381182 0.96620095
2.2329102 -8.2640228 -0.27282086 0.96632129
2.1215038 -8.2628126 -0.2718789 0.96643561
2.0109179 -8.2615814 -0.27098498 0.96654403
1.5750586 -8.2567673 -0.26788944 0.96691984
1.4675585 -8.2555561 -0.26723075 0.96699983
1.3605859 -8.2543945 -0.26661837 0.96707416
1.1479882 -8.2520313 -0.26552546 0.96720684
1.0423046 -8.2508783 -0.26504692 0.96726507
0.93701172 -8.2497168 -0.26460987 0.96731806
0.83205074 -8.2485447 -0.26421595 0.96736592
0.72734374 -8.2473822 -0.26386574 0.96740854
0.62292969 -8.2462301 -0.26355717 0.96744597
0.51875001 -8.2450876 -0.26329175 0.96747822
0.31089842 -8.2427931 -0.26288578 0.96752757
0.20716797 -8.2416401 -0.26274517 0.96754462
-0.41429687 -8.2347755 -0.26277551 0.96754098
-0.62191403 -8.23248 -0.26311722 0.96749938
-1.1444921 -8.2267084 -0.26471096 0.96730578
-1.355664 -8.2243748 -0.26564834 0.96719187
-1.4618359 -8.2232027 -0.26618323 0.96712697
-1.783164 -8.2196484 -0.26805478 0.96689975
-1.8913672 -8.2184572 -0.26876989 0.96681291
-2.3304296 -8.2136135 -0.27209982 0.96640855
-2.4420116 -8.2123728 -0.27305526 0.96629274
-2.5543554 -8.211133 -0.27405965 0.96617091
-2.667578 -8.2098827 -0.27511403 0.96604282
-2.7816894 -8.2086134 -0.27622232 0.96590853
-3.1298535 -8.2047653 -0.2798647 0.96546668
-3.3673339 -8.2021389 -0.28257483 0.96513832
-3.6096094 -8.1994724 -0.28551748 0.96478158
-3.8571289 -8.1967382 -0.28870818 0.96439523
-3.9830077 -8.1953316 -0.2903986 0.96419054
-4.1104198 -8.1939449 -0.29215661 0.96397769
-4.2393751 -8.1925097 -0.29398236 0.96375674
-4.3700099 -8.1910744 -0.29587683 0.96352732
-4.5023241 -8.189599 -0.29784456 0.96328938
-4.636445 -8.1881151 -0.29988614 0.96304244
-4.9103904 -8.1850882 -0.30420098 0.9625209
-5.0503807 -8.1835546 -0.30647671 0.96224564
-5.6326466 -8.1771288 -0.31644809 0.96104157
-6.0957227 -8.1720209 -0.32491636 0.96002012
-6.255703 -8.1702442 -0.3279461 0.95965505
-6.4187403 -8.1684475 -0.33108413 0.9592768
-6.5849414 -8.1665916 -0.33433741 0.95888501
-6.7545114 -8.1647263 -0.33771038 0.95847905
-6.9275193 -8.1628218 -0.34120518 0.95805848
-7.6578903 -8.1547461 -0.35652205 0.95621771
-7.850986 -8.1526175 -0.3607128 0.95571452
-8.2512989 -8.1481838 -0.36957648 0.95465124
-1.0348047 -0.94753903 -0.044716414 0.99440056
-1.0348828 -0.92399412 -0.044215508 0.99446315
-1.035 -0.90097654 -0.043732338 0.99452341
-1.035078 -0.87842774 -0.043266486 0.99458164
-1.0351758 -0.85637695 -0.042816848 0.99463773
-1.0352539 -0.83474606 -0.042383347 0.99469197
-1.0353515 -0.81355464 -0.041964605 0.99474418
-1.0354102 -0.79277343 -0.041560784 0.99479473
-1.0355078 -0.77240235 -0.041171074 0.9948433
-1.0356641 -0.7327441 -0.040432051 0.99493563
-1.0357031 -0.71341795 -0.040081289 0.99497956
-1.0589062 -0.70992184 -0.040630072 0.99491096
-1.1834375 -0.70993161 -0.043981858 0.99449223
-1.2178515 -0.70993161 -0.044926185 0.99437433
-1.253828 -0.70993161 -0.045919836 0.99425024
-1.2914063 -0.70995116 -0.046965752 0.99411958
-1.3719727 -0.70993161 -0.049231909 0.99383688
-1.5592773 -0.70993161 -0.054602582 0.9931668
-1.6126952 -0.70995116 -0.056157034 0.99297303
-1.7292968 -0.70994139 -0.05957672 0.99254668
-1.7809765 -0.70513672 -0.061046407 0.99236345
-1.7809374 -0.67934567 -0.060747452 0.99240071
-1.7808985 -0.65382808 -0.060460776 0.99243641
-12.934062 -4.0235353 -0.43169132 0.94723386
-13.505722 -4.0159569 -0.44905248 0.94517118
-14.125371 -4.0077147 -0.4679423 0.94293165
-14.79955 -3.9987597 -0.48857281 0.94049197
-15.29916 -3.9281445 -0.50339794 0.93874288
-15.477763 -3.1545994 -0.50341672 0.93874073
-15.516376 -2.959873 -0.50342077 0.93874002
-15.552402 -2.7646875 -0.50342447 0.93873978
-15.586083 -2.5690722 -0.50342798 0.93873912
-15.617197 -2.3730273 -0.5034312 0.93873888
-15.67207 -1.979834 -0.5034368 0.93873823
-15.735751 -1.3877636 -0.50344312 0.93873751
-15.76584 -0.99188477 -0.50344604 0.9387368
-15.777061 -0.79370117 -0.50344706 0.9387368
-15.78579 -0.59537107 -0.50344777 0.9387368
-15.792011 -0.39696288 -0.50344825 0.93873686
-14.528359 -0 -0.50330919 0.94351
-14.523721 0.36510742 -0.5033083 0.94351017
-14.517968 0.54759765 -0.50330746 0.94351029
-14.509902 0.72998047 -0.50330639 0.94351041
-14.499521 0.91224605 -0.50330502 0.94351065
-14.454687 1.4580761 -0.50329953 0.94351125
-14.435165 1.6395898 -0.50329721 0.94351143
-14.413349 1.8208398 -0.50329465 0.94351172
-14.334238 2.3627343 -0.50328535 0.94351268
-14.270126 2.7221777 -0.50327796 0.94351345
-14.234638 2.9012694 -0.5032739 0.94351405
-14.023691 3.7891502 -0.50324982 0.94351673
-12.866777 4.002656 -0.46681866 0.94749629
-12.300733 3.9967675 -0.44806829 0.94955099
-1.7817578 0.65415037 -0.0657539 0.99243206
-1.7817968 0.6796875 -0.066065788 0.99239635
-1.7292968 0.70996094 -0.064761311 0.99254596
-1.6692969 0.70995116 -0.062842675 0.99276596
-1.5087109 0.70997071 -0.057764776 0.99334854
-1.4607812 0.70996094 -0.056266516 0.9935205
-1.4152734 0.70996094 -0.054852828 0.9936828
-1.1503906 0.70996094 -0.046831895 0.99460405
-1.0589062 0.70997071 -0.044166069 0.99491036
-1.0350195 0.71296871 -0.043540496 0.99498236
-1.0349609 0.73225582 -0.043920934 0.99493855
-1.0348047 0.77189451 -0.044723433 0.99484628
-1.0344532 0.85577148 -0.046510048 0.99464101
-1.0341406 0.92333007 -0.048028219 0.9944666
-8.4037104 7.8916502 -0.39937788 0.95490766
-8.2423725 7.9373922 -0.39641619 0.95523405
-7.2582126 7.9265137 -0.37233061 0.95789582
-7.0753512 7.9244919 -0.36803085 0.95837188
-3.6309862 4.2785254 -0.19440529 0.97779053
-3.4545605 4.5118747 -0.19686088 0.97751296
-5.9013476 7.9115133 -0.34192863 0.96126622
-5.7467966 7.9097948 -0.33870727 0.96162415
-5.5951071 7.9081345 -0.3355988 0.96196955
-5.2998242 7.9048824 -0.32970238 0.96262509
-4.8754296 7.9001756 -0.32160798 0.96352571
-4.7384863 7.8986716 -0.31909695 0.9638052
-4.3399119 7.8942575 -0.31208536 0.96458644
-3.8339257 7.8886814 -0.30385444 0.96550405
-3.711494 7.8873239 -0.30198136 0.9657129
-3.5905077 7.8859959 -0.30017942 0.96591401
-3.352793 7.8833594 -0.29677716 0.96629375
-3.0057421 7.8795214 -0.29215792 0.96680969
-2.7801073 7.8770213 -0.28938192 0.96711975
-2.4492774 7.8733883 -0.285651 0.96753663
-2.2332129 7.870986 -0.28343877 0.96778405
-2.1263866 7.8698044 -0.28241053 0.96789891
-1.915 7.8674707 -0.28051102 0.96811134
-1.70625 7.8651562 -0.27881187 0.96830153
-1.4999218 7.8629003 -0.27730599 0.96846986
-1.3975781 7.8617477 -0.2766256 0.96854609
-1.2957031 7.8606153 -0.27599174 0.96861714
-0.99261719 7.8572946 -0.2743642 0.96879911
-0.89234376 7.8561816 -0.27391174 0.96884972
-0.79234374 7.8550777 -0.27350509 0.96889532
-0.59322262 7.8528709 -0.27282298 0.96897167
-0.49398437 7.8517871 -0.27254814 0.96900249
-0.19730468 7.848496 -0.27198291 0.96906585
-3.9062499e-05 7.8463278 -0.27182046 0.96908385
0.098593749 7.8452244 -0.27180451 0.96908575
0.29578125 7.8430467 -0.27190065 0.96907496
0.39449218 7.8419528 -0.27201277 0.96906233
0.49328125 7.8408594 -0.27216884 0.96904492
0.69130856 7.8386817 -0.27261001 0.96899551
0.89003903 7.8364844 -0.2732254 0.96892661
1.0898827 7.8342772 -0.2740173 0.96883798
1.8010937 7.826406 -0.27821782 0.96836793
2.008867 7.824121 -0.27984357 0.96818608
2.1136718 7.8229489 -0.28072998 0.96808702
2.5402734 7.8182321 -0.2847873 0.96763337
2.8689842 7.8145995 -0.28839099 0.96723056
2.9804688 7.8133788 -0.28970528 0.96708369
3.2066209 7.8108788 -0.29250857 0.96677047
3.321367 7.8096189 -0.29400137 0.96660382
3.4373436 7.80832 -0.29555634 0.96643025
3.5545311 7.8070211 -0.2971743 0.96624959
4.5446873 7.7960935 -0.31262213 0.96452665
5.0821486 7.7901659 -0.32222837 0.96345675
5.6552148 7.7838278 -0.33331344 0.96222371
5.8048043 7.7821679 -0.33633944 0.96188736
5.9571872 7.780498 -0.33947632 0.96153885
6.2707028 7.7770114 -0.34609261 0.96080416
6.7651954 7.771543 -0.35695192 0.95959955
7.2924218 7.7657127 -0.36905441 0.95825875
7.4763279 7.7636814 -0.37339333 0.95777845
7.6646094 7.7616305 -0.37789661 0.95728028
7.8575387 7.7595019 -0.38256899 0.95676351
8.0553122 7.7573047 -0.38742337 0.9562273
8.5593557 7.6421971 -0.39751694 0.95511281
8.6544533 7.5338082 -0.39750659 0.95511413
8.7482424 7.4243164 -0.3974964 0.95511508
9.0211716 7.0887694 -0.39746684 0.95511842
1.2650391 0.84814453 -0.05276325 0.99392271
1.2652735 0.78085935 -0.051508673 0.99406677
1.3719921 0.70996094 -0.05351631 0.99383616
1.4152734 0.70997071 -0.054852903 0.99368274
1.4608008 0.70995116 -0.056266822 0.99352044
1.5592968 0.70994139 -0.059354477 0.99316609
1.6127343 0.70996094 -0.061044157 0.99297225
1.6692969 0.70997071 -0.062843129 0.9927659
1.7292968 0.70996094 -0.064761542 0.99254596
2.0124023 0.68193358 -0.073609769 0.99153173
2.012285 0.65383786 -0.073299594 0.99156731
11.772383 3.6622069 -0.42711395 0.95185268
12.856738 3.6478026 -0.46298099 0.94791645
13.470409 3.6396387 -0.48339495 0.94568354
13.984258 3.5905566 -0.50017691 0.94385189
14.028164 3.414541 -0.50017226 0.94385225
14.109336 3.0608788 -0.50016373 0.94385308
14.244883 2.3480272 -0.50014967 0.94385469
14.273125 2.1688085 -0.50014669 0.94385523
14.299218 1.989287 -0.500144 0.94385535
14.323027 1.8094336 -0.50014162 0.94385558
14.34457 1.6292968 -0.50013947 0.94385582
14.363828 1.448916 -0.50013757 0.94385612
14.418379 0.72536129 -0.50013232 0.94385654
14.432012 0.36281249 -0.50013119 0.94385672
14.43537 0.18139648 -0.50013101 0.94385695
14.436503 1.953125e-05 -0.50013107 0.94385695
14.432031 -0.36278319 -0.50013196 0.9438566
14.426367 -0.54411131 -0.5001328 0.94385648
14.380898 -1.2682714 -0.50013852 0.94385618
14.363984 -1.4488866 -0.50014061 0.94385558
14.344727 -1.6292871 -0.50014293 0.94385523
14.299335 -1.989287 -0.50014824 0.94385493
14.273281 -2.168828 -0.50015134 0.94385463
14.245 -2.3480077 -0.50015461 0.94385427
14.214531 -2.5268652 -0.50015813 0.94385362
14.146718 -2.8833106 -0.50016594 0.94385296
14.07 -3.2379589 -0.50017476 0.94385219
13.890137 -3.9409959 -0.50019526 0.9438498
13.787031 -4.2888966 -0.50020695 0.94384855
2.0122657 -0.65381837 -0.073299639 0.99156737
1.8611132 -0.70995116 -0.069007069 0.99205923
1.6692969 -0.70994139 -0.062842444 0.99276596
1.6127148 -0.70995116 -0.061043851 0.99297231
1.50875 -0.70994139 -0.057764623 0.99334848
1.4607812 -0.70993161 -0.056266591 0.99352056
1.415293 -0.70992184 -0.054852523 0.9936828
1.3307421 -0.70993161 -0.052251473 0.99398148
1.2655078 -0.71656251 -0.050381813 0.99419624
1.2654296 -0.73767579 -0.050743751 0.99415463
1.2651953 -0.80290037 -0.051912002 0.99402052
1.2651172 -0.82533199 -0.052330129 0.99397248
1.2648633 -0.89489257 -0.053676948 0.99381781
1.2647656 -0.91888672 -0.054158781 0.99376249
1.2646484 -0.9433105 -0.054657668 0.99370527
8.9355268 -7.2049022 -0.39765254 0.95509809
8.6583595 -7.5371485 -0.39768332 0.95509452
8.5631638 -7.6455665 -0.39769384 0.95509338
8.4666405 -7.7527537 -0.39770457 0.95509225
8.2695704 -7.9634957 -0.39772645 0.95508993
8.1691017 -8.0670509 -0.39773756 0.95508856
8.0673046 -8.1692867 -0.39774883 0.95508736
7.9642577 -8.2702827 -0.39776027 0.95508593
7.6218553 -8.3235645 -0.39098853 0.95583385
7.429863 -8.321435 -0.38647181 0.95633262
7.058672 -8.3173437 -0.37792045 0.95727783
6.8790817 -8.3153811 -0.37387267 0.95772564
6.1969919 -8.3078413 -0.35906348 0.95936573
6.0347266 -8.306035 -0.35567909 0.95974082
5.8754101 -8.3042774 -0.35241485 0.96010298
5.7190428 -8.3025389 -0.34926474 0.9604525
5.565371 -8.300849 -0.34622353 0.96078998
5.4143357 -8.2991991 -0.34328836 0.96111572
5.2658005 -8.2975588 -0.34045729 0.96143025
5.1196876 -8.295928 -0.33772308 0.96173394
4.9758983 -8.2943354 -0.33508736 0.96202689
4.8342967 -8.2927732 -0.33254343 0.96230966
4.5573435 -8.2897263 -0.3277224 0.96284568
4.1562109 -8.2852926 -0.32112136 0.96358025
4.0260348 -8.2838573 -0.31907997 0.96380752
3.8974218 -8.2824316 -0.31711417 0.96402657
3.5207422 -8.2782717 -0.31164759 0.96463549
3.3980076 -8.2769041 -0.30996525 0.96482307
3.2765625 -8.2755756 -0.30834737 0.96500325
3.0373046 -8.2729101 -0.30530816 0.96534228
2.802578 -8.2703123 -0.30251682 0.96565366
2.6867774 -8.2690525 -0.30121124 0.96579927
2.4580858 -8.2665138 -0.29877415 0.96607131
2.345078 -8.2652636 -0.29764056 0.96619785
2.2329102 -8.2640228 -0.29656217 0.96631825
2.1215038 -8.2628126 -0.29553702 0.96643257
2.0109179 -8.2615814 -0.2945675 0.96654099
1.9009765 -8.2603512 -0.29364851 0.96664363
1.7917187 -8.2591505 -0.29278231 0.96674037
1.4675585 -8.2555561 -0.29048565 0.96699685
1.1480078 -8.2520409 -0.28863287 0.9672038
0.93701172 -8.2497168 -0.28763661 0.96731514
0.83205074 -8.2485447 -0.28720945 0.96736294
0.51875001 -8.2450876 -0.28620479 0.9674753
0.31089842 -8.2427931 -0.28576255 0.96752465
0.20716797 -8.2416401 -0.28560957 0.96754169
0.10355469 -8.2404881 -0.28550279 0.96755373
-0.10355469 -8.238203 -0.28542268 0.96756256
-0.62191403 -8.23248 -0.28601512 0.9674964
-0.72595704 -8.231328 -0.28626993 0.96746796
-0.83019531 -8.2301855 -0.28656971 0.96743441
-1.2499024 -8.2255373 -0.28823289 0.96724856
-1.5684375 -8.2220116 -0.28997743 0.96705377
-1.6755469 -8.2208395 -0.29065368 0.96697795
-1.8913672 -8.2184572 -0.29215851 0.96680993
-2.2196484 -8.2148237 -0.29479674 0.96651536
-2.3304296 -8.2136135 -0.29577962 0.96640551
-2.4420116 -8.2123728 -0.29681709 0.9662897
-2.667578 -8.2098827 -0.29905593 0.96603978
-2.7816894 -8.2086134 -0.30025974 0.96590549
-2.8967285 -8.2073431 -0.30152166 0.96576476
-3.1298535 -8.2047749 -0.30422014 0.96546352
-3.3673339 -8.2021484 -0.30716589 0.96513516
-3.4878514 -8.2008104 -0.30873275 0.96496046
-3.6096094 -8.199482 -0.31036383 0.96477836
-3.8571289 -8.1967478 -0.31383207 0.96439201
