# .PCD v0.7 - Point Cloud Data file format
VERSION 0.7
FIELDS x y z intensity
SIZE 4 4 4 4
TYPE F F F F
COUNT 1 1 1 1
WIDTH 1082
HEIGHT 1
VIEWPOINT 0 0 0 1 0 0 0
POINTS 1082
DATA ascii
-18.051357 -6.1170411 -0.39607212 0.92657989
-18.126289 -5.8895602 -0.39606157 0.92658186
-18.198446 -5.6611915 -0.39605144 0.92658353
-18.267744 -5.4319434 -0.39604166 0.92658508
-18.458134 -4.7392187 -0.39601481 0.92659026
-18.570644 -4.2736912 -0.3959989 0.92659318
-18.622694 -4.0399508 -0.3959915 0.9265939
-19.399023 -3.9538281 -0.41141254 0.92384726
-20.633955 -3.9361229 -0.43651995 0.91939241
-22.045614 -3.9189649 -0.46530327 0.91431123
-23.710897 -3.6028416 -0.49838272 0.90850675
-23.753897 -3.3045604 -0.49837649 0.90850824
-23.828886 -2.7065136 -0.49836555 0.90851027
-23.860878 -2.4068358 -0.49836084 0.90851074
-23.913437 -1.8064257 -0.498353 0.90851218
-23.950996 -1.2048827 -0.49834719 0.90851319
-23.964247 -0.90381837 -0.49834505 0.90851319
-21.173584 0.26610351 -0.49872673 0.91876537
-21.168564 0.5321582 -0.49872714 0.91876537
-21.160185 0.79811519 -0.49872798 0.91876543
-21.133652 1.3296386 -0.49873108 0.91876471
-21.115303 1.5950977 -0.49873328 0.91876459
-21.068867 2.1252344 -0.49873912 0.9187634
-21.009102 2.6540918 -0.49874675 0.91876233
-20.974218 2.9179003 -0.49875125 0.91876185
-20.936104 3.1812596 -0.4987562 0.91876107
-20.894688 3.4441211 -0.49876159 0.9187603
-20.80205 3.9682324 -0.49877375 0.91875833
-20.049238 4.0863962 -0.48191628 0.92139316
-18.757362 4.0692286 -0.45205694 0.92607874
-16.647724 4.0521288 -0.40354159 0.93374294
-16.128456 4.7958593 -0.39630112 0.93489206
-16.066864 4.9981542 -0.39630073 0.93489224
-16.002783 5.1996384 -0.39630073 0.9348923
-15.936152 5.4003124 -0.39630112 0.93489236
-1.7783399 0.65288085 -0.044617385 0.99244899
-1.7783788 0.67838866 -0.044828832 0.99241328
-1.7783788 0.70412105 -0.045048751 0.99237627
-1.6127148 0.70996094 -0.04150074 0.99297458
-1.5592773 0.70996094 -0.040352326 0.99316835
-1.4608008 0.70995116 -0.038253058 0.99352252
-1.415293 0.70994139 -0.037291717 0.99368477
-1.2913867 0.70996094 -0.034708787 0.99412102
-1.2538086 0.70995116 -0.033935394 0.99425155
-1.2178711 0.70996094 -0.033201445 0.99437553
-1.0882226 0.70995116 -0.030602263 0.99481475
-1.0589257 0.70995116 -0.030026283 0.99491197
-1.0377929 0.71484375 -0.029679602 0.99497062
-1.0377344 0.73421872 -0.029939689 0.99492669
-1.0376757 0.75391603 -0.030209007 0.99488115
-1.0374414 0.83652341 -0.031387519 0.99468195
-1.0373828 0.85819334 -0.031709287 0.99462759
-1.0370898 0.94966793 -0.033119317 0.99438941
-4.3425193 4.2883105 -0.14374042 0.97587681
-4.3408594 4.5076661 -0.14738952 0.97527206
-7.4361911 7.9187694 -0.25584772 0.95746714
-7.2492285 7.9167185 -0.25281832 0.95796001
-6.8880954 7.9127145 -0.24708132 0.9588939
-6.7135644 7.9107909 -0.24436969 0.9593361
-6.5427637 7.908906 -0.24174985 0.95976281
-5.7396874 7.9000192 -0.22998659 0.96168274
-5.5881934 7.8983493 -0.22787513 0.96202773
-5.439414 7.896709 -0.22583875 0.9623608
-5.2932911 7.8950877 -0.22387221 0.96268225
-5.008379 7.891943 -0.2201435 0.96329224
-4.597949 7.8874121 -0.21502544 0.96412998
-4.4652829 7.8859472 -0.21343914 0.96438992
-4.3345313 7.8845019 -0.2119097 0.96464062
-4.2056251 7.8830762 -0.21043384 0.96488243
-4.0784669 7.8816695 -0.20901239 0.96511561
-3.8291893 7.8789158 -0.20632023 0.96555686
-3.5860839 7.8762302 -0.20382597 0.96596628
-3.2318847 7.8723145 -0.20042638 0.96652412
-3.0020115 7.8697848 -0.19837961 0.96686053
-2.8888085 7.868535 -0.19741678 0.9670186
-2.6655664 7.8660741 -0.19561113 0.96731508
-2.5554101 7.8648534 -0.19476655 0.9674539
-2.4462109 7.8636522 -0.19396089 0.9675864
-2.2304296 7.8612695 -0.19245788 0.9678334
-2.12375 7.8600879 -0.19176051 0.96794808
-2.0178125 7.8589158 -0.19109906 0.96805704
-1.8080664 7.8566012 -0.18987662 0.9682579
-1.4980664 7.8531637 -0.18829481 0.96851826
-1.3958398 7.8520508 -0.18783252 0.96859425
-1.2941015 7.8509274 -0.18740104 0.96866512
-1.1927929 7.8497949 -0.1870019 0.96873093
-1.0918945 7.8486814 -0.18663406 0.96879148
-0.79138672 7.8453612 -0.18571332 0.96894306
-0.59248048 7.843154 -0.18524997 0.96901929
-0.39447266 7.8409762 -0.18490554 0.96907598
0 7.8366113 -0.18456922 0.96913135
0.098457031 7.8355269 -0.18455862 0.96913314
0.2954492 7.8333492 -0.18462291 0.96912241
0.39402342 7.8322558 -0.18469995 0.96910983
0.49267578 7.831162 -0.1848059 0.96909243
0.88896483 7.8267965 -0.18552391 0.96897429
0.98861325 7.8256931 -0.18577722 0.96893251
1.0885156 7.8245897 -0.18606146 0.96888578
1.1887695 7.8234763 -0.18637493 0.9688341
1.3903515 7.82125 -0.18709585 0.96871555
1.4917578 7.8201365 -0.18750294 0.96864855
1.5936133 7.818994 -0.18794054 0.96857649
1.6959765 7.8178711 -0.18841113 0.96849906
1.9023242 7.8156052 -0.18944794 0.9683283
2.4294531 7.8097653 -0.19263189 0.96780491
2.5371094 7.8085837 -0.19337438 0.96768296
2.6456444 7.8073826 -0.1941525 0.96755505
2.9768164 7.8037205 -0.19671266 0.96713412
3.0891602 7.8024707 -0.19764479 0.96698111
3.2026367 7.8012204 -0.19861634 0.96682143
3.3172655 7.7999511 -0.19963118 0.96665502
3.4330664 7.7986717 -0.20068625 0.96648169
4.1562696 7.7906637 -0.20796691 0.96528697
4.2821484 7.7892966 -0.20935076 0.96506011
4.8034177 7.783525 -0.2154174 0.96406591
4.9385743 7.7820311 -0.21707729 0.96379423
5.0758982 7.7805076 -0.21879718 0.96351266
5.2153907 7.7789645 -0.22057837 0.96322101
5.3572068 7.7774215 -0.22242644 0.96291876
5.6482224 7.7741895 -0.2263235 0.96228153
5.7976365 7.7725387 -0.22837803 0.96194565
5.9497852 7.7708397 -0.23050785 0.96159786
6.1048632 7.7691503 -0.23271427 0.96123737
6.262949 7.7674117 -0.23500159 0.96086401
6.7568164 7.7619529 -0.24237329 0.95966119
7.1039648 7.7581153 -0.24775198 0.95878476
7.2834177 7.7561131 -0.25059259 0.95832241
7.4670897 7.7540917 -0.2535392 0.95784283
7.8478317 7.7498922 -0.25977004 0.95682943
8.0453711 7.747695 -0.26306412 0.956294
8.2480268 7.7454782 -0.26648787 0.95573813
8.4560347 7.7431641 -0.27004328 0.95516104
9.1153126 7.7358689 -0.281578 0.95329106
9.3479099 7.7333007 -0.28573823 0.95261753
9.8345118 7.7279491 -0.29458222 0.95118749
10.089355 7.7251267 -0.29928422 0.95042801
1.2683399 0.87365234 -0.036272887 0.99385679
1.2684375 0.82753903 -0.035670433 0.99395859
1.2685351 0.78287107 -0.035108756 0.99405348
1.2686914 0.71838868 -0.034338761 0.99418348
1.3307226 0.70995116 -0.035523225 0.99398345
1.3719727 0.70995116 -0.036383092 0.99383825
1.4607617 0.70996094 -0.03825302 0.99352264
1.5087109 0.70995116 -0.039271276 0.99335074
1.6127148 0.70996094 -0.041500892 0.99297458
1.6692773 0.70996094 -0.042723618 0.99276835
1.8611132 0.70996094 -0.046914749 0.99206173
1.9337499 0.70995116 -0.048516843 0.99179178
2.0040233 0.70730466 -0.050053328 0.99153298
2.0038867 0.65111327 -0.049625244 0.99160504
16.241346 5.0524216 -0.40060443 0.93420899
16.421309 4.4369822 -0.40062976 0.93420482
17.549063 3.5767968 -0.42182148 0.93084794
18.678183 3.563076 -0.44784757 0.92674106
21.136269 3.4839258 -0.50452858 0.91786069
21.217655 2.9517479 -0.50454038 0.91785878
21.253281 2.6849315 -0.50454557 0.917858
21.314453 2.150039 -0.50455451 0.91785645
21.340019 1.8820214 -0.50455827 0.91785562
21.3808 1.3451757 -0.50456446 0.91785479
21.396074 1.0764062 -0.50456685 0.91785461
21.416542 0.53837889 -0.50457025 0.91785395
21.421719 0.26920897 -0.5045712 0.91785359
21.423437 1.953125e-05 -0.50457174 0.91785347
21.408184 -0.80743164 -0.50457048 0.91785359
21.396112 -1.0763671 -0.50456911 0.91785443
21.314823 -2.1500194 -0.5045591 0.91785514
21.285801 -2.417666 -0.5045554 0.91785634
21.253496 -2.6849217 -0.50455129 0.91785723
21.041895 -4.0139551 -0.50452363 0.91786122
20.690411 -4.4885349 -0.49864256 0.91877848
18.29916 -4.4540915 -0.44357327 0.92741454
16.370975 -4.6448536 -0.40079361 0.93417871
16.24832 -5.0545506 -0.40077722 0.93418169
1.8611132 -0.70995116 -0.046914823 0.99206173
1.7931055 -0.70995116 -0.045422096 0.99231339
1.6692969 -0.70995116 -0.042723998 0.99276829
1.6127343 -0.70993161 -0.041500967 0.99297452
1.5087304 -0.70992184 -0.039271735 0.99335074
1.4152539 -0.70994139 -0.037291639 0.99368489
1.3719727 -0.70992184 -0.036383398 0.99383831
1.3307226 -0.70996094 -0.035523299 0.99398345
1.2686914 -0.71836913 -0.034338873 0.99418354
1.2686523 -0.73956054 -0.03458618 0.9941417
1.2685742 -0.78286129 -0.035108682 0.99405336
1.268496 -0.80500972 -0.035384636 0.99400687
1.2683789 -0.85037106 -0.035966184 0.9939087
1.2683399 -0.87363279 -0.036272924 0.99385685
10.931581 -8.369853 -0.32426703 0.94640309
10.372695 -8.3636818 -0.31382722 0.94808316
8.8890228 -8.3472853 -0.2871967 0.95238185
7.4385934 -8.3312502 -0.26305398 0.95629615
6.7112303 -8.3232222 -0.25182083 0.95812267
6.5388865 -8.3213282 -0.24925584 0.95853996
6.3699608 -8.3194628 -0.24678476 0.95894277
5.725781 -8.3123236 -0.23772766 0.9604193
5.4207225 -8.3089647 -0.23366074 0.96108311
5.125742 -8.3057222 -0.22987367 0.96170169
4.9817576 -8.304101 -0.22807734 0.96199507
4.8399611 -8.3025484 -0.22634651 0.96227807
4.7003317 -8.3010054 -0.22467697 0.96255112
4.4270115 -8.2979784 -0.22151281 0.9630686
4.2931638 -8.296504 -0.220016 0.96331358
4.1611133 -8.2950392 -0.21857235 0.96354973
3.9020116 -8.2921972 -0.21584417 0.96399635
3.7748632 -8.2907906 -0.21455684 0.96420729
3.6491406 -8.2893848 -0.2133161 0.96441048
3.2804101 -8.2853127 -0.2098792 0.96497387
3.1600389 -8.2839937 -0.20882362 0.96514702
3.0408788 -8.2826757 -0.20780925 0.96531308
2.8058984 -8.2800589 -0.2059101 0.96562475
2.575 -8.2775288 -0.20417202 0.96590978
2.347832 -8.2750092 -0.20259082 0.96616942
2.0132811 -8.2712984 -0.20049874 0.96651292
1.9032226 -8.2700977 -0.19987257 0.9666155
1.7938476 -8.268877 -0.1992837 0.96671236
1.6850781 -8.2676754 -0.19872859 0.96680355
1.4693164 -8.2652931 -0.19772063 0.96696901
1.3622071 -8.264101 -0.19726701 0.96704352
1.149375 -8.2617483 -0.19645958 0.96717626
0.93812495 -8.2594233 -0.19578078 0.96728766
0.8330273 -8.2582521 -0.1954893 0.96733552
-0.41478515 -8.244463 -0.19442479 0.96751076
-0.51861328 -8.2433205 -0.19453549 0.96749246
-0.62263668 -8.242178 -0.19467729 0.9674691
-0.72681642 -8.241025 -0.19485007 0.96744061
-0.93576169 -8.2387104 -0.19529115 0.96736836
-1.0406641 -8.2375488 -0.19555779 0.96732444
-1.3572851 -8.2340622 -0.19655037 0.9671613
-1.7852734 -8.2293262 -0.19832961 0.96686894
-2.2222655 -8.2245111 -0.20065446 0.96648717
-2.3331835 -8.2232809 -0.20132399 0.96637726
-2.5573633 -8.2208099 -0.20277347 0.96613938
-3.3713086 -8.2118158 -0.20907314 0.96510583
-3.4919531 -8.2104788 -0.21014051 0.96493095
-3.6138475 -8.2091303 -0.21125127 0.96474886
-3.8616796 -8.2064056 -0.21361189 0.96436208
-3.9877148 -8.2049999 -0.2148632 0.96415716
-4.1152635 -8.2035837 -0.21616337 0.9639442
-4.6419139 -8.1977835 -0.22188129 0.96300799
-4.7780662 -8.196269 -0.22344869 0.96275175
-4.916152 -8.1947365 -0.22507538 0.96248609
-5.1986036 -8.1916113 -0.22850493 0.96192521
-5.3431444 -8.1900291 -0.2303161 0.96162933
-5.4900098 -8.1883984 -0.2321922 0.9613229
-6.2630663 -8.179863 -0.24264339 0.95961761
-6.4263086 -8.1780663 -0.2449668 0.95923895
-6.5926952 -8.1762104 -0.24737325 0.95884693
-6.7624607 -8.1743355 -0.24986771 0.95844054
-7.1125684 -8.1704683 -0.25513387 0.95758343
-7.6668944 -8.1643457 -0.26378426 0.95617718
-8.0581837 -8.1600189 -0.27010381 0.9551512
-8.2610159 -8.157773 -0.27344552 0.95460927
-8.4689646 -8.155488 -0.27691403 0.95404691
-8.6822748 -8.1531248 -0.28051785 0.9534632
-1.0371679 -0.92601562 -0.032747649 0.9944523
-1.0372461 -0.90293944 -0.032388952 0.9945128
-1.0373046 -0.88032222 -0.032043226 0.99457127
-1.0375977 -0.79441404 -0.030777549 0.99478501
-1.0376366 -0.7739746 -0.030488243 0.99483395
-1.0376757 -0.75390625 -0.030209083 0.99488121
-1.0589257 -0.70995116 -0.030026512 0.99491197
-1.1187109 -0.70995116 -0.031205826 0.99471265
-1.2538086 -0.70995116 -0.033935547 0.99425155
-1.3307421 -0.70995116 -0.035523262 0.99398339
-1.3719727 -0.70993161 -0.036383323 0.99383825
-1.5592968 -0.70994139 -0.040352363 0.99316829
-1.6127148 -0.70995116 -0.041501198 0.99297458
-1.6692773 -0.70995116 -0.042723961 0.99276835
-1.7783203 -0.65288085 -0.044617157 0.99244905
-15.869951 -5.6011329 -0.39637083 0.93488085
-16.068632 -4.9986525 -0.39634296 0.93488538
-16.129786 -4.7962208 -0.39633438 0.93488687
-16.24456 -4.3891892 -0.39631817 0.93488944
-18.276093 -3.9647753 -0.44045794 0.92790532
-20.85038 -3.7064941 -0.49877527 0.91875798
-20.936426 -3.1812596 -0.49876294 0.91875988
-21.009325 -2.6540723 -0.49875236 0.91876149
-21.069073 -2.1252344 -0.49874362 0.91876268
-21.115498 -1.5950586 -0.49873668 0.91876388
-21.133652 -1.3295801 -0.49873388 0.91876471
-21.148701 -1.063916 -0.49873155 0.91876465
-18.956903 2.9296874e-05 -0.49903113 0.92695165
-18.955429 0.23823242 -0.4990311 0.92695153
-18.943466 0.71451169 -0.49903223 0.92695153
-18.919569 1.1903417 -0.49903503 0.92695135
-18.861629 1.9026073 -0.49904218 0.92694998
-18.742802 2.8479784 -0.4990575 0.92694777
-18.665663 3.3181446 -0.4990676 0.92694646
-18.622725 3.5524902 -0.49907321 0.92694557
-14.384101 4.474658 -0.39655343 0.9415037
-1.7791991 0.6532129 -0.049892731 0.99244475
-1.7792382 0.67871094 -0.050128974 0.99240917
-1.7792382 0.70446289 -0.050375633 0.9923721
-1.6693164 0.70995116 -0.047752228 0.99276769
-1.3719727 0.70995116 -0.040665589 0.99383783
-1.3307617 0.70994139 -0.03970417 0.99398291
-1.2178711 0.70996094 -0.03710907 0.99437511
-1.1834179 0.70995116 -0.036328811 0.99449313
-1.1504102 0.70995116 -0.035586242 0.99460536
-1.1187304 0.70995116 -0.034878653 0.99471223
-1.0882226 0.70995116 -0.034204252 0.9948144
-1.0368946 0.77345699 -0.034053382 0.99483722
-1.0367968 0.81469727 -0.034710616 0.99473768
-1.0367383 0.83592772 -0.035057373 0.99468529
-1.0365624 0.87969726 -0.035788994 0.99457479
-1.0365039 0.90227538 -0.03617489 0.99451637
-1.0363867 0.92536134 -0.036575012 0.99445593
-4.5599513 4.2820802 -0.16466928 0.97528058
-4.3407421 4.2865524 -0.16059314 0.97588491
-4.3468261 4.4018259 -0.16285123 0.97554988
-4.3400097 4.5068064 -0.1647055 0.9752751
-7.4361911 7.9187694 -0.28596011 0.95746428
-7.2492285 7.9167089 -0.28257397 0.95795721
-7.0665817 7.9146872 -0.27931091 0.95843267
-6.7135739 7.9108005 -0.27312967 0.9593333
-6.5427732 7.908906 -0.27020568 0.95976007
-6.2118649 7.9052439 -0.26466104 0.96056908
-6.0513768 7.9034863 -0.26203534 0.96095258
-5.7396774 7.9000192 -0.25705621 0.96168017
-5.2932615 7.8950973 -0.25022122 0.96267974
-5.1496191 7.893496 -0.24810033 0.96299022
-5.008379 7.891943 -0.24605356 0.9632898
-4.597949 7.8874021 -0.24033535 0.9641276
-4.2056251 7.8830662 -0.23520213 0.96488011
-4.0784669 7.8816695 -0.23361127 0.96511328
-3.7068846 7.8775582 -0.2291832 0.96576315
-3.2318847 7.8723145 -0.22401798 0.9665218
-3.1163671 7.8710351 -0.22284898 0.96669352
-3.0020115 7.8697753 -0.221727 0.96685833
-2.8888085 7.868525 -0.22065198 0.9670164
-2.7766991 7.8672848 -0.21962078 0.96716785
-2.6655664 7.8660545 -0.21863477 0.96731293
-2.5554492 7.8648338 -0.2176919 0.96745169
-2.2304296 7.8612499 -0.21511051 0.96783131
-1.7041601 7.8554392 -0.21159919 0.96834797
-1.6008399 7.8542967 -0.21100903 0.96843469
-1.3958398 7.8520312 -0.20993957 0.96859223
-1.2941015 7.8509078 -0.2094575 0.9686631
-1.1927735 7.8497849 -0.20901243 0.96872884
-1.0919336 7.8486619 -0.20860015 0.9687894
-0.99138671 7.8475585 -0.20822345 0.96884495
-0.69179684 7.8442578 -0.20729589 0.9689815
-0.59251952 7.8431444 -0.20705326 0.96901727
-0.29574218 7.8398633 -0.2065257 0.96909499
-0.19708984 7.838779 -0.20641583 0.9691112
-3.9062499e-05 7.8366013 -0.20629236 0.96912926
0.19691406 7.8344235 -0.20630117 0.96912813
0.29542968 7.8333397 -0.20635425 0.96912032
0.39402342 7.8322558 -0.20643926 0.96910769
0.59146482 7.8300781 -0.20670827 0.96906805
0.98861325 7.8256931 -0.20764248 0.96893042
1.0885156 7.8245897 -0.20795999 0.96888369
1.1887695 7.8234763 -0.20831157 0.96883196
1.2893164 7.8223534 -0.2086972 0.96877533
1.390332 7.8212399 -0.20911634 0.96871346
1.4917382 7.820117 -0.2095713 0.96864653
1.5936133 7.818994 -0.21006158 0.96857435
1.6959765 7.8178515 -0.21058716 0.96849704
2.2164648 7.8120995 -0.21376517 0.9680292
2.7550585 7.8061619 -0.21791562 0.96741879
2.9768164 7.8037009 -0.21986611 0.96713191
3.0891602 7.8024707 -0.22090803 0.96697891
3.3172655 7.7999511 -0.22312595 0.96665275
3.4330664 7.7986717 -0.2243073 0.96647942
3.7882617 7.7947459 -0.22814123 0.96591622
4.1562696 7.7906637 -0.2324449 0.96528465
4.6702538 7.7850094 -0.23898415 0.96432561
4.9385743 7.7820311 -0.24262719 0.96379179
5.0758982 7.7805076 -0.2445495 0.96351022
5.2153907 7.7789645 -0.24654084 0.96321851
5.5014648 7.7758298 -0.25074443 0.96260315
5.648242 7.774199 -0.25296101 0.9622789
5.7976561 7.7725387 -0.25525856 0.96194303
5.9497852 7.7708492 -0.2576392 0.96159518
6.7568164 7.7619529 -0.27090147 0.95965844
7.1039648 7.7581153 -0.27691269 0.95878196
7.2834568 7.7561426 -0.28008616 0.95831937
7.4670897 7.7540917 -0.28338015 0.95783997
8.2480268 7.7454782 -0.29785272 0.95573515
9.1153126 7.7358689 -0.31472003 0.9532879
9.3478708 7.7333202 -0.31937042 0.95261443
1.267246 0.94529295 -0.041618422 0.99369389
1.2676758 0.80450195 -0.039523657 0.99401027
1.2677538 0.78237301 -0.039215926 0.9940567
1.267871 0.73909175 -0.03863243 0.99414492
1.2679101 0.71792966 -0.038356397 0.9941867
1.2913867 0.70995116 -0.038793527 0.9941206
1.3307226 0.70995116 -0.03970436 0.99398303
1.4152734 0.70995116 -0.041680794 0.99368441
1.5087109 0.70995116 -0.043893546 0.99335027
1.5592773 0.70996094 -0.045101583 0.99316788
1.6127148 0.70996094 -0.04638546 0.9929741
1.6692773 0.70996094 -0.047752533 0.99276781
1.7293164 0.70994139 -0.049210206 0.99254781
1.7931055 0.70997071 -0.050768126 0.99231285
2.0060155 0.67979491 -0.055758324 0.99156058
2.0059569 0.65180665 -0.055523794 0.9915958
14.522519 4.5177245 -0.40036914 0.94095773
14.578457 4.3349609 -0.40037701 0.94095653
14.683398 3.9674218 -0.40039179 0.94095415
14.732285 3.7826366 -0.4003987 0.94095337
15.642871 3.5999608 -0.42255485 0.93778992
16.543808 3.5890038 -0.44564006 0.93450528
18.678204 3.563076 -0.50056058 0.92673612
18.858242 3.3523924 -0.50421619 0.92622125
18.899042 3.1151855 -0.50422204 0.92622066
18.971796 2.6393261 -0.50423253 0.92621899
19.003613 2.4007421 -0.50423717 0.92621845
19.03248 2.1617577 -0.50424135 0.92621768
19.0583 1.9224316 -0.50424516 0.92621714
19.100878 1.4429199 -0.50425148 0.92621607
19.117579 1.2028027 -0.50425404 0.92621577
19.141836 0.72198242 -0.50425792 0.92621553
19.149433 0.48139647 -0.50425923 0.92621535
19.153965 0.24071288 -0.50426006 0.92621541
19.131269 -0.96243161 -0.50425828 0.92621547
19.117657 -1.2027637 -0.50425667 0.92621547
19.08123 -1.6827831 -0.50425214 0.92621613
19.058397 -1.9224414 -0.50424927 0.92621678
19.032656 -2.1617577 -0.504246 0.92621708
19.003925 -2.4007421 -0.5042423 0.92621732
18.971972 -2.6393163 -0.50423819 0.92621833
18.899336 -3.115205 -0.50422871 0.92621952
18.814629 -3.5890625 -0.50421757 0.92622125
18.299198 -4.454082 -0.49578068 0.92740959
16.382519 -4.4264646 -0.4467274 0.93435067
14.839316 -4.4125094 -0.40754128 0.93993241
14.528769 -4.519619 -0.40054068 0.94093317
2.0061524 -0.70804685 -0.056003645 0.99152344
1.8611132 -0.70995116 -0.052436829 0.9920612
1.7931055 -0.70994139 -0.050768394 0.99231291
1.7293164 -0.70995116 -0.049210053 0.99254781
1.6692969 -0.70995116 -0.047752302 0.99276775
1.6127343 -0.70993161 -0.046385687 0.99297404
1.4152539 -0.70994139 -0.041680679 0.99368447
1.3719727 -0.70992184 -0.040665548 0.99383789
1.3307226 -0.70996094 -0.039704513 0.99398303
1.2913867 -0.70994139 -0.038793828 0.99412066
1.2679101 -0.71792966 -0.038356286 0.9941867
1.2677343 -0.78234375 -0.039215963 0.99405688
1.2675977 -0.82698238 -0.039842527 0.99396217
1.267246 -0.94528317 -0.041618232 0.99369389
10.372695 -8.3636818 -0.35076344 0.94807971
10.106484 -8.3607225 -0.34528562 0.94886929
9.8483791 -8.3578806 -0.34002975 0.9496277
9.5979881 -8.3551168 -0.33498436 0.95035636
9.3548822 -8.3524122 -0.33013773 0.9510569
8.8890228 -8.3472853 -0.32100004 0.95237863
8.6655464 -8.3448143 -0.31669253 0.95300245
8.4479494 -8.342412 -0.31254768 0.95360315
8.0292969 -8.3377829 -0.30471537 0.95473891
7.2507029 -8.3291893 -0.29070255 0.95677471
6.7112303 -8.3232222 -0.28145942 0.95811987
6.538867 -8.3213186 -0.2785947 0.95853722
6.3699412 -8.3194532 -0.2758303 0.95894009
5.8823633 -8.3140621 -0.26810545 0.96006674
5.125742 -8.3057127 -0.25692877 0.96169913
4.2931638 -8.296504 -0.24591208 0.96331108
4.1611133 -8.2950392 -0.24429862 0.96354723
3.6491601 -8.2893848 -0.23842268 0.96440804
3.5249023 -8.2880268 -0.2370912 0.9646033
3.2804101 -8.2853127 -0.23458117 0.96497148
3.0408788 -8.2826757 -0.2322676 0.96531075
2.6899414 -8.2787991 -0.22915092 0.96576822
2.347832 -8.2750092 -0.22643481 0.96616715
1.7938671 -8.2688866 -0.22273864 0.96671009
1.5769335 -8.2664938 -0.22153603 0.96688676
1.3622071 -8.2641211 -0.22048558 0.96704119
1.149375 -8.2617674 -0.21958214 0.96717399
1.0435742 -8.2605953 -0.21918482 0.96723235
0.72820312 -8.2571192 -0.21820933 0.96737587
0.62367189 -8.2559662 -0.2179541 0.96741331
0.51931638 -8.2547951 -0.2177338 0.96744573
0.31126952 -8.2525091 -0.21739915 0.96749508
-3.9062499e-05 -8.2490816 -0.21715379 0.96753103
-0.10365234 -8.24792 -0.21714029 0.96753305
-0.20732421 -8.2467575 -0.21716112 0.96752995
-0.62263668 -8.242197 -0.21759108 0.96746677
-0.83119136 -8.2398729 -0.21801312 0.96740484
-1.2513866 -8.2352438 -0.21927817 0.9672187
-1.4635742 -8.2329006 -0.22012629 0.96709406
-1.5702929 -8.231719 -0.22060464 0.96702373
-1.677539 -8.2305269 -0.22112125 0.96694791
-2.0025001 -8.2269239 -0.22289398 0.96668726
-2.1120508 -8.2257223 -0.22356354 0.96658897
-2.6707225 -8.2195501 -0.22751209 0.9660089
-2.784961 -8.2182913 -0.2284281 0.96587449
-3.1335449 -8.2144527 -0.23144154 0.96543211
-3.2518358 -8.2131348 -0.23253696 0.96527129
-3.8616796 -8.2064056 -0.23875329 0.96435964
-3.9877148 -8.2049999 -0.2401519 0.96415472
-4.1152635 -8.2035837 -0.24160498 0.96394175
-4.2443552 -8.2021675 -0.24311487 0.96372062
-4.507627 -8.1992579 -0.24630882 0.96325272
-4.6418943 -8.197773 -0.24799718 0.96300554
-4.7780662 -8.196269 -0.2497488 0.96274918
-4.916162 -8.1947365 -0.25156584 0.96248353
-5.0563474 -8.1931934 -0.25344849 0.96220797
-5.1986132 -8.1916113 -0.25540009 0.96192259
-5.7911325 -8.1850777 -0.26394531 0.96067387
-5.9456053 -8.1833687 -0.26627991 0.96033323
-6.4263086 -8.1780567 -0.27379826 0.95923626
-6.5927048 -8.1762104 -0.27648935 0.95884413
-6.7624607 -8.1743355 -0.27927744 0.95843774
-6.9357028 -8.172431 -0.28216743 0.95801675
-7.1125684 -8.1704683 -0.28516355 0.95758057
-7.4779882 -8.1664257 -0.29149055 0.95665997
-7.8602147 -8.1622066 -0.29829922 0.9556706
-8.0581837 -8.1600189 -0.30189565 0.95514816
-8.4689646 -8.155488 -0.30950725 0.95404381
-1.0364257 -0.92534178 -0.036575012 0.99445587
-1.0365039 -0.90226561 -0.03617489 0.99451637
-1.0366601 -0.8575781 -0.035416488 0.99463099
-1.0367774 -0.81467772 -0.034710694 0.9947378
-1.0368555 -0.7938574 -0.03437626 0.99478835
-1.0370507 -0.73371094 -0.03344097 0.99492973
-1.0370898 -0.71436524 -0.033150826 0.99497366
-1.0589257 -0.70995116 -0.033560447 0.99491167
-1.0882226 -0.70993161 -0.034204215 0.9948144
-1.1187109 -0.70995116 -0.034878768 0.99471229
-1.1834179 -0.70995116 -0.036329079 0.99449313
-1.2178711 -0.70995116 -0.037109185 0.99437517
-1.2538086 -0.70995116 -0.037929915 0.99425119
-1.2913867 -0.70994139 -0.038793907 0.99412066
-1.3307421 -0.70995116 -0.039704628 0.99398297
-1.5592968 -0.70994139 -0.045101661 0.99316782
-1.6692773 -0.70995116 -0.04775257 0.99276787
-1.7792382 -0.70445311 -0.050375517 0.9923721
-1.7792382 -0.67869139 -0.050128821 0.99240917
-1.7791991 -0.65319335 -0.049892537 0.99244481
-14.327744 -4.6553516 -0.3965815 0.94149977
-14.384872 -4.4748435 -0.39657345 0.94150072
-14.439638 -4.2936425 -0.39656571 0.94150203
-14.492197 -4.1117868 -0.39655828 0.94150299
-18.276104 -3.9647655 -0.49230045 0.92790049
-18.577129 -3.786289 -0.49908727 0.92694366
-18.777187 -2.6122069 -0.4990586 0.92694753
-18.808271 -2.3760059 -0.49905404 0.92694849
-18.861698 -1.9025683 -0.49904624 0.92694974
-18.884043 -1.6654004 -0.49904293 0.92695004
-18.919756 -1.1903027 -0.4990375 0.92695069
-18.933056 -0.95245117 -0.49903545 0.92695129
-18.943535 -0.71446288 -0.49903378 0.92695129
-18.950918 -0.47636718 -0.49903247 0.92695165
-17.157784 0.21563476 -0.4992778 0.93363881
-17.153711 0.43122068 -0.4992781 0.93363887
-17.146923 0.64674801 -0.49927881 0.93363893
-17.110596 1.2925683 -0.49928311 0.93363804
-17.093077 1.5074707 -0.49928528 0.9336378
-17.049921 1.9365722 -0.49929076 0.93363732
-17.024364 2.1507032 -0.49929404 0.93363684
-16.965235 2.5778809 -0.49930167 0.93363571
-16.856426 3.2155468 -0.49931595 0.93363416
-16.814892 3.4271581 -0.4993214 0.93363339
-16.770615 3.6382129 -0.49932727 0.93363297
-16.600214 4.040576 -0.49711663 0.93391627
-14.143017 4.012754 -0.42776176 0.9428671
-12.963144 4.2120018 -0.39659816 0.9469167
-12.909355 4.374619 -0.39660537 0.94691604
-1.7800195 0.65352535 -0.055173643 0.9924407
-1.7800781 0.67904294 -0.055435255 0.992405
-1.7293164 0.70996094 -0.054392852 0.99254721
-1.6693164 0.70995116 -0.052781601 0.99276716
-1.6127148 0.70997071 -0.051270712 0.99297351
-1.5592968 0.70997071 -0.049851835 0.99316728
-1.5087304 0.70995116 -0.048516732 0.99334967
-1.4608008 0.70995116 -0.047258109 0.99352157
-1.415293 0.70994139 -0.04607071 0.99368387
-1.3719727 0.70995116 -0.044948425 0.99383736
-1.3307617 0.70994139 -0.043885995 0.99398243
-1.2178711 0.70996094 -0.04101738 0.99437469
-1.1187304 0.70995116 -0.038552053 0.99471182
-1.0882226 0.70995116 -0.037806775 0.99481398
-1.0364257 0.71390623 -0.036617927 0.99497652
-1.0363476 0.73322266 -0.036938477 0.99493271
-1.0361913 0.77292967 -0.037614096 0.99484032
-1.0361133 0.79333985 -0.037970312 0.99479157
-1.0359961 0.83534175 -0.03872215 0.99468863
-1.035918 0.85698241 -0.039118804 0.99463439
-1.0358398 0.8790527 -0.039529763 0.99457818
-1.0357422 0.9016211 -0.039955709 0.99451995
-1.0356641 0.92467773 -0.040397529 0.99445951
-1.0355663 0.94826168 -0.040855713 0.99439687
-4.5580664 4.2803221 -0.18193656 0.97528881
-4.3389549 4.2848048 -0.17743461 0.97589284
-4.3450685 4.4000392 -0.17993048 0.9755578
-7.2492285 7.9167089 -0.31233534 0.95795405
-7.0665817 7.9146872 -0.30872717 0.95842952
-6.8881054 7.9127145 -0.30524793 0.95888799
-6.7135739 7.9107909 -0.30189624 0.95933026
-6.5427732 7.908906 -0.29866299 0.95975703
-6.2118649 7.9052439 -0.29253444 0.9605661
-6.0513768 7.9034863 -0.28963375 0.96094966
-5.7396774 7.9000192 -0.28412867 0.96167731
-5.4394236 7.896699 -0.27900445 0.96235538
-5.2932615 7.8950973 -0.27657384 0.96267694
-5.008379 7.891943 -0.27196738 0.963287
-4.8694043 7.8904099 -0.26978469 0.96357626
-4.4652829 7.8859568 -0.26368597 0.96438473
-4.2056346 7.8830662 -0.25997305 0.96487743
-3.8291991 7.8789158 -0.25489232 0.96555191
-3.4666796 7.8749218 -0.25035393 0.96615463
-3.3486328 7.8736033 -0.24895507 0.9663406
-3.1163476 7.8710446 -0.24631882 0.96669096
-3.0020115 7.8697753 -0.24507879 0.96685582
-2.8888085 7.868525 -0.2438914 0.9670139
-2.7766991 7.8672848 -0.24275188 0.96716535
-2.5554492 7.8648338 -0.24061878 0.96744925
-2.4462304 7.8636227 -0.23962198 0.96758187
-2.2304296 7.8612499 -0.23776542 0.96782887
-2.017832 7.8588963 -0.23608549 0.96805251
-1.9126171 7.8577437 -0.23530895 0.96815568
-1.8080664 7.8565817 -0.23457651 0.96825343
-1.7041601 7.8554392 -0.23388536 0.96834558
-1.6008399 7.8542967 -0.23323414 0.96843231
-1.4980664 7.8531542 -0.23262209 0.96851379
-1.3958398 7.8520312 -0.23205087 0.96858984
-1.2941015 7.8509078 -0.23151807 0.96866071
-0.99138671 7.8475585 -0.23015401 0.96884257
-0.89123046 7.8464551 -0.22977424 0.96889311
-0.49337891 7.8420606 -0.22863014 0.96904564
-0.39447266 7.8409567 -0.22843513 0.96907157
-0.098496094 7.8376856 -0.22806974 0.96912032
-3.9062499e-05 7.8366013 -0.22801961 0.96912694
0.19691406 7.8344235 -0.22802824 0.96912581
0.39402342 7.8322558 -0.22818103 0.96910536
0.69042969 7.8289647 -0.22868198 0.96903872
0.88896483 7.826777 -0.22919801 0.96896988
1.0885156 7.8245897 -0.22986285 0.96888131
1.1887695 7.8234763 -0.23025039 0.96882963
1.2893554 7.8223629 -0.23067667 0.96877289
1.5936133 7.818994 -0.23218468 0.96857196
1.6959765 7.8178515 -0.23276575 0.96849465
1.7988477 7.8167381 -0.23338668 0.96841186
2.1111133 7.8132715 -0.23549388 0.96813136
2.2164648 7.8120995 -0.23627971 0.96802676
2.6456444 7.807363 -0.23985778 0.96755046
2.7550585 7.8061619 -0.24086602 0.96741635
2.8654296 7.8049412 -0.24192007 0.9672761
2.9768164 7.8037009 -0.24302186 0.96712947
3.2026758 7.8012204 -0.24537387 0.9668166
3.4330664 7.7986717 -0.24793047 0.96647686
3.7882617 7.7947364 -0.25216851 0.96591365
4.0320506 7.7920408 -0.25528088 0.96550053
4.1562696 7.7906737 -0.25692654 0.96528196
4.4097462 7.7878904 -0.26040629 0.96481979
4.5390429 7.7864547 -0.2622456 0.96457595
4.8033981 7.783525 -0.26613107 0.96406078
4.9385743 7.7820411 -0.26817989 0.96378905
5.2153907 7.7789745 -0.27250722 0.96321571
5.3572068 7.7774119 -0.27478907 0.96291351
5.648242 7.774199 -0.2796033 0.96227604
6.1048632 7.7691503 -0.28749886 0.96123177
6.262949 7.7674022 -0.29032424 0.9608584
7.1039648 7.7581153 -0.30607784 0.95877886
7.2834568 7.7561426 -0.3095859 0.95831627
7.6551757 7.7520018 -0.31700352 0.95733929
8.8893557 7.738369 -0.34292853 0.95393211
9.1153126 7.7358689 -0.34786579 0.95328438
9.3478909 7.7333102 -0.35300541 0.95261085
9.5874996 7.7306833 -0.35835662 0.95190996
9.8345118 7.7279587 -0.36393088 0.95118052
1.2663867 0.94462889 -0.04597019 0.9936977
1.2665429 0.89612305 -0.045144234 0.99381059
1.2666211 0.87249023 -0.044752579 0.99386412
1.2666992 0.84927732 -0.044374656 0.9939158
1.2667773 0.82645506 -0.044010084 0.99396557
1.2668555 0.80398434 -0.043657836 0.99401373
1.266914 0.78185546 -0.043318175 0.99406022
1.2670312 0.73862302 -0.04267437 0.99414825
1.2671288 0.7174902 -0.042369153 0.99418986
1.3719727 0.70995116 -0.044948235 0.99383736
1.4152734 0.70995116 -0.046070747 0.99368393
1.5087109 0.70995116 -0.048516348 0.99334979
1.6127148 0.70997071 -0.051270865 0.99297351
1.7293164 0.70995116 -0.054392926 0.99254721
1.8611132 0.70997071 -0.057959136 0.9920606
1.9337305 0.70995116 -0.059938505 0.99179065
2.0082617 0.70881832 -0.061967161 0.99151391
2.0080664 0.65248048 -0.061435964 0.99158639
13.132519 4.0853124 -0.40017885 0.94645065
13.461777 3.6373339 -0.40574291 0.94572669
14.097519 3.6196387 -0.42350087 0.94341993
14.830839 3.6098926 -0.44413197 0.94074678
16.543848 3.5890038 -0.49257255 0.93450028
17.089863 2.8169627 -0.50397414 0.93303627
17.124083 2.6020215 -0.50397909 0.93303561
17.233768 1.7384082 -0.503995 0.93303347
17.254297 1.5216992 -0.50399804 0.93303329
17.287323 1.0876367 -0.50400305 0.93303239
17.32164 1.953125e-05 -0.50400895 0.93303192
17.320253 -0.21765624 -0.50400895 0.93303198
17.287363 -1.0876074 -0.50400537 0.93303227
17.272264 -1.304746 -0.50400352 0.93303251
17.254454 -1.5216992 -0.50400132 0.93303269
17.233809 -1.7383887 -0.50399876 0.93303329
17.18457 -2.1708984 -0.50399244 0.9330337
17.124296 -2.602041 -0.50398463 0.93303484
17.090097 -2.8169823 -0.50398016 0.93303537
17.013554 -3.2455077 -0.50397009 0.93303674
16.92621 -3.6719334 -0.50395858 0.93303829
16.878534 -3.8842969 -0.50395226 0.93303907
16.775175 -4.3071189 -0.50393856 0.93304068
16.382519 -4.4264746 -0.49377373 0.93434578
15.559394 -4.4146094 -0.4706029 0.9373284
14.12709 -4.3946972 -0.43048644 0.942514
1.9337499 -0.70994139 -0.059938543 0.99179059
1.8611132 -0.70995116 -0.057959363 0.9920606
1.7293164 -0.70994139 -0.054393157 0.99254727
1.5087304 -0.70992184 -0.048516579 0.99334973
1.3719727 -0.70992184 -0.044948615 0.99383742
1.2668555 -0.80395508 -0.043657951 0.99401379
1.2667187 -0.84925777 -0.044374619 0.99391574
1.2666405 -0.87247068 -0.044752616 0.99386412
1.2664648 -0.92015624 -0.045550115 0.99375516
10.916426 -8.3583107 -0.40004915 0.94646764
10.372715 -8.3636522 -0.38770667 0.94807583
10.106464 -8.3607416 -0.38165167 0.94886547
9.5979881 -8.3551168 -0.37026545 0.95035267
9.3548822 -8.3524218 -0.36490685 0.9510532
8.8890038 -8.3472748 -0.3548069 0.95237511
8.6655464 -8.3448143 -0.35004592 0.95299894
8.2359962 -8.3400488 -0.3410556 0.95417815
8.0292969 -8.3377829 -0.33680731 0.95473552
7.8276758 -8.335556 -0.33271819 0.95527267
7.6308398 -8.3333788 -0.32877716 0.95579058
7.4386129 -8.3312502 -0.32498035 0.95628983
6.8872266 -8.3251562 -0.31438667 0.95768422
6.538867 -8.3212986 -0.30793592 0.95853412
6.2043357 -8.3176174 -0.30193239 0.95932585
6.0418358 -8.3158102 -0.29908684 0.95970136
5.8823633 -8.3140621 -0.29634282 0.96006376
5.725781 -8.312314 -0.2936925 0.96041369
5.4207029 -8.3089552 -0.28866756 0.96107763
5.125742 -8.3057127 -0.28398782 0.96169627
4.9817576 -8.304121 -0.28177032 0.96198958
4.7003317 -8.3009958 -0.27756798 0.96254581
4.5627146 -8.2994623 -0.27557847 0.96280926
4.4269919 -8.2979689 -0.27366015 0.96306342
4.0307226 -8.2936029 -0.2683118 0.96377212
3.6491406 -8.2893744 -0.26353499 0.96440542
3.5248828 -8.2880173 -0.26206219 0.96460074
3.4019921 -8.2866507 -0.26064649 0.9647885
3.2804101 -8.2852926 -0.2592867 0.96496892
2.922832 -8.2813473 -0.25553194 0.96546745
2.8058789 -8.2800484 -0.25438443 0.96561992
2.347832 -8.2750092 -0.25028241 0.96616459
2.2355468 -8.2737694 -0.24937561 0.96628505
2.0132811 -8.2713184 -0.24769893 0.96650803
1.9032421 -8.2701073 -0.24692675 0.96661067
1.7938476 -8.268877 -0.24619792 0.96670759
1.5769335 -8.2664938 -0.24486871 0.96688426
1.3622071 -8.2641211 -0.24370763 0.96703875
1.149375 -8.2617674 -0.24270999 0.96717149
1.0435742 -8.2605953 -0.24227092 0.96722984
0.93810546 -8.2594433 -0.24187154 0.96728289
0.72820312 -8.2571192 -0.24119166 0.96737343
0.62367189 -8.2559662 -0.24090947 0.96741086
0.41521484 -8.2536621 -0.2404619 0.96747047
0.2074414 -8.2513475 -0.24016729 0.96750975
-0.10365234 -8.24792 -0.24001008 0.96753061
-0.20732421 -8.2467575 -0.24003407 0.96752751
-0.31101561 -8.2456446 -0.24009506 0.96751922
-0.51861328 -8.2433395 -0.2403321 0.96748775
-0.72681642 -8.241045 -0.24072078 0.9674359
-0.93580073 -8.2387209 -0.2412654 0.9673636
-1.0406836 -8.2375679 -0.241595 0.96731967
-1.1458594 -8.2364063 -0.24196379 0.96727061
-1.3572851 -8.2340822 -0.24282013 0.96715653
-1.5702929 -8.231719 -0.24383821 0.96702123
-1.677539 -8.2305269 -0.24440908 0.96694547
-1.7852734 -8.2293358 -0.24501944 0.96686417
-2.2222459 -8.2245111 -0.24789248 0.9664824
-2.6707225 -8.2195501 -0.25147322 0.96600634
-3.1335351 -8.2144337 -0.25581631 0.96542954
-3.6138475 -8.2091303 -0.26098302 0.96474379
-3.8616796 -8.2063961 -0.2638981 0.96435702
-4.5076365 -8.1992579 -0.27225044 0.96324992
-4.7780466 -8.1962595 -0.276052 0.9627465
-5.0563278 -8.1931934 -0.28014082 0.96220517
-5.1986132 -8.1916113 -0.28229964 0.96191972
-5.4899998 -8.1883984 -0.28685242 0.96131736
-6.1028905 -8.1816311 -0.29699534 0.95997739
-6.4263086 -8.1780567 -0.30263409 0.95923316
-8.0581636 -8.1600094 -0.3336919 0.95514488
-1.0355663 -0.94823241 -0.04085556 0.99439692
-1.035625 -0.92466795 -0.040397376 0.99445963
-1.0358984 -0.85696286 -0.039118651 0.99463451
-1.0359961 -0.83532226 -0.038722418 0.99468869
-1.0361133 -0.79331052 -0.037970617 0.99479163
-1.0362109 -0.77292967 -0.037614133 0.99484026
-1.0362695 -0.75290036 -0.037270356 0.99488735
-1.0363476 -0.73322266 -0.036938284 0.99493271
-1.0364063 -0.71388668 -0.036617812 0.99497658
-1.0589257 -0.70995116 -0.03709507 0.99491125
-1.1503906 -0.70995116 -0.039334182 0.994605
-1.1834179 -0.70995116 -0.04015499 0.99449271
-1.2913867 -0.70994139 -0.042879447 0.99412018
-1.415293 -0.70995116 -0.046070784 0.99368382
-1.5592968 -0.70993161 -0.049851645 0.99316734
-1.7293359 -0.70993161 -0.05439331 0.99254721
-1.7801172 -0.70479488 -0.055707738 0.9923678
-1.7800781 -0.67901367 -0.055434875 0.992405
-1.7800391 -0.65348631 -0.055173568 0.9924407
-12.968672 -4.2137499 -0.3967675 0.94689476
-13.626953 -4.052002 -0.41366073 0.94469744
-15.579335 -4.0000877 -0.4680146 0.93766189
-16.770908 -3.638242 -0.49933496 0.93363184
-16.895498 -3.0034473 -0.4993172 0.93363422
-17.024443 -2.1506641 -0.49929857 0.93363655
-17.050039 -1.9365624 -0.49929485 0.93363684
-17.093056 -1.5074512 -0.4992885 0.93363786
-17.125479 -1.0774121 -0.49928358 0.9336381
-17.147001 -0.64670897 -0.49928018 0.93363863
-17.153711 -0.43119138 -0.49927902 0.93363887
-17.157774 -0.21561523 -0.49927825 0.93363887
-15.672519 1.953125e-05 -0.4994818 0.93920463
-15.667568 0.39387694 -0.49948207 0.93920463
-15.661426 0.59072262 -0.49948269 0.93920445
-15.652793 0.78746092 -0.49948367 0.93920434
-15.641719 0.98411131 -0.49948496 0.93920416
-15.628163 1.1805859 -0.49948665 0.93920398
-15.549326 1.9643555 -0.49949661 0.93920314
-15.464667 2.5490723 -0.49950758 0.93920153
-15.431514 2.7432323 -0.49951193 0.93920112
-15.317676 3.3230176 -0.49952698 0.93919915
-15.274814 3.5152636 -0.49953261 0.93919873
-15.229609 3.7069726 -0.49953863 0.93919808
-15.182031 3.8981152 -0.49954495 0.93919724
-14.869081 4.0175681 -0.4908691 0.94022089
-12.846963 3.9964745 -0.42878374 0.94757968
-1.5592968 0.70997071 -0.054602429 0.99316669
-1.5087304 0.70996094 -0.053140145 0.99334913
-1.4608008 0.70995116 -0.05176197 0.99352103
-1.415293 0.70995116 -0.050461274 0.99368328
-1.3307617 0.70994139 -0.048068274 0.99398196
-1.2913867 0.70996094 -0.046966016 0.99411964
-1.2178711 0.70996094 -0.044926301 0.99437422
-1.1834179 0.70995116 -0.043981858 0.99449229
-1.1504102 0.70995116 -0.04308258 0.99460453
-1.1187304 0.70995116 -0.042226218 0.9947114
-1.0882226 0.70995116 -0.041409682 0.99481356
-1.0589257 0.70995116 -0.040630378 0.99491084
-1.0353125 0.81356442 -0.041964263 0.9947443
-1.0352734 0.83474606 -0.04238262 0.99469191
-1.0351758 0.85636717 -0.042816315 0.99463773
-1.0350976 0.87844723 -0.043265954 0.99458152
-1.0349804 0.90098631 -0.043731611 0.99452341
-4.5561814 4.2785544 -0.19919239 0.9752968
-4.4348435 4.2707419 -0.19619222 0.9756611
-4.3371973 4.2830567 -0.19426428 0.97590053
-4.3433008 4.398252 -0.1969987 0.97556561
-4.3383298 4.5050488 -0.19932675 0.97528064
-7.4361911 7.9187598 -0.34619957 0.9574576
-7.0665817 7.9146972 -0.33814818 0.95842606
-6.8881054 7.9127049 -0.33433905 0.95888466
-6.5427732 7.908906 -0.32712466 0.95975369
-6.2118649 7.9052439 -0.32041392 0.96056283
-6.0513768 7.9034863 -0.31723499 0.96094638
-5.8940234 7.9017382 -0.31416652 0.9613167
-5.7396774 7.9000192 -0.31120741 0.96167415
-5.588203 7.8983593 -0.30835003 0.96201909
-5.1496286 7.8935056 -0.30036548 0.96298426
-5.0083594 7.891943 -0.29788649 0.96328402
-4.8693848 7.89042 -0.29549563 0.96357328
-4.597949 7.8874121 -0.29096243 0.96412188
-4.3345213 7.8845115 -0.28674489 0.96463263
-4.0784764 7.8816695 -0.28282437 0.96510774
-3.9530077 7.8802929 -0.28096959 0.96533251
-3.5860643 7.8762403 -0.27580652 0.96595854
-3.4666796 7.8749218 -0.27421308 0.96615183
-3.3486426 7.8736129 -0.272681 0.96633774
-2.7766991 7.8672948 -0.26588672 0.96716261
-2.6655664 7.8660641 -0.26469171 0.96730775
-2.4462695 7.8636422 -0.26245749 0.96757907
-2.3379297 7.8624315 -0.26141617 0.96770567
-2.1237695 7.8600779 -0.25948024 0.96794087
-1.8080664 7.8565817 -0.2569311 0.96825075
-1.7041796 7.8554492 -0.25617403 0.9683429
-1.6008399 7.8543067 -0.25546065 0.96842968
-1.2941015 7.8509178 -0.25358221 0.96865809
-1.1927929 7.8497849 -0.25304207 0.96872383
-1.0918945 7.8486814 -0.25254425 0.96878439
-0.99138671 7.847568 -0.25208709 0.96883994
-0.89119136 7.8464551 -0.25167233 0.96889055
-0.79138672 7.8453512 -0.25129837 0.96893603
-0.69181639 7.8442674 -0.25096416 0.96897656
-0.59251952 7.843154 -0.25067151 0.96901226
-0.49337891 7.8420606 -0.25041798 0.96904308
-0.39447266 7.8409667 -0.25020549 0.969069
-0.29570311 7.8398728 -0.25003284 0.96909004
-0.19707032 7.838779 -0.24989878 0.96910632
-0.098496094 7.8376856 -0.24980439 0.96911776
0.098457031 7.8355079 -0.24973586 0.96912622
0.39402342 7.8322558 -0.24992721 0.9691028
0.49267578 7.8311424 -0.25006974 0.96908551
0.59150392 7.8300586 -0.2502529 0.96906322
0.88896483 7.826787 -0.25104117 0.96896726
1.18875 7.8234863 -0.25219271 0.96882701
1.5936133 7.818994 -0.25431225 0.9685694
1.6959569 7.8178611 -0.25494874 0.96849197
1.9023046 7.8155956 -0.25635317 0.9683212
2.0063672 7.8144236 -0.25712129 0.9682278
2.2164452 7.812109 -0.25879648 0.96802413
2.4294531 7.8097754 -0.26066014 0.96779758
2.5371289 7.8085938 -0.26166382 0.96767557
2.6456444 7.807373 -0.26271689 0.96754771
2.7550976 7.8061719 -0.26382017 0.96741354
2.8654101 7.8049512 -0.26497552 0.96727335
2.9768164 7.8037009 -0.26618242 0.96712673
3.0891602 7.8024802 -0.26744366 0.9669736
3.2026758 7.8012204 -0.26875859 0.96681386
3.668535 7.7960644 -0.27459222 0.96610594
3.7882617 7.7947364 -0.27619979 0.96591085
4.0320897 7.7920604 -0.27960861 0.96549755
4.2821484 7.7892966 -0.28328216 0.96505225
4.8033981 7.783525 -0.29149285 0.9640578
4.9385939 7.7820411 -0.29373714 0.96378601
5.0758786 7.7805176 -0.2960647 0.96350443
5.2153907 7.7789745 -0.29847643 0.96321267
5.3572068 7.7774119 -0.30097687 0.96291041
5.5014648 7.7758102 -0.30356553 0.96259731
5.648242 7.774199 -0.30625033 0.96227294
5.7976561 7.7725387 -0.30903044 0.96193701
5.9498239 7.7708688 -0.31191149 0.96158898
6.5887694 7.7638083 -0.3245227 0.96006745
6.7568164 7.7619529 -0.32796881 0.95965207
7.2834568 7.7561426 -0.33908883 0.95831281
7.6551757 7.7520018 -0.34721228 0.95733577
8.2480268 7.7454882 -0.36059737 0.95572811
8.6697073 7.7408199 -0.37041038 0.95455128
9.3478909 7.7333102 -0.38664916 0.95260692
1.2655274 0.94400388 -0.050316811 0.9937014
1.2656054 0.919541 -0.049857061 0.9937588
1.2657031 0.8955273 -0.04941326 0.99381417
1.2658007 0.87191403 -0.048984908 0.99386764
1.2660351 0.80345702 -0.047787514 0.99401706
1.2661133 0.78136718 -0.047415845 0.99406344
1.2662305 0.73816407 -0.046711501 0.99415147
1.3307226 0.70995116 -0.048068237 0.99398208
1.3719727 0.70995116 -0.049231909 0.99383682
1.4607617 0.70997071 -0.051761854 0.99352115
1.5086914 0.70995116 -0.053140298 0.99334925
1.8611132 0.70997071 -0.063482739 0.99205989
11.985136 3.7283885 -0.40002182 0.95100862
12.817402 3.6366503 -0.4246136 0.94807625
13.429199 3.6285253 -0.44333518 0.94584996
14.097539 3.6196387 -0.46385986 0.94341522
15.403554 3.5449023 -0.50374198 0.93870229
15.44707 3.351084 -0.50374818 0.93870163
15.526738 2.9618847 -0.5037595 0.93870032
15.56291 2.7665918 -0.50376469 0.93869966
15.596581 2.5708301 -0.50376946 0.93869913
15.627812 2.3746581 -0.50377399 0.93869853
15.727793 1.5864941 -0.50378853 0.93869698
15.746621 1.3887304 -0.50379133 0.9386965
15.76291 1.1907519 -0.50379378 0.93869621
15.776679 0.99258786 -0.50379586 0.93869603
15.796758 0.59581053 -0.50379902 0.93869555
15.803027 0.39727539 -0.50380015 0.93869543
15.808105 1.953125e-05 -0.50380129 0.93869513
15.796816 -0.59579098 -0.50380033 0.93869537
15.74666 -1.3887206 -0.50379431 0.93869638
15.727988 -1.5864745 -0.50379193 0.93869627
15.656738 -2.1781054 -0.50378281 0.93869734
15.596816 -2.5708301 -0.503775 0.93869829
15.563027 -2.7665722 -0.50377059 0.93869925
15.526934 -2.9618847 -0.50376582 0.9386996
15.357812 -3.7381542 -0.50374347 0.93870229
14.810059 -4.4037986 -0.49241993 0.94003791
2.0102735 -0.68120116 -0.067645758 0.99154145
1.9337499 -0.70994139 -0.065650597 0.99178988
1.8611132 -0.70993161 -0.063482814 0.99205995
1.7293164 -0.70994139 -0.059577025 0.99254662
1.6127148 -0.70993161 -0.056157034 0.99297297
1.5592968 -0.70994139 -0.05460285 0.99316674
1.5087109 -0.70992184 -0.053140335 0.99334925
1.4607812 -0.70994139 -0.05176216 0.99352115
1.4152539 -0.70994139 -0.050461274 0.99368346
1.2913867 -0.70994139 -0.046965826 0.9941197
1.2661523 -0.75958985 -0.047057305 0.99410832
1.2659374 -0.82590818 -0.048172377 0.99396908
1.2658789 -0.84871089 -0.048571661 0.99391925
1.2658007 -0.87190425 -0.048985098 0.99386764
1.2657226 -0.89549804 -0.049413297 0.99381417
1.2656054 -0.91953123 -0.04985695 0.99375886
9.9633007 -7.6285448 -0.3999176 0.95102108
9.8663864 -7.7529001 -0.39990443 0.95102245
9.7678509 -7.8759961 -0.39989105 0.95102412
9.463047 -8.2376947 -0.39984962 0.95102918
9.1186914 -8.3498144 -0.39404273 0.95172292
8.6655855 -8.3447847 -0.38340452 0.95299506
8.2359762 -8.3400488 -0.37355736 0.9541744
7.8276758 -8.335556 -0.36442703 0.95526898
7.6308398 -8.3333693 -0.36011043 0.95578694
7.4386129 -8.3312502 -0.35595024 0.95628625
6.8872266 -8.3251562 -0.34434676 0.9576807
6.7112498 -8.3232222 -0.34075096 0.95811319
6.3699412 -8.3194532 -0.33393592 0.95893359
5.725781 -8.312314 -0.32168174 0.96041042
5.5719333 -8.3106251 -0.3188799 0.9607482
5.2720118 -8.3073139 -0.31356853 0.96138924
5.125742 -8.3057127 -0.31105256 0.96169305
4.7003317 -8.3009958 -0.30402204 0.96254265
4.2931833 -8.2965136 -0.29771397 0.96330523
4.1610937 -8.2950287 -0.29576063 0.96354157
3.9020116 -8.2921677 -0.29207021 0.9639883
3.6491601 -8.2893744 -0.28864941 0.96440244
3.5248828 -8.2880173 -0.28703716 0.96459776
3.4019921 -8.2866507 -0.28548664 0.96478558
3.2803905 -8.2853022 -0.28399622 0.964966
3.1600585 -8.2839842 -0.28256768 0.96513915
2.922832 -8.2813473 -0.27988473 0.96546459
2.8058789 -8.2800684 -0.27862662 0.965617
2.3478515 -8.2750196 -0.27413502 0.96616173
2.2355468 -8.2737694 -0.27314165 0.96628225
2.0132811 -8.2713079 -0.27130404 0.96650529
1.7938476 -8.2688665 -0.26966015 0.96670491
1.5769335 -8.2664843 -0.26820427 0.96688151
0.8330273 -8.2582617 -0.26452816 0.96732813
0.62367189 -8.2559566 -0.26386765 0.96740818
0.20742187 -8.251338 -0.26305473 0.96750706
-3.9062499e-05 -8.2490721 -0.26289865 0.96752596
-0.20732421 -8.2467575 -0.26290873 0.96752483
-0.31101561 -8.245635 -0.26297671 0.96751654
-0.41480467 -8.2444725 -0.26308519 0.96750337
-0.51863283 -8.24333 -0.26323527 0.96748507
-0.72683591 -8.2410345 -0.26366204 0.96743321
-0.83119136 -8.2398729 -0.26393908 0.96739966
-1.0406641 -8.2375584 -0.26461849 0.96731704
-1.1458594 -8.2363958 -0.26502246 0.96726793
-1.2513866 -8.2352343 -0.26547062 0.96721351
-1.5703125 -8.2317085 -0.26707658 0.96701854
-2.0025001 -8.2269239 -0.2698482 0.96668196
-3.1335547 -8.2144432 -0.28019616 0.96542662
-3.251826 -8.2131252 -0.28152248 0.96526587
-3.6138475 -8.2091303 -0.28585431 0.96474087
-3.7370899 -8.2077637 -0.28742027 0.96455127
-3.9877245 -8.2049999 -0.29074144 0.96414906
-4.1152539 -8.2035837 -0.29250076 0.96393609
-4.2443652 -8.202158 -0.29432869 0.9637149
-4.3751369 -8.2007132 -0.2962265 0.96348524
-5.0563278 -8.1931934 -0.30683798 0.96220207
-5.7911134 -8.1850681 -0.31954736 0.96066773
-6.1028905 -8.1816311 -0.32529971 0.95997405
-6.4263086 -8.1780567 -0.33147579 0.95922983
-8.0581732 -8.1599998 -0.36549205 0.95514119
-8.4689455 -8.1554689 -0.37470689 0.95403665
-8.6822653 -8.1531153 -0.37958151 0.95345283
-1.0347852 -0.94752926 -0.044715919 0.99440062
-1.0349023 -0.92398435 -0.044214897 0.99446315
-1.0349804 -0.90095699 -0.043732069 0.99452353
-1.0351758 -0.8563574 -0.042816315 0.99463779
-1.035332 -0.81355464 -0.041964225 0.99474424
-1.0354297 -0.79277343 -0.041560248 0.99479467
-1.0355663 -0.75238281 -0.040794447 0.99489039
-1.0356445 -0.73272461 -0.040431403 0.99493575
-1.0357226 -0.71341795 -0.040080987 0.9949795
-1.0589257 -0.70995116 -0.040630225 0.99491084
-1.0882226 -0.70993161 -0.041409567 0.99481356
-1.1834179 -0.70995116 -0.043981969 0.99449229
-1.2178711 -0.70995116 -0.044926491 0.99437422
-1.2538086 -0.70995116 -0.045919951 0.99425024
-1.2913867 -0.70994139 -0.046966057 0.9941197
-1.3307421 -0.70995116 -0.048068427 0.99398202
-1.3719921 -0.70992184 -0.04923214 0.99383682
-1.5087304 -0.70992184 -0.053140219 0.99334919
-1.5592968 -0.70993161 -0.05460285 0.99316674
-1.6127343 -0.70994139 -0.056157187 0.99297291
-1.7809961 -0.70512694 -0.061046295 0.99236339
-1.7808789 -0.65381837 -0.060460549 0.99243647
-12.026435 -4.0753903 -0.4046897 0.95045114
-13.03497 -4.0549316 -0.43505904 0.94683337
-14.164687 -4.018867 -0.46924591 0.94277745
-14.840742 -4.0098925 -0.48993233 0.9403314
-15.182343 -3.8981543 -0.4995532 0.93919605
-15.229882 -3.7070019 -0.4995465 0.939197
-15.27502 -3.5152733 -0.49954009 0.93919796
-15.31789 -3.3230176 -0.49953398 0.93919837
-15.358222 -3.1302342 -0.49952826 0.93919915
-15.396172 -2.9369531 -0.49952284 0.93919986
