# .PCD v0.7 - Point Cloud Data file format
VERSION 0.7
FIELDS x y z intensity
SIZE 4 4 4 4
TYPE F F F F
COUNT 1 1 1 1
WIDTH 1090
HEIGHT 1
VIEWPOINT 0 0 0 1 0 0 0
POINTS 1090
DATA ascii
2.9330468 -8.3103123 0.13429055 0.96535921
2.8156641 -8.3090229 0.13368614 0.96551216
2.5839648 -8.3064642 0.13255844 0.96579814
2.4695702 -8.3051853 0.13203354 0.96593153
2.2433593 -8.3026857 0.13105598 0.96617949
2.0203125 -8.3002338 0.13017425 0.96640307
1.9098632 -8.2990236 0.12976798 0.966506
1.800078 -8.2978029 0.12938529 0.96660322
1.690957 -8.2966013 0.12902436 0.96669465
1.5824219 -8.2953901 0.12868667 0.96678048
1.4744335 -8.2941895 0.12837058 0.96686071
1.2599218 -8.2918358 0.12780288 0.96700466
1.0471874 -8.2894821 0.12732086 0.96712714
0.62583983 -8.2848139 0.12660606 0.96730876
0.52115232 -8.2836618 0.12647712 0.96734118
0.41664061 -8.2825098 0.12637077 0.96736848
0.208125 -8.2802048 0.12621474 0.96740782
0 -8.2779102 0.12614089 0.96742684
-0.10404297 -8.2767477 0.12613326 0.9674288
-0.2080664 -8.2756052 0.12614571 0.96742564
-0.31208983 -8.2744532 0.12617683 0.96741742
-0.52046871 -8.2721577 0.1263015 0.96738577
-0.62484372 -8.2709866 0.12639388 0.9673624
-0.83410156 -8.2687006 0.12663993 0.96730006
-0.93906248 -8.2675295 0.12679313 0.96726125
-1.2557617 -8.2640333 0.12737556 0.96711344
-1.5758203 -8.260498 0.12814468 0.96691787
-1.7915235 -8.2581053 0.12876655 0.96676028
-2.0094922 -8.255703 0.12947457 0.96658027
-2.1194532 -8.2544823 0.12986457 0.96648169
-2.3413672 -8.2520504 0.13070992 0.96626699
-3.026875 -8.2444525 0.13383041 0.9654758
-3.1444921 -8.2431545 0.13444038 0.96532124
-3.2632031 -8.2418451 0.13507743 0.96515989
-3.6264844 -8.2378321 0.13715561 0.96463341
-3.7501366 -8.236474 0.13790627 0.96444321
-4.0016599 -8.2336912 0.1395002 0.9640398
-4.1296482 -8.232275 0.14034401 0.96382618
-4.2592187 -8.2308397 0.141221 0.96360433
-5.0739841 -8.2218161 0.14722411 0.96208709
-5.2167969 -8.2202444 0.14835769 0.96180069
-5.361836 -8.2186422 0.14953277 0.96150392
-5.811367 -8.2136812 0.15332115 0.9605481
-5.9664063 -8.2119627 0.15467666 0.96020639
-6.124248 -8.2102242 0.15608177 0.95985234
-6.4487696 -8.2066402 0.15904403 0.95910597
-6.9599609 -8.2009954 0.1639061 0.95788258
-8.0863476 -8.1885347 0.17536528 0.95500511
-8.4985933 -8.1839943 0.17978805 0.95389724
-8.7126169 -8.1816206 0.182126 0.9533118
-8.9323635 -8.1791992 0.18455535 0.95270371
-1.0537109 -0.94077146 0.021524962 0.99436498
-1.0533789 -0.89395505 0.021052893 0.9944883
-1.0532422 -0.8712793 0.020829238 0.99454665
-1.0530859 -0.84912109 0.02061386 0.99460292
-1.0528125 -0.80610347 0.02020523 0.99470949
-1.0523242 -0.72485352 0.019471664 0.99490118
-1.1186719 -0.70995116 0.020189857 0.99471366
-1.1503906 -0.70994139 0.020599442 0.99460667
-1.2178906 -0.70995116 0.021480942 0.99437636
-1.2537891 -0.70994139 0.021956023 0.99425256
-1.2913672 -0.70994139 0.022456245 0.99412203
-1.3307421 -0.70994139 0.022983359 0.99398434
-1.3719531 -0.70993161 0.023539733 0.99383932
-1.4152734 -0.70994139 0.024127463 0.99368584
-1.5592773 -0.70993161 0.026107254 0.99316949
-1.6692773 -0.70996094 0.027641829 0.99276948
-1.7664453 -0.72517574 0.0290979 0.99239022
-1.7664844 -0.69939452 0.028951148 0.9924283
-1.7664844 -0.67385739 0.028810425 0.99246508
-1.7665429 -0.64855468 0.028675536 0.99250007
-1.7673632 0.67418945 0.02358284 0.99246162
-1.7673047 0.72554684 0.023818359 0.99238676
-1.6127343 0.70996094 0.02196827 0.99297589
-1.5592968 0.70996094 0.021359976 0.99316967
-1.4607812 0.70995116 0.020249099 0.9935239
-1.4152734 0.70997071 0.019740142 0.99368602
-1.3719921 0.70995116 0.019259224 0.99383938
-1.3307421 0.70995116 0.018804092 0.99398458
-1.2537891 0.70995116 0.017963486 0.9942528
-1.1834375 0.70995116 0.017205391 0.99449456
-1.1503906 0.70996094 0.016853599 0.99460685
-1.0589062 0.70997071 0.015894242 0.99491304
-1.0499219 0.7232129 0.015894545 0.99491298
-1.0501171 0.76296872 0.016182899 0.99482095
-1.0503515 0.80419922 0.016492195 0.99472213
-1.0508984 0.91484374 0.017370872 0.99444181
-1.0510547 0.93843746 0.017566757 0.99437928
-8.4133787 7.900732 0.14389183 0.95487994
-7.7953024 7.8939157 0.13831291 0.95659024
-7.4088378 7.8896289 0.13493294 0.95762855
-7.040586 7.8855567 0.1317952 0.95859331
-6.5187402 7.8798046 0.12749748 0.95991558
-6.3521485 7.8779588 0.12616637 0.96032578
-6.0291405 7.8743844 0.12364395 0.96110368
-5.5676169 7.869287 0.1201802 0.96217221
-5.4194531 7.8676562 0.11910568 0.96250385
-5.273828 7.8660445 0.11806877 0.96282423
-4.5810547 7.8583884 0.11340415 0.96426654
-4.4488673 7.8569236 0.11256821 0.96452552
-4.190156 7.8540626 0.11098076 0.96501625
-4.0634766 7.8526754 0.11023193 0.96524847
-3.9384766 7.8512888 0.10950931 0.9654724
-3.8151171 7.8499312 0.10881229 0.96568811
-3.4539061 7.8459373 0.10687573 0.96628857
-3.336328 7.8446288 0.10627815 0.96647376
-3.1049218 7.8420801 0.10515343 0.96682268
-2.8782032 7.83957 0.10411651 0.96714437
-2.7664843 7.8383398 0.10362926 0.96729529
-2.5460546 7.8359079 0.1027198 0.96757799
-2.4372656 7.8347068 0.10229377 0.96771008
-2.3293359 7.8335056 0.10188827 0.96783614
-2.0104296 7.8299804 0.10078384 0.96817893
-1.905625 7.8288083 0.10045329 0.96828181
-1.5949414 7.8254004 0.09956634 0.9685573
-1.4925781 7.8242674 0.09930519 0.96863836
-1.3907422 7.8231444 0.099061124 0.96871418
-1.1883984 7.8208981 0.098623924 0.96885031
-0.98775387 7.8186913 0.098252483 0.96896595
-0.78847653 7.816484 0.097943723 0.96906167
-0.49156249 7.8131933 0.097601734 0.96916831
-0.29464844 7.8110251 0.097450331 0.96921504
-0.098164059 7.8088379 0.097361676 0.96924269
-3.9062499e-05 7.8077731 0.097341381 0.96924919
0.098066404 7.8066797 0.097335584 0.96925104
0.19617186 7.8055954 0.097344205 0.96924812
0.49085936 7.8023434 0.097466126 0.96921045
0.88566405 7.7979684 0.097843319 0.96909285
1.0844727 7.7957811 0.098127477 0.96900469
1.1843749 7.7946777 0.098293073 0.96895313
1.2846093 7.7935739 0.098475643 0.96889657
1.3852344 7.7924705 0.098672599 0.96883494
1.5877343 7.7902246 0.099118613 0.96869648
1.6897265 7.7890821 0.099367253 0.96861941
1.8953124 7.7868261 0.0999147 0.96844929
1.9989843 7.7856932 0.10021389 0.96835613
2.1033008 7.7845407 0.10053185 0.96825749
2.3140235 7.782197 0.10122055 0.96804345
2.4205077 7.7810254 0.10159309 0.96792775
2.5277734 7.7798438 0.10198372 0.96780628
2.6359179 7.7786422 0.10239433 0.96767884
2.8548827 7.7762203 0.10327552 0.96740562
2.9658399 7.7749996 0.10374492 0.96725953
3.1908593 7.7725196 0.10474949 0.96694791
3.3050389 7.7712498 0.10528457 0.96678221
3.4204297 7.7699804 0.10584083 0.96660948
3.5370703 7.7686815 0.10641987 0.96642977
3.6550195 7.7673826 0.1070232 0.96624279
3.7742968 7.7660642 0.10764927 0.96604848
4.1410155 7.7620215 0.10968056 0.96541911
4.2664061 7.7606249 0.11040989 0.96519327
4.3934765 7.7592282 0.11116722 0.96495891
4.6530466 7.7563477 0.11276688 0.96446401
4.9203906 7.7533884 0.11448486 0.96393216
5.0571876 7.7518749 0.11539207 0.96365166
5.1962109 7.7503514 0.11633217 0.96336097
5.3375001 7.7487888 0.11730637 0.9630599
5.4812107 7.7471972 0.11831672 0.96274805
5.627461 7.7455955 0.11936241 0.96242493
5.7763085 7.7439356 0.12044571 0.96209037
6.0823827 7.7405562 0.12273117 0.96138477
6.2399216 7.7388182 0.12393745 0.96101278
6.4005661 7.7370505 0.12518868 0.96062744
6.5645313 7.7352242 0.12648284 0.9602282
6.902988 7.7314844 0.12922035 0.95938575
7.4396091 7.7255564 0.13371627 0.95800287
8.0157423 7.7191892 0.13873863 0.95645982
8.217617 7.7169628 0.14054435 0.95590615
8.4248829 7.7146678 0.14241897 0.95533115
8.8566017 7.7099118 0.14639404 0.95411319
9.0817385 7.7074118 0.14850235 0.95346797
9.3134565 7.7048631 0.15069595 0.95279706
9.7982807 7.699502 0.15535995 0.95137227
10.314375 7.6937985 0.16042671 0.94982713
1.2843554 0.93315428 0.019792862 0.99366939
1.2842382 0.90863281 0.019613532 0.99372655
1.2840234 0.86089844 0.019273337 0.99383491
1.2835938 0.77006835 0.018662032 0.99402994
1.2835156 0.7482422 0.018522721 0.9940744
1.2834375 0.72670895 0.018388024 0.99411732
1.3719531 0.70996094 0.019259185 0.9938395
1.4152734 0.70995116 0.019740066 0.99368608
1.5592968 0.70995116 0.021360129 0.99316967
1.6127343 0.70996094 0.021968117 0.99297589
1.6692969 0.70997071 0.022615546 0.99276966
1.7293164 0.70994139 0.023306159 0.99254984
1.7931249 0.70995116 0.024043808 0.99231488
1.8611327 0.70996094 0.024834136 0.99206322
1.9337499 0.70995116 0.025682334 0.99179339
1.9769726 0.69776368 0.026137847 0.99164844
17.095215 -4.8503513 0.22154182 0.9313823
16.912989 -5.0291309 0.21999954 0.93184859
1.9337499 -0.70993161 0.025681648 0.99179339
1.8611327 -0.70994139 0.024833603 0.99206328
1.7931445 -0.70992184 0.024043998 0.99231482
1.6127148 -0.70994139 0.021968231 0.99297601
1.5087109 -0.70995116 0.020787848 0.99335206
1.4607812 -0.70994139 0.020248795 0.9935239
1.3307031 -0.70993161 0.018803939 0.99398476
1.2914063 -0.70993161 0.018372726 0.99412215
1.2833984 -0.7267285 0.018387984 0.99411744
1.2835156 -0.74823242 0.018522605 0.9940744
1.283711 -0.792207 0.018806724 0.99398381
1.2839062 -0.83761716 0.019112282 0.99388635
1.284043 -0.86087888 0.019273223 0.99383491
1.2841601 -0.88453126 0.019440306 0.99378169
1.2842578 -0.90862304 0.019613495 0.99372655
1.284375 -0.93314451 0.019792633 0.99366933
10.969766 -8.3991213 0.17224799 0.94623137
10.684766 -8.395957 0.16941704 0.94709152
10.141777 -8.3899603 0.16409911 0.94870877
9.8827734 -8.3870897 0.16159965 0.94946951
9.6315231 -8.384326 0.15920258 0.95020032
9.387558 -8.3816309 0.15689819 0.950903
8.9200583 -8.3764648 0.15255576 0.95222884
8.2647066 -8.3692284 0.14664413 0.95403737
8.0573435 -8.3669338 0.14481789 0.95459634
7.2760348 -8.3583002 0.13815704 0.95663834
7.0916796 -8.3562593 0.13663994 0.95710427
6.9112692 -8.3542576 0.13517754 0.95755392
6.5616794 -8.3504095 0.13240211 0.95840639
6.3921876 -8.3485451 0.13108879 0.95881039
5.9029102 -8.3431244 0.12741882 0.95994055
5.7457614 -8.3413868 0.12627922 0.96029156
5.5913868 -8.3396873 0.12517951 0.96063036
5.4396482 -8.3380079 0.12411819 0.96095747
5.2904491 -8.3363571 0.12309402 0.96127319
4.7167382 -8.330019 0.11934493 0.96243012
4.442461 -8.3269825 0.11766677 0.96294928
4.3081641 -8.3255177 0.11687034 0.96319491
3.7880273 -8.3197651 0.11396995 0.9640916
3.413867 -8.3156252 0.11207084 0.9646796
3.1710937 -8.3129396 0.11092559 0.96503425
3.0514843 -8.3116302 0.11038642 0.96520084
2.9330468 -8.3103123 0.10987194 0.96536052
2.8157032 -8.3090038 0.10937709 0.96551347
2.5839844 -8.3064547 0.10845459 0.96579945
2.3560545 -8.3039455 0.10761497 0.9660598
2.2433202 -8.3026857 0.10722343 0.9661808
2.0203125 -8.3002338 0.10650322 0.96640438
1.9098632 -8.2990236 0.10617149 0.96650732
1.690957 -8.2966013 0.10556304 0.9666959
1.5824219 -8.2953901 0.10528564 0.96678174
1.2599218 -8.2918358 0.10456356 0.96700591
1.0471874 -8.2894821 0.10416843 0.96712834
0.83591795 -8.2871284 0.10384338 0.96722966
0.73076171 -8.2859859 0.1037046 0.96727234
0.62583983 -8.2848139 0.10358356 0.96731001
0.52115232 -8.2836618 0.103479 0.96734244
0.208125 -8.2802048 0.10326427 0.96740907
0.10402343 -8.2790432 0.10322658 0.96742111
-0.10404297 -8.2767477 0.1031969 0.96743006
-0.2080664 -8.2756052 0.10320789 0.96742684
-0.3121289 -8.2744532 0.10323337 0.96741867
-0.41623047 -8.2733202 0.10327617 0.96740532
-0.83410156 -8.2687006 0.10361148 0.96730131
-0.93906248 -8.2675295 0.10373668 0.96726251
-1.0442969 -8.2663765 0.10387859 0.96721846
-1.3620117 -8.2628517 0.10440537 0.9670549
-1.4686913 -8.2616596 0.10461563 0.96698976
-1.5758203 -8.260498 0.10484348 0.96691906
-1.6833984 -8.2593069 0.10508896 0.96684307
-1.7915429 -8.2581053 0.10535019 0.96676153
-2.0094922 -8.255703 0.10593132 0.96658152
-2.1194532 -8.2544823 0.10624965 0.96648294
-2.3413672 -8.2520504 0.10694107 0.96626824
-2.4534373 -8.2507906 0.10731681 0.96615207
-2.5663085 -8.2495308 0.10771137 0.96602976
-2.680078 -8.248291 0.10812695 0.96590114
-2.7947266 -8.2470112 0.1085622 0.96576625
-3.026875 -8.2444525 0.10949428 0.96547711
-3.383086 -8.2405176 0.11105835 0.96499288
-3.5041797 -8.2391891 0.11162414 0.9648174
-3.7501366 -8.236474 0.11282989 0.96444458
-4.1296482 -8.232275 0.1148246 0.96382755
-4.2592382 -8.2308493 0.11554085 0.96360558
-4.5234179 -8.22791 0.11706039 0.96313632
-4.7947655 -8.2249022 0.11869453 0.9626314
-5.2167969 -8.2202539 0.12138099 0.96180207
-5.361836 -8.2186518 0.1223423 0.96150535
-5.5091991 -8.2170315 0.12333885 0.96119791
-5.6589842 -8.2153711 0.12437141 0.9608795
-5.811367 -8.2136908 0.12544174 0.96054953
-6.124238 -8.2102242 0.1276992 0.95985389
-6.4487696 -8.2066498 0.13012519 0.95910746
-6.6157618 -8.2047949 0.13140221 0.95871407
-7.1374316 -8.1990232 0.13552497 0.95744669
-7.6937203 -8.1928902 0.14012107 0.95603591
-8.086338 -8.1885347 0.14347893 0.95500684
-8.4985447 -8.1839943 0.14709488 0.95389909
-8.7126169 -8.1816206 0.14900756 0.95331353
-8.9323635 -8.1791992 0.15099655 0.9527055
-1.0507812 -0.89175779 0.017182311 0.99450201
-1.0506641 -0.86918944 0.017000312 0.99456006
-1.0505469 -0.84707028 0.016824799 0.99461609
-1.0504297 -0.82541013 0.016655616 0.99467015
-1.0503515 -0.80418944 0.016492309 0.99472213
-1.0502343 -0.78336912 0.016334724 0.99477243
-1.0589062 -0.70993161 0.015894279 0.9949131
-1.0882226 -0.70995116 0.016199112 0.99481577
-1.1186719 -0.70995116 0.016518669 0.99471384
-1.1503906 -0.70994139 0.016853714 0.99460691
-1.1834179 -0.70994139 0.017205352 0.99449462
-1.2178906 -0.70995116 0.017574769 0.9943766
-1.2537891 -0.70994139 0.017963409 0.9942528
-1.2913672 -0.70994139 0.018372612 0.99412227
-1.3719531 -0.70993161 0.019259108 0.99383956
-1.7673438 -0.72553712 0.023818169 0.99238664
-1.7673632 -0.67418945 0.023582915 0.99246162
-1.7673827 -0.64885741 0.023472328 0.99249679
-22.742313 -8.0266113 0.30067497 0.9080314
-23.472666 -7.9541407 0.30897611 0.90561342
-22.836924 8.0601263 0.23482741 0.9076696
-1.7682421 0.6491797 0.018264655 0.99249339
-1.7682031 0.72590816 0.018533707 0.99238318
-1.5592968 0.70996094 0.016613349 0.99316984
-1.50875 0.70995116 0.016168326 0.99335212
-1.4607812 0.70995116 0.015748978 0.99352407
-1.4152734 0.70997071 0.015353088 0.99368626
-1.2914063 0.70997071 0.014289818 0.99412227
-1.2537891 0.70995116 0.013971252 0.99425292
-1.1834375 0.70995116 0.013381538 0.99449474
-1.047539 0.72159177 0.012334251 0.9949246
-1.0476172 0.74121094 0.012443733 0.99487966
-1.0479492 0.82346678 0.012923126 0.99468285
-1.048125 0.86708003 0.013190269 0.99457335
-1.0482227 0.88958985 0.013330993 0.99451554
-1.0483203 0.91256833 0.013477135 0.99445564
-1.0483984 0.93608397 0.013628501 0.99439359
-8.6307812 7.9031444 0.11347488 0.95426631
-8.4133787 7.900732 0.111913 0.95488131
-7.995986 7.8961229 0.10896744 0.95604271
-7.5996871 7.8917379 0.10623592 0.9571203
-7.222578 7.887578 0.10370163 0.95812082
-6.862783 7.8835936 0.10134987 0.95905119
-6.6888671 7.8816795 0.10023659 0.95949179
-6.5187302 7.8797946 0.099163167 0.95991683
-6.0291405 7.8743844 0.096165046 0.96110481
-5.7185936 7.8709469 0.094337158 0.9618296
-5.5676169 7.869287 0.093470953 0.96217334
-4.9899607 7.8629003 0.090301208 0.96343309
-4.8515038 7.8613768 0.089575768 0.96372122
-4.7152343 7.8598728 0.088877104 0.96399927
-4.4488282 7.8569431 0.087549932 0.96452659
-3.9384766 7.8512888 0.085172802 0.96547347
-3.572871 7.8472557 0.08360672 0.96609706
-3.3363085 7.8446383 0.082658425 0.96647471
-3.1048827 7.8420897 0.081783906 0.96682376
-2.7664452 7.8383493 0.080599286 0.9672963
-2.5460546 7.8359179 0.079891086 0.96757895
-2.1159766 7.831152 0.078657299 0.96807134
-1.8014257 7.8276758 0.077886239 0.96838003
-1.4925586 7.8242869 0.077236213 0.96863925
-1.3907031 7.8231444 0.077046275 0.96871513
-0.49156249 7.8132129 0.075909577 0.96916914
-0.098164059 7.8088574 0.075724564 0.96924353
0 7.8077927 0.075707965 0.96925008
0.19621094 7.8056149 0.075711019 0.96924895
0.39255857 7.8034568 0.075762674 0.96922863
0.58929688 7.8012595 0.075860329 0.96918923
0.68789059 7.8001852 0.075928725 0.96916217
0.78669918 7.7991014 0.076007418 0.96913034
0.88566405 7.7979879 0.076099128 0.96909368
0.98496091 7.7969041 0.076203957 0.96905202
1.2846093 7.7935934 0.076590195 0.96889746
1.3852344 7.79249 0.076744042 0.96883583
1.4862499 7.7913671 0.076910667 0.96876919
1.5877343 7.7902246 0.077092052 0.96869737
2.7449219 7.7774606 0.079973221 0.96754622
2.8548827 7.7762399 0.080323331 0.96740651
3.3050389 7.7712693 0.081885986 0.96678311
3.4204297 7.7699804 0.082318455 0.96661049
3.6550195 7.7674022 0.083239056 0.96624374
3.8950195 7.7647362 0.084232859 0.96584755
4.2664061 7.7606344 0.085872918 0.96519428
4.5223827 7.7578125 0.087071568 0.96471685
4.9203906 7.753408 0.089042284 0.96393317
5.0572267 7.7518945 0.089748003 0.96365261
5.776289 7.7439551 0.093677558 0.96209151
5.9278903 7.7422652 0.094551615 0.96174496
6.0823827 7.7405562 0.095455967 0.96138597
6.4005661 7.7370505 0.097366408 0.96062863
6.5645118 7.7352242 0.098374024 0.96022946
6.7319531 7.7333689 0.099418409 0.95981574
7.4396091 7.7255564 0.10399921 0.95800412
7.6269727 7.723496 0.10525203 0.95750856
7.8189063 7.7213669 0.10655472 0.95699465
8.8566017 7.7099118 0.11386024 0.95411456
9.0817184 7.7074118 0.11549995 0.95346946
9.3134375 7.7048535 0.11720604 0.95279855
9.7982807 7.699492 0.12083328 0.95137376
10.052187 7.6966696 0.12276161 0.95061713
1.28125 0.88254881 0.015085907 0.99379587
1.2811718 0.8589648 0.014956436 0.9938488
1.2810546 0.83574218 0.014831771 0.99390012
1.2809765 0.81292969 0.01471138 0.99394947
1.2807422 0.74662107 0.014375038 0.99408734
1.2806835 0.72517574 0.014270706 0.99413002
1.2913867 0.70995116 0.014289627 0.99412239
1.5087304 0.70996094 0.016168175 0.99335217
1.5592968 0.70995116 0.01661312 0.99316984
1.6692969 0.70997071 0.017589606 0.9927699
1.7293164 0.70994139 0.01812664 0.99255008
17.078554 -4.8456345 0.17213973 0.93144882
1.9337499 -0.70993161 0.019974403 0.99179369
1.8611327 -0.70994139 0.019314727 0.99206352
1.7931445 -0.70992184 0.018700447 0.99231505
1.7292968 -0.70993161 0.01812664 0.99255013
1.6127148 -0.70994139 0.017086105 0.99297619
1.5592577 -0.70994139 0.016612967 0.99317002
1.5087109 -0.70995116 0.016168099 0.99335223
1.3307031 -0.70993161 0.014625015 0.99398494
1.2914063 -0.70993161 0.014289474 0.99412233
1.2807813 -0.74659181 0.014375076 0.99408728
1.2811328 -0.85894531 0.014956436 0.99384898
1.281289 -0.90655273 0.015219688 0.9937411
11.264472 -8.4023733 0.13626671 0.94533604
10.969746 -8.3991013 0.13396691 0.94623309
10.141738 -8.3899708 0.12763077 0.94871038
9.6315041 -8.3843164 0.12382225 0.95020187
9.3875389 -8.3816404 0.12203026 0.95090449
9.150527 -8.3790035 0.12030937 0.95158017
8.9200583 -8.3764744 0.11865242 0.95223022
8.6958199 -8.3739843 0.11706039 0.95285594
8.2647066 -8.3692284 0.11405502 0.95403874
7.6574802 -8.3625193 0.10994915 0.95565587
7.2760348 -8.3583002 0.10745266 0.95663965
6.7346873 -8.3523045 0.10403751 0.95798892
6.5616794 -8.3504095 0.1029776 0.95840764
6.3921876 -8.3485451 0.10195629 0.95881164
6.0629492 -8.344902 0.10001987 0.95957822
5.7457614 -8.3413868 0.098214604 0.96029276
5.4396482 -8.3380079 0.096533775 0.96095866
5.29041 -8.3363771 0.095738105 0.96127439
5.1436329 -8.3347464 0.094969019 0.9615792
4.9991407 -8.3331537 0.094228134 0.96187335
4.8568749 -8.3315821 0.09351299 0.96215731
4.5786133 -8.3285055 0.092156939 0.96269548
4.442461 -8.3269825 0.091516495 0.96295035
4.1756248 -8.3240328 0.090300135 0.96343297
3.915664 -8.3211517 0.089174576 0.96388108
3.2918553 -8.3142576 0.086710662 0.96486169
3.0515039 -8.3116016 0.085853726 0.96520197
2.9330664 -8.3103123 0.085452572 0.9653616
2.8156641 -8.3090038 0.085069694 0.96551454
2.6993554 -8.307724 0.084702492 0.96566075
2.5839844 -8.3064356 0.084352262 0.96580058
2.1314647 -8.3014355 0.083107032 0.96629661
1.9098632 -8.2990036 0.082575679 0.96650839
1.4744335 -8.2941694 0.081686631 0.9668631
1.3669336 -8.2929983 0.081499591 0.96693772
1.1533984 -8.2906342 0.081165083 0.96707088
0.9413867 -8.288291 0.080884203 0.9671827
0.83591795 -8.2871094 0.080765039 0.96723074
0.52115232 -8.2836428 0.080482483 0.96734351
0.31234375 -8.2813377 0.080358349 0.96739298
0.1040625 -8.2790232 0.080285259 0.96742219
-0.10402343 -8.2767286 0.080262944 0.96743107
-0.20804687 -8.2755861 0.080270842 0.96742791
-0.31210938 -8.2744532 0.080291405 0.96741962
-0.52046871 -8.2721386 0.08037056 0.96738809
-0.62480468 -8.2709866 0.080430336 0.96736467
-0.7293359 -8.269824 0.080500945 0.96733612
-0.93906248 -8.2675095 0.080681913 0.96726358
-1.1498632 -8.2651854 0.080916859 0.9671703
-1.2557422 -8.2640133 0.081052743 0.96711576
-1.7915235 -8.2580862 0.081938587 0.9667626
-2.0095117 -8.2556829 0.082389757 0.9665826
-2.1194532 -8.2544622 0.082637407 0.96648407
-2.3413477 -8.2520313 0.083176039 0.96626937
-2.4534373 -8.2507811 0.083467409 0.96615314
-2.5663085 -8.2495213 0.08377327 0.96603084
-2.6800389 -8.2482815 0.084096603 0.96590221
-2.7947266 -8.2469921 0.084434927 0.96576738
-2.9102929 -8.2457228 0.084789731 0.96562606
-3.0268555 -8.2444334 0.085161015 0.96547824
-3.1444921 -8.2431345 0.085550003 0.96532369
-3.383086 -8.2405081 0.086376376 0.96499401
-3.5041797 -8.2391701 0.086818464 0.96481854
-3.6264844 -8.2378025 0.087275811 0.96463591
-3.8751562 -8.2350588 0.088250995 0.964248
-4.0016599 -8.2336721 0.088768728 0.96404231
-4.1296482 -8.232275 0.089305684 0.96382862
-4.2592382 -8.2308493 0.089863621 0.96360672
-4.6581249 -8.2264252 0.091668852 0.96288961
-4.7947655 -8.2249022 0.092316508 0.96263248
-4.9333591 -8.2233791 0.092988357 0.96236593
-5.5091991 -8.2170315 0.095927581 0.96119905
-5.6589842 -8.2153711 0.096730806 0.9608807
-5.8113866 -8.2137012 0.097563438 0.96055067
-6.124238 -8.2102242 0.099320181 0.95985508
-6.4487891 -8.2066498 0.10120613 0.95910865
-6.6157618 -8.2047949 0.10219879 0.95871532
-6.7861133 -8.20292 0.10323055 0.95830768
-7.5041208 -8.1949701 0.10774521 0.95652455
-7.6937304 -8.1928902 0.10898132 0.95603722
-7.8877149 -8.190752 0.11026104 0.95553201
-8.4985838 -8.1840038 0.11440407 0.95390034
-1.0482227 -0.88958007 0.013330955 0.99451554
-1.0479492 -0.82344723 0.012923241 0.99468285
-1.0477148 -0.76117188 0.01255722 0.99483305
-1.0476172 -0.74121094 0.012443733 0.99487966
-1.047539 -0.72157222 0.012334213 0.99492466
-1.0882226 -0.70995116 0.012599106 0.99481595
-1.1186719 -0.70995116 0.012847557 0.99471402
-1.1503906 -0.70994139 0.013108215 0.99460709
-1.1834179 -0.70994139 0.0133815 0.9944948
-1.2178906 -0.70995116 0.013669052 0.99437678
-1.2913672 -0.70994139 0.014289436 0.99412245
-1.3307421 -0.70994139 0.014625129 0.99398476
-1.4608008 -0.70994139 0.015748901 0.99352401
-1.5592773 -0.70993161 0.016613083 0.99316996
-1.6127148 -0.70995116 0.01708599 0.99297619
-1.6692773 -0.70996094 0.017589722 0.99277002
-1.768164 -0.72587889 0.018533591 0.99238336
-1.7682031 -0.70006835 0.018440247 0.99242151
-1.7682031 -0.67450196 0.018350486 0.99245828
-1.7682031 -0.64915037 0.018264541 0.99249357
-22.836962 8.0601072 0.16773009 0.90767151
-1.7690234 0.64949214 0.013052139 0.99249023
-1.769043 0.67483395 0.013113517 0.99245489
-1.7690234 0.72624022 0.013244667 0.99237984
-1.6692969 0.70995116 0.012563782 0.99277008
-1.6127343 0.70996094 0.012204247 0.99297625
-1.4607812 0.70995116 0.011249008 0.99352425
-1.3719921 0.70995116 0.010699196 0.99383974
-1.3307421 0.70995116 0.010446396 0.99398488
-1.2178711 0.70994139 0.0097635649 0.99437696
-1.0454297 0.72012693 0.0087924572 0.99493492
-1.0454491 0.73966795 0.0088700103 0.99489039
-1.0454687 0.7595703 0.008950348 0.99484414
-1.0454687 0.77986324 0.0090337368 0.99479628
-1.0455469 0.84303707 0.0093022538 0.99464196
-1.0456641 0.88741207 0.0094986344 0.99452901
-1.0458008 0.93374997 0.0097100446 0.99440759
-8.6307812 7.9031539 0.081051789 0.95426732
-8.4133787 7.9007421 0.079936139 0.95488232
-8.2019043 7.8984079 0.078864671 0.95547396
-6.862783 7.8836131 0.072392195 0.95905203
-6.6888671 7.8816991 0.07159698 0.95949262
-6.3521485 7.8779783 0.070089795 0.9603278
-6.1890039 7.8761621 0.06937664 0.9607237
-6.0291209 7.874404 0.068687707 0.9611057
-5.718574 7.8709569 0.067383081 0.9618305
-5.5676169 7.8692966 0.066764332 0.96217418
-5.4194531 7.8676658 0.066167146 0.96250582
-5.273828 7.8660545 0.065591544 0.96282613
-5.1306639 7.8644724 0.065034561 0.96313542
-4.9899607 7.8629293 0.064498521 0.9634338
-4.7151952 7.8598924 0.063481405 0.96400011
-4.5810547 7.8583984 0.063000217 0.96426839
-4.190156 7.8540816 0.061654355 0.96501803
-4.0634766 7.8526754 0.061237905 0.96525031
-3.5728905 7.8472557 0.059717786 0.96609777
-3.4539061 7.8459373 0.059373282 0.96629035
-3.3362889 7.8446288 0.059041135 0.96647555
-3.1048827 7.8420801 0.058416672 0.96682453
-2.9909766 7.8408203 0.058121566 0.96698868
-2.7664843 7.8383493 0.057570379 0.96729696
-2.6557422 7.8371286 0.057311933 0.9674415
-2.4372265 7.8347168 0.05682781 0.96771175
-2.2222266 7.832334 0.056387175 0.96795785
-2.0104101 7.8299704 0.055989798 0.96818066
-1.1883984 7.8209081 0.054790001 0.96885192
-0.88794923 7.8175778 0.054492187 0.96901798
-0.78845704 7.816494 0.054411925 0.96906322
-0.49156249 7.8132029 0.054221381 0.96916991
-0.39304686 7.812119 0.054175261 0.96919566
-0.29462889 7.8110352 0.054137763 0.96921664
-0.098164059 7.8088474 0.054088514 0.9692443
0.19621094 7.8056054 0.054078903 0.96924967
0.29435545 7.8045115 0.054091718 0.96924198
0.49087891 7.8023534 0.05414604 0.96921206
0.58929688 7.80125 0.054184645 0.96918994
0.78666013 7.7990723 0.054290466 0.96913117
0.8856836 7.7979879 0.05435608 0.9690944
1.3852344 7.7924805 0.054816779 0.96883655
1.4862499 7.791357 0.054935645 0.96876991
1.5877343 7.7902145 0.055064734 0.96869814
1.6897265 7.7890916 0.055201225 0.96862102
1.8953515 7.7868357 0.055506248 0.9684509
2.1033204 7.7845311 0.05584915 0.96825916
2.5277929 7.7798338 0.056656301 0.96780801
2.8549023 7.7762303 0.057372358 0.96740723
2.9658594 7.7750096 0.057634659 0.9672612
3.0778124 7.7737594 0.057907484 0.96710879
3.1908984 7.7725291 0.058191985 0.96694958
3.3050585 7.7712598 0.05848854 0.96678388
3.6550391 7.7673926 0.059454154 0.96624452
3.8950391 7.7647262 0.060165901 0.96584833
4.0172653 7.7633982 0.060541913 0.96563858
4.1410155 7.7620115 0.060931165 0.96542096
4.2664061 7.7606344 0.061336324 0.96519506
4.5223827 7.7578025 0.062193375 0.96471769
4.6530662 7.7563572 0.06264618 0.9644658
4.7857423 7.7549024 0.063114509 0.96420455
4.9203906 7.753408 0.063600004 0.963934
5.1962109 7.750371 0.064626537 0.96336281
5.4812107 7.7472167 0.065728225 0.96274996
5.9279099 7.7422752 0.067535244 0.9617458
6.0824218 7.7405758 0.068182141 0.96138668
6.902988 7.731504 0.071785733 0.95938784
7.2566209 7.7276073 0.073419794 0.95848274
7.4396091 7.7255759 0.07428211 0.95800501
7.6269727 7.7235155 0.075179555 0.95750952
8.4248829 7.7146873 0.079118729 0.95533341
8.6377735 7.7123337 0.08020065 0.95473617
8.8566408 7.7099118 0.081326708 0.95411551
9.3134565 7.7048731 0.083717838 0.9527995
9.5521479 7.7022262 0.084986381 0.95210153
9.7982807 7.6995115 0.086307563 0.95137483
10.052187 7.6966891 0.087685548 0.95061821
1.2783984 0.90449214 0.010846176 0.99375534
1.2783203 0.88053709 0.010750923 0.99381012
1.2782421 0.83388668 0.010570335 0.99391365
1.2781055 0.78876954 0.010401955 0.99401027
1.2780664 0.76672852 0.010322189 0.99405593
1.2780077 0.7450195 0.010245742 0.99410009
1.3307226 0.70994139 0.010446167 0.993985
1.3719531 0.70996094 0.010699158 0.99383986
1.4152734 0.70995116 0.010966263 0.99368644
1.4607812 0.70995116 0.011248893 0.99352425
1.5592968 0.70995116 0.011866264 0.99317002
1.6126952 0.70996094 0.012204247 0.99297643
1.7931249 0.70995116 0.013357543 0.99231529
1.9337499 0.70995116 0.014267311 0.99179381
1.9811132 0.67134762 0.014487877 0.99166763
17.060156 -4.8404102 0.1228212 0.93152165
1.9811327 -0.67132813 0.014487609 0.99166757
1.9810938 -0.69918942 0.014550475 0.99163157
1.9337499 -0.70993161 0.014267387 0.99179387
1.8611327 -0.70994139 0.013796157 0.9920637
1.7931445 -0.70992184 0.013356972 0.99231523
1.7292968 -0.70993161 0.012947578 0.99255031
1.6127148 -0.70994139 0.012203979 0.99297637
1.4152539 -0.70994139 0.010966492 0.9936865
1.3719727 -0.70993161 0.010699119 0.9938398
1.2914063 -0.70993161 0.010206756 0.99412251
1.2779492 -0.72360349 0.010171623 0.99414271
1.2780077 -0.745 0.010245666 0.99410015
1.2780468 -0.76670897 0.010322418 0.99405605
1.2782227 -0.83388668 0.010570182 0.99391371
1.2784765 -0.92885739 0.010945091 0.99369866
10.969746 -8.3991013 0.095689811 0.94623429
10.408926 -8.39291 0.092608564 0.94791949
9.8827925 -8.3870993 0.089775048 0.94947207
9.6315231 -8.3843164 0.088440932 0.95020294
8.0573044 -8.3669338 0.08045017 0.95459878
7.855 -8.3646679 0.07947544 0.95513755
7.4645896 -8.3603611 0.077625312 0.95615768
6.9112887 -8.3542576 0.075094834 0.95755607
6.7346873 -8.3523045 0.074311636 0.95798987
6.5617185 -8.3503904 0.073554456 0.95840853
6.3921876 -8.348525 0.07282421 0.95881259
6.2260156 -8.3466892 0.07212051 0.95920259
5.5914063 -8.3396673 0.069541663 0.96063244
5.2904491 -8.3363571 0.068383828 0.96127528
5.1436133 -8.3347263 0.06783554 0.96158016
4.9991794 -8.3331347 0.067305185 0.96187425
4.8568749 -8.331562 0.066793628 0.9621582
4.4424806 -8.3269625 0.06536831 0.96295124
4.3081641 -8.3254976 0.064925306 0.96319693
4.0448241 -8.322588 0.064090118 0.96366203
3.915664 -8.3211517 0.063694686 0.96388185
3.7880273 -8.319746 0.063315086 0.96409357
3.661875 -8.3183689 0.062948532 0.96429724
3.4138865 -8.3156347 0.062259328 0.96468145
3.2918749 -8.3142576 0.061935004 0.96486241
3.0515039 -8.3116016 0.061323471 0.96520275
2.8156836 -8.3090038 0.060762558 0.96551532
2.5839844 -8.3064451 0.060250357 0.9658013
2.2433593 -8.3026657 0.059567031 0.96618259
2.1314843 -8.301445 0.059360731 0.96629733
2.0203321 -8.3002243 0.05916626 0.96640617
1.9098828 -8.2990036 0.058981247 0.9665091
1.8001367 -8.2977829 0.058808479 0.96660626
1.2599218 -8.2918158 0.058088873 0.96700776
1.0471874 -8.289463 0.057869948 0.96713018
0.94140625 -8.2883005 0.057773743 0.96718335
0.52115232 -8.2836523 0.057487067 0.96734416
0.31236327 -8.2813377 0.057397421 0.96739376
0.208125 -8.2801952 0.057367705 0.9674108
0.1040625 -8.2790327 0.057345197 0.9674229
0 -8.2778997 0.057332724 0.96742982
-0.10404297 -8.2767382 0.057330322 0.96743178
-0.62480468 -8.2709961 0.057448193 0.96736532
-0.7293359 -8.2698336 0.057499349 0.96733683
-0.93906248 -8.267519 0.057630345 0.96726429
-1.3619921 -8.2628317 0.058001671 0.96705675
-1.4686718 -8.2616701 0.058118589 0.96699148
-1.5757812 -8.2604885 0.058243256 0.96692091
-1.6833984 -8.2592964 0.058380775 0.96684486
-1.7915235 -8.2580957 0.058526266 0.96676332
-1.9002343 -8.2569141 0.058682669 0.96667606
-2.0094922 -8.2556829 0.058848456 0.96658337
-2.3413477 -8.2520409 0.059410322 0.96627009
-2.4534373 -8.2507906 0.059618376 0.96615386
-2.7947071 -8.2470016 0.060310401 0.96576816
-2.9102929 -8.2457323 0.060563583 0.96562684
-3.1444921 -8.243144 0.061106108 0.96532446
-3.2632031 -8.2418356 0.061394498 0.96516311
-3.383086 -8.2405081 0.061696853 0.96499479
-3.5041797 -8.2391701 0.062012024 0.96481931
-3.6264844 -8.2378025 0.062339246 0.96463674
-4.0016599 -8.2336721 0.063404962 0.96404308
-4.1296482 -8.2322559 0.063789368 0.96382952
-4.2592187 -8.2308302 0.064187661 0.96360761
-4.5233984 -8.2279005 0.065031283 0.96313834
-4.6581249 -8.2264156 0.065476261 0.96289045
-4.9333591 -8.2233686 0.066417694 0.96236682
-5.0740232 -8.2218161 0.066914439 0.96209043
-5.6589842 -8.2153616 0.069092825 0.96088159
-5.811367 -8.2136717 0.069687575 0.96055168
-5.9664063 -8.2119532 0.070302732 0.96020997
-6.124248 -8.2102346 0.070941545 0.95985591
-6.2849803 -8.2084274 0.071602479 0.95948946
-6.4487696 -8.2066402 0.072288439 0.95910966
-6.6157422 -8.2047749 0.072998233 0.95871633
-6.7860937 -8.2028999 0.073735923 0.95830876
-7.3187695 -8.1970119 0.076109461 0.95699555
-7.5041013 -8.1949606 0.07696037 0.95652562
-7.8877149 -8.190732 0.07875713 0.95553309
-8.7126169 -8.1816015 0.082780108 0.95331603
-8.9323635 -8.1791992 0.083882369 0.95270801
-1.0458008 -0.93372071 0.0097103119 0.99440765
-1.0457226 -0.9103027 0.009602394 0.99446952
-1.0456641 -0.88739258 0.0094987489 0.99452907
-1.0455859 -0.86497068 0.0093986895 0.99458659
-1.0455469 -0.84304684 0.009302292 0.9946419
-1.0455078 -0.82154298 0.0092094038 0.99469531
-1.0455078 -0.80048823 0.0091198729 0.99474669
-1.0454882 -0.77983397 0.0090336986 0.99479628
-1.0454687 -0.7595703 0.0089502716 0.99484414
-1.0454491 -0.73966795 0.0088699721 0.99489039
-1.0589062 -0.70993161 0.008829765 0.9949134
-1.1503906 -0.70994139 0.0093627926 0.99460721
-1.1834179 -0.70994139 0.0095581813 0.99449492
-1.2913672 -0.70994139 0.010206642 0.99412262
-1.3719531 -0.70993161 0.01069931 0.99383992
-1.5087304 -0.70992184 0.011548461 0.99335241
-1.5592773 -0.70993161 0.011866226 0.99317014
-1.769043 -0.72624022 0.013244476 0.99237972
-1.7690234 -0.70039064 0.013177604 0.99241817
-1.7690625 -0.64948243 0.013052215 0.99249011
-22.836933 8.0601072 0.10063812 0.90767294
-1.7698828 0.64979494 0.0078349682 0.99248672
-1.7698828 0.67514646 0.0078718951 0.99245143
-1.6692969 0.70995116 0.0075382995 0.9927702
-1.6127343 0.70996094 0.0073225782 0.99297637
-1.4608008 0.70997071 0.00674942 0.99352425
-1.4152734 0.70997071 0.0065797423 0.9936865
-1.2537891 0.70995116 0.0059876251 0.99425316
-1.2178711 0.70994139 0.0058580018 0.99437708
-1.0589062 0.70997071 0.0052978513 0.9949134
-1.0447265 0.71964842 0.0052717971 0.99493843
-1.0447656 0.75906247 0.0053665158 0.99484766
-1.0447656 0.77933592 0.005416641 0.99479985
-1.0448047 0.79997069 0.0054684067 0.9947502
-1.0448047 0.82100582 0.0055217743 0.99469894
-1.0448047 0.84245116 0.0055772015 0.99464577
-1.0448047 0.86434567 0.0056349942 0.9945907
-1.0448437 0.90954101 0.0057567214 0.99447423
-1.0448828 0.93291014 0.0058207703 0.9944126
-8.4134083 7.900732 0.047961578 0.95488292
-8.2018948 7.8983984 0.047317579 0.95547467
-7.9959373 7.8961229 0.046699867 0.9560445
-6.3521385 7.8779688 0.042053755 0.96032846
-5.8723731 7.8726659 0.040813636 0.96147501
-5.5676169 7.8692966 0.040058784 0.96217471
-5.4194336 7.8676562 0.039701842 0.96250641
-4.9899411 7.8629198 0.038699072 0.96343446
-4.5810547 7.8583884 0.037799377 0.96426898
-4.4488478 7.8569336 0.037520219 0.9645279
-4.190156 7.8540721 0.036991768 0.96501857
-4.0634766 7.8526659 0.036741942 0.96525091
-3.8151171 7.8499217 0.036270406 0.96569043
-3.5728905 7.8472557 0.035830613 0.96609831
-3.4539452 7.8459277 0.035624046 0.96629083
-3.3362889 7.8446288 0.03542389 0.96647608
-3.2199805 7.8433495 0.035233114 0.966654
-3.1048827 7.8420801 0.035050161 0.96682501
-2.9909766 7.8408203 0.034872741 0.96698916
-2.8782032 7.83957 0.034704514 0.96714664
-2.7664843 7.8383493 0.034541473 0.96729749
-2.2222266 7.832334 0.033832245 0.96795833
-2.0104101 7.8299704 0.033593178 0.96818113
-1.9056054 7.8288279 0.033482321 0.96828395
-1.6978515 7.8265328 0.033279724 0.96847308
-1.5949414 7.8253903 0.033187713 0.9685595
-1.1883984 7.8209081 0.032872617 0.9688524
-1.0878711 7.8197851 0.032808684 0.96891284
-0.88794923 7.8175778 0.03269615 0.9690184
-0.78845704 7.816494 0.032646485 0.9690637
-0.6892578 7.8153806 0.032603148 0.96910423
-0.59031248 7.8143063 0.032565039 0.96913964
-0.39304686 7.812119 0.03250454 0.96919614
-0.098144531 7.8088574 0.032452505 0.96924472
0.19621094 7.8056054 0.03244663 0.96925014
0.49087891 7.8023534 0.03248699 0.96921247
0.58929688 7.80125 0.032510679 0.96919042
0.88566405 7.7979784 0.032612801 0.96909493
0.98496091 7.7968946 0.032658193 0.96905327
1.2845898 7.7935839 0.032823563 0.96889865
1.3852344 7.7924805 0.032889288 0.96883702
1.4862499 7.791357 0.032961424 0.96877038
1.5877343 7.7902145 0.033038329 0.96869862
1.6897265 7.7890916 0.033121604 0.96862149
1.8953515 7.7868357 0.033304062 0.96845138
2.2083204 7.7833786 0.033620682 0.96815544
2.3140235 7.782207 0.03373909 0.96804559
2.4205077 7.7810349 0.033863295 0.9679299
2.5277929 7.7798338 0.033993147 0.96780849
2.7449219 7.777451 0.034273338 0.96754748
2.8549023 7.7762303 0.034423333 0.96740776
3.0778124 7.7737594 0.034743652 0.96710926
3.3050585 7.7712598 0.035093077 0.96678436
3.5370703 7.7686911 0.035471801 0.96643203
3.7742968 7.7660742 0.035882529 0.96605074
3.8950391 7.7647262 0.036098823 0.96584886
4.6530662 7.7563572 0.037587319 0.96446633
4.7857423 7.7548923 0.037868042 0.96420515
5.3375001 7.7487988 0.039099503 0.96306241
5.4812107 7.7472067 0.039436951 0.96275055
6.4005857 7.7370605 0.041727256 0.96063006
6.902988 7.731504 0.043071557 0.95938843
7.2566404 7.7275977 0.044051092 0.95848334
7.4396091 7.7255664 0.044570122 0.95800567
7.8189063 7.7213769 0.045664176 0.95699626
8.0157423 7.7191992 0.04624458 0.95646274
8.2176361 7.7169724 0.046844292 0.95590907
8.4248829 7.7146773 0.047471352 0.95533413
9.7983007 7.699502 0.051784474 0.95137548
1.2767968 0.87951171 0.0064428328 0.99381751
1.2767578 0.76593751 0.0061873244 0.99406213
1.2767578 0.7442773 0.0061413189 0.99410594
1.2767383 0.72293943 0.006096954 0.99414831
1.3307226 0.70994139 0.0062676999 0.99398506
1.3719531 0.70996094 0.0064192959 0.99383992
1.4152734 0.70995116 0.0065798187 0.9936865
1.5592968 0.70995116 0.0071198652 0.99317014
1.7293164 0.70994139 0.0077682114 0.99255031
1.7931249 0.70995116 0.0080143735 0.99231541
1.8611327 0.70996094 0.0082780458 0.99206382
1.9831641 0.69995117 0.0087392423 0.99162298
1.9832031 0.67205077 0.0087015918 0.99165899
16.903202 -5.0262012 0.073267512 0.9318912
1.9831641 -0.69993162 0.0087392805 0.99162298
1.9337499 -0.70993161 0.0085602952 0.99179399
1.8611327 -0.70994139 0.0082774349 0.99206382
1.7292968 -0.70993161 0.0077682114 0.99255043
1.6692969 -0.70995116 0.0075379177 0.9927702
1.6127148 -0.70994139 0.00732254 0.99297649
1.4607812 -0.70994139 0.0067493436 0.99352437
1.2767578 -0.7442773 0.0061413189 0.99410594
1.2767773 -0.76593751 0.0061872099 0.99406207
1.2767578 -0.78793943 0.0062346649 0.99401665
1.2767968 -0.83296871 0.0063350676 0.99392056
1.2768164 -0.85603511 0.0063879392 0.9938699
1.2767968 -0.87948239 0.0064427564 0.99381757
1.2768164 -0.9033789 0.0064997482 0.99376315
10.684766 -8.395957 0.056469306 0.9470951
10.408945 -8.39291 0.055565145 0.9479202
10.141777 -8.3899603 0.054697722 0.94871217
9.387558 -8.3816309 0.052297208 0.95090628
9.1505079 -8.3790131 0.051560096 0.95158201
8.6958199 -8.3739748 0.050167769 0.95285773
8.4774609 -8.371562 0.049510803 0.95346022
7.8550196 -8.3646774 0.047684439 0.95513815
7.6574802 -8.3625002 0.047120284 0.9556576
7.4646091 -8.3603706 0.046573598 0.95615828
7.2760544 -8.3582811 0.046048965 0.95664132
7.0916796 -8.3562498 0.045544889 0.95710719
6.9112887 -8.3542576 0.045058209 0.95755672
6.7346678 -8.3523045 0.044587094 0.95799053
6.3922067 -8.348525 0.043694191 0.95881319
6.2260156 -8.3466988 0.043272514 0.95920318
6.0629296 -8.3448925 0.042863309 0.95957983
5.9029298 -8.3431053 0.042470321 0.95994329
5.7457809 -8.3413763 0.04209049 0.96029425
4.8568945 -8.331562 0.040075988 0.96215874
4.7167773 -8.330019 0.03978058 0.96243256
4.5786524 -8.328496 0.039494209 0.96269685
4.4424806 -8.326972 0.039219245 0.96295178
4.3081641 -8.3255072 0.038954198 0.96319747
4.1756248 -8.3240328 0.038699608 0.9634344
3.915664 -8.3211622 0.038216781 0.96388239
3.6618946 -8.3183784 0.037769165 0.96429771
3.5372069 -8.3169823 0.037557565 0.96449369
3.1710546 -8.3129396 0.036972158 0.96503663
3.0514843 -8.3116016 0.036794089 0.96520329
2.9330468 -8.3103027 0.036620978 0.96536291
2.8156836 -8.3090038 0.036457404 0.96551585
2.6993554 -8.3077345 0.036299895 0.965662
2.3560545 -8.3039351 0.035870627 0.96606213
2.1314452 -8.301465 0.035617445 0.96629781
2.0203125 -8.3002243 0.035498846 0.96640664
1.9098828 -8.2990036 0.035389557 0.96650964
1.8001367 -8.2977829 0.035284575 0.9666068
1.6909765 -8.2965918 0.035185583 0.96669817
1.4744335 -8.2941694 0.035007704 0.96686435
1.3669531 -8.2929878 0.034927633 0.96693903
1.2599218 -8.2918158 0.034852408 0.96700823
1.1533593 -8.2906342 0.034783896 0.96707213
0.94140625 -8.2883005 0.034664117 0.96718389
0.83591795 -8.2871189 0.034612656 0.96723193
0.73076171 -8.2859669 0.034566648 0.96727467
0.52115232 -8.2836523 0.034491614 0.9673447
0.208125 -8.2801952 0.034419898 0.96741128
0.10402343 -8.2790527 0.03440712 0.96742332
-0.10404297 -8.2767382 0.034396552 0.96743226
-0.20804687 -8.2755861 0.034400862 0.96742916
-0.31210938 -8.2744627 0.034409713 0.96742082
-0.41623047 -8.2733107 0.034422949 0.96740758
-0.52046871 -8.2721386 0.034443624 0.96738929
-0.729375 -8.2698336 0.034499586 0.96733731
-0.83410156 -8.2686815 0.034535866 0.96730363
-0.93906248 -8.267519 0.034577712 0.96726477
-1.2557226 -8.2640228 0.034735832 0.96711695
-1.3619921 -8.2628317 0.034800377 0.96705723
-1.5757812 -8.2604885 0.034945678 0.96692139
-1.6833984 -8.2592964 0.035028763 0.96684533
-1.7915235 -8.2580957 0.0351157 0.96676379
-1.9002343 -8.2569141 0.035208818 0.96667659
-2.1194336 -8.2544622 0.035415418 0.96648532
-2.5663476 -8.2495308 0.035902482 0.96603203
-2.680078 -8.248271 0.036040496 0.96590352
-3.1444921 -8.243144 0.036662977 0.965325
-3.5041602 -8.2391701 0.037207566 0.96481991
-3.8751757 -8.2350683 0.037821501 0.96424925
-4.1296482 -8.2322655 0.038272858 0.96382999
-4.3904295 -8.2293749 0.038761292 0.96337789
-4.9333591 -8.2233791 0.039850499 0.96236736
-5.8113575 -8.2136908 0.041811485 0.96055222
-6.124238 -8.2102346 0.042564619 0.95985657
-6.2849708 -8.208437 0.042961311 0.95949006
-6.4487596 -8.2066307 0.043373372 0.95911032
-6.7861032 -8.2029104 0.044240721 0.95830929
-6.9599218 -8.2009859 0.044698525 0.95788711
-7.1374216 -8.1990232 0.045172002 0.95744962
-7.5041208 -8.1949701 0.046175383 0.95652622
-7.8876953 -8.1907415 0.047254372 0.9555338
-8.2899017 -8.1862984 0.04841423 0.95446616
-8.7126169 -8.1816311 0.049667016 0.95331663
-1.0448437 -0.93288082 0.0058206939 0.99441284
-1.0448437 -0.90954101 0.005756645 0.99447423
-1.0448437 -0.8866992 0.0056947707 0.99453342
-1.0448047 -0.84246093 0.0055774306 0.99464577
-1.0447851 -0.82097656 0.0055218884 0.99469906
-1.0447656 -0.77930665 0.0054164887 0.99479991
-1.0447656 -0.75907224 0.0053664776 0.99484766
-1.0447656 -0.73916012 0.0053182221 0.99489385
-1.1187109 -0.70995116 0.0055058668 0.99471408
-1.1834179 -0.70994139 0.0057348632 0.99449503
-1.2537891 -0.70994139 0.0059876251 0.99425322
-1.2914063 -0.70996094 0.0061242292 0.99412251
-1.3307421 -0.70994139 0.0062678144 0.993985
-1.4152734 -0.70994139 0.0065799332 0.99368656
-1.5087304 -0.70992184 0.0069290921 0.99335247
-1.6127148 -0.70995116 0.0073224255 0.99297643
-1.7698437 -0.72658199 0.0079505155 0.99237639
-1.7698828 -0.70074219 0.0079103466 0.99241465
-1.7698828 -0.64979494 0.0078349682 0.99248672
-22.836905 8.0601168 0.033544615 0.90767372
-1.7707226 0.70110351 0.0026380157 0.99241108
-1.7707031 0.72696286 0.0026514817 0.99237275
-1.6127343 0.70996094 0.002440834 0.99297643
-1.50875 0.70995116 0.0023096846 0.99335241
-1.4152734 0.70997071 0.0021933746 0.99368656
-1.3719921 0.70995116 0.0021397781 0.99383986
-1.3307421 0.70995116 0.0020892334 0.99398506
-1.2914063 0.70997071 0.002041359 0.99412256
-1.2537891 0.70995116 0.0019958497 0.99425322
-1.2178711 0.70994139 0.0019525909 0.99437708
-1.1834375 0.70995116 0.0019116591 0.99449497
-1.1503906 0.70996094 0.0018725204 0.99460727
-1.0589062 0.70997071 0.001765976 0.9949134
-1.0440625 0.75853515 0.0017876434 0.99485123
-1.0440625 0.79940426 0.0018214035 0.99475396
-1.0440625 0.84186524 0.0018578338 0.99464959
-1.0440625 0.88607419 0.00189682 0.99453747
-8.4134083 7.900732 0.015986672 0.95488328
-8.2018948 7.8984079 0.01577301 0.95547503
-7.9959764 7.8961229 0.015566673 0.95604473
-7.7952929 7.8939257 0.015367698 0.95659351
-7.5996776 7.891748 0.015175667 0.95712221
-7.2225289 7.8875875 0.014815025 0.95812285
-6.8627734 7.8836131 0.014478416 0.95905298
-6.1890039 7.8761621 0.013875046 0.96072459
-4.9899411 7.8629198 0.012899093 0.9634347
-4.7152343 7.8598728 0.012696838 0.96400088
-4.3185935 7.8555079 0.012416077 0.96477789
-3.9384766 7.8512888 0.012167472 0.96547502
-3.5728905 7.8472557 0.011943932 0.96609855
-3.336328 7.8446383 0.011808814 0.9664762
-3.1049218 7.8420801 0.011682396 0.96682519
-2.9909766 7.8408203 0.011624451 0.9669894
-2.8782032 7.83957 0.011567116 0.96714687
-2.7664843 7.8383493 0.011514129 0.96729773
-2.6557813 7.8371191 0.011461486 0.96744227
-2.5460742 7.8359079 0.011413231 0.96758044
-2.3293359 7.8335056 0.01132038 0.96783853
-2.2222655 7.8323436 0.011277809 0.96795851
-2.115957 7.8311424 0.011237411 0.96807289
-2.0104101 7.8299704 0.01119709 0.96818137
-1.9056054 7.8288279 0.011160851 0.96828419
-1.8014063 7.8276658 0.011125641 0.96838152
-1.289336 7.8220115 0.010980224 0.96878719
-1.0878711 7.8197851 0.010935783 0.96891302
-0.98773438 7.8187008 0.010916863 0.96896827
-0.88794923 7.8175778 0.010898895 0.96901864
-0.6892578 7.8153806 0.010868034 0.96910447
-0.49158201 7.8132029 0.01084343 0.96917057
-0.29462889 7.8110352 0.01082756 0.96921736
-0.098164059 7.8088474 0.010817757 0.96924496
0.098066404 7.8066893 0.010814858 0.96925336
0.19621094 7.8056054 0.010815009 0.96925038
0.29435545 7.8045115 0.010817681 0.96924263
0.39253905 7.8034372 0.010823097 0.96923012
0.49087891 7.8023534 0.010829315 0.96921271
0.58929688 7.8012695 0.010837211 0.9691906
1.1843749 7.7946873 0.010921593 0.96895546
1.2845898 7.7935839 0.010940628 0.96889889
1.3852344 7.7924805 0.010963325 0.96883726
1.4862499 7.791357 0.0109869 0.96877062
1.5877343 7.7902145 0.011012306 0.96869886
1.7922655 7.7879782 0.011069451 0.9685393
1.9989843 7.7856836 0.011134071 0.96835852
2.1033204 7.7845311 0.011170692 0.96825987
2.2083204 7.7833786 0.01120636 0.96815568
2.4205077 7.7810349 0.011287689 0.96793014
2.5277929 7.7798338 0.011332321 0.96780872
2.6358984 7.7786522 0.011375999 0.96768123
2.7449219 7.777451 0.011424866 0.96754771
2.9658594 7.7750096 0.011526947 0.96726191
3.1908984 7.7725291 0.011638145 0.96695036
3.3050585 7.7712598 0.011698074 0.96678466
3.5370703 7.7686911 0.011823349 0.96643227
3.7742968 7.7660742 0.011961746 0.96605098
3.895 7.7647457 0.012032394 0.9658491
4.0172267 7.7633786 0.012107658 0.96563947
4.140996 7.7620115 0.012186775 0.9654218
4.2664061 7.7606249 0.012267761 0.96519589
4.7857423 7.7548923 0.012622871 0.96420538
5.1962109 7.750361 0.012924881 0.96336371
5.3375001 7.7487988 0.013033028 0.9630627
5.4812107 7.7472067 0.013146286 0.96275085
5.6274414 7.7455859 0.013262138 0.96242785
5.7763085 7.7439451 0.013382224 0.96209323
6.2399216 7.7388282 0.013769188 0.9610157
6.4005857 7.7370605 0.013909454 0.96063036
6.5645313 7.7352343 0.014053268 0.96023118
6.7319531 7.7333789 0.014201012 0.95981753
6.9030075 7.7314939 0.014356651 0.95938873
7.0778122 7.7295604 0.014517708 0.95894444
7.4396091 7.7255664 0.014855537 0.95800596
7.8189063 7.7213769 0.015220146 0.95699656
8.0157423 7.7191992 0.015414314 0.9564631
8.2176361 7.7169724 0.015614319 0.95590937
8.4248829 7.7146773 0.015823325 0.95533442
8.6377735 7.7123241 0.016038932 0.95473725
8.8566208 7.7099218 0.01626583 0.95411658
9.0817575 7.7074118 0.016499978 0.95347142
9.7983007 7.699502 0.017262001 0.95137584
10.052187 7.6966891 0.017536622 0.95061928
1.2759765 0.95177734 0.0022047805 0.99365282
1.2759374 0.92703122 0.0021846772 0.99371123
1.2759374 0.85547853 0.0021278381 0.99387407
1.2759374 0.74380857 0.0020457839 0.99410975
1.2759179 0.72249019 0.0020310592 0.99415207
1.4607812 0.70995116 0.0022497938 0.99352437
1.5087304 0.70996094 0.0023096846 0.99335247
1.6126952 0.70996094 0.002440834 0.99297655
1.6692969 0.70997071 0.002512703 0.99277025
1.7931249 0.70995116 0.002671585 0.99231547
1.9337499 0.70995116 0.0028535842 0.99179405
1.9851953 0.70066404 0.0029161454 0.99161446
1.9852344 0.67273438 0.0029036712 0.99165058
17.023438 -4.8299704 0.024509812 0.93166542
16.89994 -5.0252538 0.024422798 0.93190438
1.9852344 -0.6727246 0.0029034424 0.99165058
1.8611327 -0.70994139 0.002759018 0.99206388
1.7931445 -0.70992184 0.0026712418 0.99231541
1.5592577 -0.70994139 0.0023732376 0.99317032
1.4607812 -0.70994139 0.002249832 0.99352443
1.4152539 -0.70994139 0.0021932982 0.99368668
1.3719727 -0.70993161 0.0021397781 0.99383998
1.2759374 -0.74379879 0.0020457075 0.99410981
1.2759374 -0.76545894 0.0020609663 0.99406594
1.2759374 -0.7874316 0.002076912 0.99402052
1.2759374 -0.80973631 0.0020932769 0.99397349
