# .PCD v0.7 - Point Cloud Data file format
VERSION 0.7
FIELDS x y z intensity
SIZE 4 4 4 4
TYPE F F F F
COUNT 1 1 1 1
WIDTH 1081
HEIGHT 1
VIEWPOINT 0 0 0 1 0 0 0
POINTS 1081
DATA ascii
1.8611132 -0.70996094 -0.057958983 0.9920606
1.7293164 -0.70994139 -0.054392889 0.99254727
1.5592773 -0.70994139 -0.049851798 0.9931674
1.5087304 -0.70992184 -0.048516616 0.99334973
1.3719531 -0.70994139 -0.04494831 0.99383742
1.3307421 -0.70994139 -0.043885764 0.99398255
1.2668359 -0.8039453 -0.043657415 0.99401385
1.2666211 -0.87248045 -0.044752274 0.99386418
1.2665429 -0.89609373 -0.045143623 0.99381065
1.2664844 -0.92013669 -0.04554943 0.9937551
1.2663672 -0.94460934 -0.045969695 0.99369782
10.845098 -8.3036623 -0.39743307 0.94680804
10.729589 -8.4311228 -0.39705169 0.94685781
10.452578 -8.4280567 -0.39069122 0.94768667
9.9242182 -8.422246 -0.37873629 0.94924599
9.4269142 -8.416748 -0.36771742 0.95068574
8.9574604 -8.411582 -0.35753864 0.95201725
8.5129881 -8.4066601 -0.34812444 0.95325083
8.2993946 -8.4042873 -0.34367958 0.95383358
7.6895895 -8.3975487 -0.33131066 0.95545787
7.4958591 -8.3954201 -0.32748199 0.95596081
7.3065233 -8.3933201 -0.32379422 0.95644599
7.1214061 -8.3912697 -0.32023749 0.95691389
6.9402537 -8.3892574 -0.31680742 0.95736545
6.7628903 -8.3873043 -0.31349811 0.95780116
6.25207 -8.38167 -0.30425793 0.95901924
6.0883594 -8.3798437 -0.30139035 0.95939744
5.9276562 -8.3780756 -0.29862446 0.95976251
5.7698436 -8.3763275 -0.29595396 0.96011508
5.6148438 -8.3746185 -0.29337689 0.9604553
5.3125978 -8.3712893 -0.28849006 0.961101
5.0200977 -8.3680563 -0.28394106 0.96170264
4.5978317 -8.3633881 -0.27770171 0.96252829
4.1931639 -8.3588963 -0.27210698 0.96326905
4.0618162 -8.3574514 -0.27037618 0.96349823
3.9320507 -8.3560152 -0.26871055 0.96371913
3.8039062 -8.3546095 -0.26710746 0.96393168
3.6772656 -8.3531933 -0.26556283 0.9641363
3.184375 -8.347744 -0.25996846 0.9648785
3.0642967 -8.3464451 -0.25870749 0.96504575
2.9453709 -8.3451271 -0.25750026 0.96520615
2.8274999 -8.3438282 -0.25634238 0.96535969
2.5948436 -8.3412495 -0.25417948 0.96564698
2.3659375 -8.3387299 -0.25220981 0.96590847
2.028789 -8.3350096 -0.24960518 0.96625453
1.2652344 -8.3265429 -0.24506018 0.96685886
1.1582421 -8.3253803 -0.2445783 0.96692294
0.62847656 -8.3195114 -0.24276382 0.96716422
0.41843748 -8.3171968 -0.24231395 0.96722418
0.31367186 -8.3160353 -0.24214494 0.96724653
0.20902343 -8.3148823 -0.24201635 0.9672637
-0.31341797 -8.3091116 -0.2419432 0.96727335
-0.62742186 -8.3056345 -0.24235992 0.96721804
-0.94296873 -8.3021679 -0.24312299 0.96711648
-1.0486718 -8.3009663 -0.24345411 0.96707237
-1.1546484 -8.2998238 -0.24382764 0.96702278
-1.2609766 -8.2986326 -0.24423887 0.96696812
-1.4748046 -8.296279 -0.24518296 0.96684253
-1.5823828 -8.2950783 -0.24571566 0.96677166
-1.6904297 -8.2938862 -0.24629052 0.96669531
-2.2393358 -8.2878323 -0.24979994 0.96622878
-2.4636912 -8.2853613 -0.25151184 0.96600115
-2.6912889 -8.2828417 -0.25341037 0.96574914
-2.9224803 -8.2802925 -0.25549906 0.96547174
-3.0395312 -8.2789936 -0.25661752 0.96532327
-3.1576562 -8.2776756 -0.25778654 0.96516812
-3.3972461 -8.2750292 -0.26028115 0.96483696
-3.6416404 -8.2723236 -0.26299393 0.9644773
-4.1469336 -8.2667379 -0.26910761 0.96366656
-4.4088087 -8.2638569 -0.2725347 0.96321237
-4.6776366 -8.2608881 -0.27622667 0.96272331
-4.8148437 -8.2593842 -0.27817848 0.96246505
-5.2386327 -8.2546873 -0.28447294 0.96163225
-5.3842578 -8.2530756 -0.28672647 0.96133423
-5.5322657 -8.2514448 -0.28906301 0.96102542
-5.6826954 -8.2497749 -0.2914829 0.96070558
-5.9913864 -8.2463675 -0.29659104 0.96003103
-6.1498632 -8.2446089 -0.29928347 0.95967561
-6.3112888 -8.2428322 -0.302073 0.95930731
-6.475781 -8.241025 -0.30496481 0.95892584
-6.8145313 -8.2372751 -0.31106722 0.95812136
-6.9890623 -8.2353516 -0.31428617 0.95769733
-7.1673045 -8.2333784 -0.31762317 0.95725793
-7.5355468 -8.2293262 -0.32467178 0.95633036
-7.920742 -8.2250586 -0.33225557 0.95533359
-8.1202345 -8.2228518 -0.33626246 0.95480734
-8.7491016 -8.2158985 -0.34922498 0.95310682
-1.0359961 -0.83534175 -0.038722686 0.99468863
-1.0360937 -0.81413084 -0.03834011 0.9947409
-1.0361524 -0.7933203 -0.037970923 0.99479151
-1.0362695 -0.75290036 -0.037270773 0.99488735
-1.0363476 -0.73323238 -0.036938779 0.99493271
-1.0364063 -0.71388668 -0.036618348 0.99497658
-1.1503906 -0.70994139 -0.039334182 0.99460506
-1.2178515 -0.70994139 -0.041017644 0.99437481
-1.253828 -0.70995116 -0.041924477 0.99425066
-1.2913867 -0.70995116 -0.042879563 0.99412018
-1.3719531 -0.70994139 -0.0449485 0.99383742
-1.4152734 -0.70995116 -0.046070863 0.99368393
-1.4607812 -0.70995116 -0.047258336 0.99352169
-1.5087109 -0.70993161 -0.048516616 0.99334979
-1.5592968 -0.70994139 -0.049851835 0.99316734
-1.6126952 -0.70994139 -0.051271018 0.99297363
-1.6692969 -0.70995116 -0.052781753 0.99276721
-1.7292968 -0.70994139 -0.054393232 0.99254733
-1.7801172 -0.70479488 -0.055708159 0.9923678
-1.7800781 -0.67901367 -0.055435292 0.992405
-13.022236 -4.4128318 -0.40007311 0.9464646
-13.076845 -4.2489061 -0.40007898 0.94646388
-14.492734 -4.1119628 -0.4383415 0.94149655
-15.929951 -4.090117 -0.47854769 0.93630457
-16.758623 -4.0791111 -0.50186384 0.93330723
-16.958897 -3.4564941 -0.50359803 0.93308449
-17.077549 -2.8149023 -0.50361055 0.93308288
-17.171797 -2.1692967 -0.50362027 0.93308181
-17.197842 -1.9533594 -0.50362295 0.93308127
-17.221094 -1.7370898 -0.50362527 0.93308103
-17.259443 -1.303789 -0.50362909 0.93308055
-17.286835 -0.8696484 -0.50363159 0.93308026
-17.296396 -0.65235353 -0.50363249 0.93308026
-17.303232 -0.43494141 -0.50363296 0.93308026
-15.777461 0.79374021 -0.50346261 0.93873531
-15.736181 1.3878125 -0.50345743 0.93873584
-15.717422 1.5854394 -0.50345516 0.93873614
-15.696152 1.7828027 -0.50345254 0.93873656
-15.646211 2.1766601 -0.50344658 0.93873727
-15.61751 2.373086 -0.50344324 0.93873769
-15.552685 2.7647655 -0.50343561 0.93873864
-15.437099 3.3489256 -0.5034222 0.93873996
-14.576611 3.9385448 -0.48121658 0.94136155
-13.847314 3.9288476 -0.45873213 0.94402295
-13.193183 3.9230664 -0.43866205 0.94640529
-12.600478 3.9198046 -0.42055809 0.94855911
-12.05458 3.9167967 -0.40395132 0.95053953
-11.828671 4.1748438 -0.39977065 0.9510386
-1.7808789 0.65381837 -0.060461119 0.99243647
-1.7809765 0.70514649 -0.061046638 0.99236345
-1.7292968 0.70995116 -0.059576873 0.99254668
-1.6693358 0.70996094 -0.057812043 0.99276644
-1.6127343 0.70997071 -0.056157265 0.99297285
-1.5592968 0.70996094 -0.054602735 0.99316669
-1.4608203 0.70996094 -0.051762123 0.99352098
-1.4152734 0.70996094 -0.050461311 0.99368334
-1.3719531 0.70996094 -0.049232025 0.99383688
-1.3307421 0.70997071 -0.048068427 0.99398196
-1.2178515 0.70996094 -0.044926565 0.99437428
-1.1504296 0.70995116 -0.043082807 0.99460441
-1.1186913 0.70997071 -0.042226523 0.99471146
-1.0588866 0.70996094 -0.040629998 0.99491096
-1.0357031 0.7134375 -0.040081482 0.9949795
-1.0355078 0.77240235 -0.041171111 0.9948433
-1.0354687 0.79280269 -0.041561011 0.99479449
-1.0353711 0.81357419 -0.041964795 0.99474406
-1.0352734 0.83477539 -0.042383347 0.99469185
-1.035078 0.87844723 -0.043266486 0.99458158
-1.0349219 0.92401367 -0.044215582 0.99446297
-7.9604297 7.8610449 -0.35654944 0.95621407
-7.7606249 7.8588476 -0.35199896 0.95676082
-7.5658789 7.856699 -0.34761542 0.95728749
-7.1904688 7.8525391 -0.33932719 0.9582842
-7.0092969 7.8505468 -0.3354077 0.95875603
-5.8462501 7.8377051 -0.31162113 0.96162409
-5.5428905 7.8343453 -0.30585116 0.9623211
-5.3953123 7.832705 -0.30311602 0.96265167
-4.6942382 7.8249607 -0.29081172 0.96414018
-4.2993751 7.8205957 -0.28442088 0.96491426
-4.1715236 7.8191891 -0.28244045 0.96515417
-4.0453906 7.8178024 -0.28053203 0.96538556
-3.9209764 7.8164258 -0.27869225 0.96560854
-3.798125 7.8150487 -0.27692056 0.96582359
-3.2056444 7.8085251 -0.26900953 0.96678334
-3.0910742 7.8072653 -0.26760769 0.96695364
-2.9776757 7.8059859 -0.26626006 0.96711725
-2.865371 7.8047462 -0.2649695 0.96727413
-2.6439452 7.8022947 -0.26254612 0.96756846
-2.5346875 7.8011131 -0.26141176 0.96770608
-2.4263866 7.7998924 -0.26033118 0.96783769
-2.1065428 7.7963767 -0.25737765 0.96819651
-2.0014648 7.7952147 -0.25648853 0.96830457
-1.6903125 7.7917676 -0.25409672 0.9685955
-1.3845313 7.7883887 -0.25210494 0.9688378
-1.0830078 7.7850585 -0.25049701 0.96903354
-0.78492188 7.7817578 -0.2492613 0.96918392
-0.68617189 7.7806735 -0.24893083 0.96922415
-0.489375 7.7784958 -0.24838798 0.96929008
-0.39124998 7.7774215 -0.24817707 0.96931577
-0.19544922 7.7752538 -0.24787346 0.96935278
0.097695313 7.7720213 -0.24771057 0.96937251
0.19535156 7.770947 -0.24773423 0.96936953
0.29306641 7.7698531 -0.24779895 0.96936184
0.39083984 7.7687793 -0.2479009 0.96934932
0.48871094 7.767695 -0.24804309 0.9693321
0.58669919 7.7666016 -0.24822471 0.96931005
0.78320312 7.7644434 -0.24870579 0.96925145
0.88177735 7.7633495 -0.24900556 0.96921486
0.98060542 7.7622461 -0.24934642 0.96917349
1.079707 7.7611618 -0.24972793 0.96912706
1.3791015 7.7578611 -0.25111702 0.96895808
1.4796484 7.7567477 -0.25166264 0.96889162
1.7842969 7.7533789 -0.25355637 0.96866125
1.886914 7.7522364 -0.25427341 0.96857393
2.0940235 7.7499413 -0.25584549 0.96838289
2.4097655 7.7464743 -0.25854751 0.96805435
2.6242383 7.7441111 -0.26058769 0.96780634
2.7327733 7.7429004 -0.26168129 0.96767336
3.0641406 7.7392383 -0.26527527 0.96723682
3.1767383 7.737988 -0.2665799 0.96707833
3.2904296 7.7367382 -0.26793933 0.96691316
3.4052539 7.7354684 -0.26935744 0.9667412
3.5213671 7.734199 -0.27083182 0.96656215
3.8777342 7.7302341 -0.27561909 0.9659813
3.999414 7.7289062 -0.27734178 0.96577233
4.1226172 7.7275391 -0.27912998 0.96555549
4.2474608 7.726162 -0.28098562 0.96533048
4.7644529 7.7204685 -0.28912926 0.96434379
4.8985353 7.718955 -0.2913563 0.96407425
5.0347071 7.7174511 -0.29366463 0.96379489
5.1730857 7.7159176 -0.29605743 0.96350545
5.4568357 7.7127929 -0.30110392 0.96289486
6.7020311 7.6990232 -0.32531005 0.95997256
6.8723044 7.6971579 -0.32885307 0.95954543
7.5930662 7.689199 -0.34439644 0.95767426
7.7841797 7.6870799 -0.34865656 0.9571622
8.599453 7.6780858 -0.36740661 0.95491117
8.8172846 7.6756639 -0.372563 0.95429307
9.0414057 7.6731639 -0.37792906 0.95365036
9.272109 7.6706543 -0.38351187 0.95298189
9.8996286 7.5797949 -0.39735979 0.95132637
1.2655859 0.91953123 -0.049856529 0.99375892
1.2657812 0.87191403 -0.048984375 0.9938677
1.2658594 0.84872067 -0.048571013 0.99391925
1.2659374 0.82588863 -0.04817215 0.99396914
1.2660937 0.78136718 -0.047415428 0.9940635
1.2662109 0.73815429 -0.046710815 0.99415153
1.266289 0.71703124 -0.046377335 0.99419314
1.2913867 0.70997071 -0.046966016 0.99411964
1.3307421 0.70995116 -0.048068505 0.99398202
1.5087109 0.70995116 -0.053140182 0.99334919
1.5592968 0.70996094 -0.054602623 0.99316669
1.6127343 0.70996094 -0.056157071 0.99297285
1.7931249 0.70996094 -0.061462972 0.99231154
2.0102735 0.68121094 -0.067645341 0.99154145
2.0101953 0.65313476 -0.067360535 0.99157685
11.898945 3.7015526 -0.39714241 0.95135224
12.053574 3.5841796 -0.40076938 0.95091915
12.574101 3.5676172 -0.41655234 0.9490363
15.289687 3.5186815 -0.50001788 0.93914139
15.373008 3.1332812 -0.50000906 0.93914241
15.411055 2.9398241 -0.50000507 0.93914288
15.479843 2.5515819 -0.49999785 0.93914372
15.538906 2.1617479 -0.49999171 0.93914437
15.564726 1.9662988 -0.49998909 0.93914479
15.588163 1.770537 -0.49998668 0.93914497
15.609042 1.5745019 -0.49998459 0.93914551
15.627578 1.3782519 -0.49998271 0.93914557
15.668281 0.78824216 -0.49997887 0.9391461
15.683125 0.39424804 -0.49997765 0.93914616
15.686855 0.19713867 -0.49997741 0.9391461
15.686835 -0.19710937 -0.49997783 0.93914616
15.683125 -0.39421874 -0.49997848 0.93914616
15.677031 -0.59127927 -0.49997935 0.93914574
15.657305 -0.98504883 -0.49998194 0.93914545
15.627675 -1.3782226 -0.49998564 0.93914521
15.609159 -1.5745116 -0.4999879 0.93914503
15.58832 -1.7705468 -0.4999904 0.93914437
15.564843 -1.9662988 -0.49999323 0.93914437
15.510742 -2.3568456 -0.49999964 0.93914348
15.48 -2.5515916 -0.50000328 0.93914312
15.41123 -2.9398339 -0.50001127 0.93914223
15.289961 -3.5187206 -0.50002533 0.93914032
15.039726 -4.4720898 -0.50005406 0.93913692
2.0102735 -0.68123043 -0.067645527 0.99154139
2.0103905 -0.70954102 -0.067943454 0.99150425
1.9337499 -0.70995116 -0.065650217 0.99178988
1.7931249 -0.70993161 -0.061462935 0.9923116
1.7293359 -0.70995116 -0.059576757 0.99254656
1.6692969 -0.70994139 -0.057811584 0.99276662
1.5592773 -0.70994139 -0.054602623 0.9931668
1.5087304 -0.70992184 -0.053140104 0.99334919
1.4152734 -0.70993161 -0.05046108 0.9936834
1.3719531 -0.70994139 -0.049231604 0.99383688
1.3307421 -0.70994139 -0.048068199 0.99398202
1.2663085 -0.71701169 -0.046377294 0.99419314
1.2660937 -0.78132808 -0.047415428 0.99406356
1.2658594 -0.84870118 -0.048570897 0.99391931
1.2655859 -0.91950196 -0.049856644 0.99375898
1.2655078 -0.94395506 -0.050316121 0.99370158
8.9574604 -8.411562 -0.39161304 0.95201331
7.8879294 -8.3997364 -0.36723191 0.95493251
7.4958591 -8.3954 -0.35869184 0.95595723
7.3065429 -8.3933201 -0.35465124 0.95644236
7.1214061 -8.3912697 -0.35075554 0.95691031
6.9402537 -8.3892574 -0.3469986 0.95736194
6.7628903 -8.3873043 -0.34337536 0.95779771
6.5892186 -8.3853998 -0.33987877 0.9582181
6.25207 -8.38167 -0.33325174 0.95901585
6.0883398 -8.3798532 -0.33011231 0.9593941
5.6148438 -8.3746185 -0.32133517 0.96045202
5.462461 -8.3729486 -0.31861249 0.96078056
5.165195 -8.369668 -0.31344745 0.96140391
4.8772459 -8.3664742 -0.30863935 0.96198463
4.7365232 -8.364912 -0.30636203 0.96225977
4.3262696 -8.3603811 -0.30000487 0.96302795
4.1931443 -8.3589163 -0.29803941 0.96326596
4.0617967 -8.3574514 -0.2961438 0.96349525
3.9320507 -8.3560152 -0.29431939 0.96371615
3.8039062 -8.3546095 -0.29256111 0.9639287
3.5520506 -8.3518066 -0.28924611 0.96433014
3.428164 -8.3504686 -0.28768489 0.96451932
3.0642967 -8.3464451 -0.28336284 0.96504283
2.8274999 -8.3438282 -0.28077123 0.96535683
2.7107031 -8.3425293 -0.27956063 0.96550375
2.4799609 -8.3399706 -0.27729797 0.96577811
2.2527733 -8.3374701 -0.27524525 0.96602714
2.1404297 -8.3362112 -0.2742939 0.96614248
1.9178905 -8.3337698 -0.27254024 0.9663552
1.4806249 -8.3289356 -0.26960525 0.9667114
1.1582031 -8.3253613 -0.26788601 0.96692026
0.83947265 -8.3218451 -0.26656419 0.96708071
0.41843748 -8.3171968 -0.26540589 0.9672215
0.31367186 -8.3160353 -0.2652218 0.96724379
0.20902343 -8.3148823 -0.26508006 0.96726096
3.9062499e-05 -8.3125877 -0.26492295 0.96728003
-0.31341797 -8.3091116 -0.26500094 0.96727061
-0.4179492 -8.3079586 -0.26511034 0.96725726
-0.52261716 -8.306797 -0.26526275 0.9672389
-0.73238277 -8.3044825 -0.26569298 0.96718663
-0.83755857 -8.3033104 -0.26597118 0.96715283
-0.94296873 -8.3021679 -0.2662921 0.96711373
-1.0486718 -8.3009663 -0.26665688 0.96706963
-1.3676953 -8.2974701 -0.26800972 0.96690518
-1.6904297 -8.2938862 -0.26976147 0.96669251
-1.7990038 -8.2926855 -0.2704379 0.96661061
-1.908164 -8.2914839 -0.27115762 0.96652305
-2.01791 -8.2902632 -0.27192605 0.96642983
-2.1283007 -8.2890425 -0.2727432 0.96633083
-2.2393358 -8.2878323 -0.27360538 0.96622592
-2.3511329 -8.2865915 -0.27451956 0.96611518
-2.4636912 -8.2853613 -0.27548251 0.96599835
-2.5770507 -8.2840919 -0.27649492 0.96587551
-2.6912889 -8.2828417 -0.27755982 0.96574628
-2.9224803 -8.2802925 -0.27984762 0.96546888
-3.0395312 -8.2789936 -0.28107262 0.96532041
-3.1576562 -8.2776756 -0.28235316 0.9651652
-3.2768555 -8.2763672 -0.28369129 0.96500313
-3.3972461 -8.2750292 -0.28508648 0.96483409
-3.7658398 -8.2709665 -0.28963348 0.96428329
-3.8913867 -8.2695608 -0.29127273 0.96408468
-4.2770309 -8.2653122 -0.29659525 0.96344072
-4.4088087 -8.2638569 -0.29850781 0.96320933
-4.9540038 -8.2578421 -0.30690411 0.9621942
-5.2386327 -8.2546873 -0.31158271 0.96162903
-5.3842578 -8.2530861 -0.31405091 0.96133101
-5.8357029 -8.2480955 -0.3220087 0.96037096
-6.3112693 -8.2428417 -0.33086112 0.95930398
-6.475781 -8.241025 -0.33402854 0.95892245
-6.8145313 -8.2372847 -0.34071258 0.9581179
-7.3494334 -8.2313671 -0.35168281 0.95679885
-7.5355468 -8.2293262 -0.35561362 0.95632678
-7.7259178 -8.2272167 -0.35968938 0.95583737
-7.920742 -8.2250586 -0.36391875 0.95532995
-8.3245897 -8.2205954 -0.37286282 0.95425767
-8.5341597 -8.2182713 -0.37759307 0.95369107
-1.0348047 -0.94754881 -0.044716299 0.9944005
-1.035 -0.90097654 -0.043732412 0.99452341
-1.0351562 -0.8563574 -0.042817153 0.99463785
-1.0352343 -0.83473629 -0.042383078 0.99469203
-1.0353515 -0.81355464 -0.041964795 0.99474418
-1.0354297 -0.7927832 -0.041560937 0.99479461
-1.0354687 -0.77239257 -0.041171111 0.99484348
-1.0355859 -0.75238281 -0.040795136 0.99489033
-1.035625 -0.73272461 -0.040431861 0.99493581
-1.1187109 -0.70994139 -0.04222637 0.99471146
-1.1833984 -0.70993161 -0.043981627 0.99449235
-1.253828 -0.70995116 -0.045919914 0.99425018
-1.2913867 -0.70995116 -0.046966016 0.9941197
-1.3307421 -0.70993161 -0.048068617 0.99398202
-1.3719531 -0.70994139 -0.049231872 0.99383688
-1.4152734 -0.70995116 -0.050461274 0.9936834
-1.5087109 -0.70993161 -0.053140182 0.99334925
-1.5592968 -0.70994139 -0.054602582 0.99316674
-1.6126952 -0.70994139 -0.056157034 0.99297303
-1.6692969 -0.70995116 -0.057811737 0.99276662
-1.7808594 -0.65383786 -0.060461044 0.99243653
-11.83373 -4.1765819 -0.39994121 0.95101821
-13.848115 -4.1177635 -0.46043536 0.94382095
-15.299678 -3.9282811 -0.50341469 0.93874085
-15.347939 -3.7357421 -0.50341988 0.93874043
-15.393779 -3.5426171 -0.50342476 0.93874002
-15.516787 -2.9599903 -0.50343776 0.93873841
-15.552871 -2.7647753 -0.50344151 0.93873799
-15.586523 -2.5691504 -0.50344509 0.93873745
-15.617734 -2.3731055 -0.50344831 0.93873686
-15.646386 -2.1766601 -0.50345129 0.93873662
-15.672558 -1.9798827 -0.50345397 0.93873638
-15.696259 -1.7828027 -0.50345635 0.93873614
-15.717558 -1.5854297 -0.50345856 0.93873566
-15.736308 -1.3878125 -0.50346041 0.93873537
-15.7925 -0.3969824 -0.50346559 0.93873501
-14.527597 0.18257812 -0.50332481 0.94350857
-14.52417 0.36511719 -0.50332421 0.94350851
-14.518389 0.54759765 -0.50332338 0.94350868
-14.487324 1.094414 -0.50331938 0.9435091
-14.472324 1.2763476 -0.50331753 0.94350952
-14.389628 2.0018651 -0.50330758 0.94351059
-14.363291 2.1825097 -0.50330448 0.94351077
-14.334619 2.3628223 -0.50330108 0.94351119
-14.235048 2.9013476 -0.50328952 0.94351244
-14.197353 3.0799901 -0.50328511 0.94351286
-14.115185 3.435703 -0.50327569 0.94351399
-14.024101 3.789248 -0.5032652 0.94351512
-13.847314 3.9288476 -0.49865499 0.94401795
-13.183056 3.9200292 -0.47646868 0.94644052
-12.575244 3.9119627 -0.45624152 0.94865483
-11.524179 3.9052343 -0.42153808 0.95246613
-1.7818359 0.70549804 -0.066391334 0.99235904
-1.6693164 0.70995116 -0.062842943 0.9927659
-1.6127148 0.70996094 -0.061044119 0.99297231
-1.5087109 0.70997071 -0.057764966 0.99334854
-1.4608203 0.70996094 -0.056266591 0.99352038
-1.4152734 0.70996094 -0.054852866 0.9936828
-1.3719531 0.70996094 -0.05351631 0.99383628
-1.3307421 0.70997071 -0.052251548 0.99398142
-1.2913867 0.70996094 -0.051053274 0.99411911
-1.2178515 0.70996094 -0.048836172 0.9943738
-1.1834375 0.70995116 -0.047809258 0.9944917
-1.1186913 0.70997071 -0.045901068 0.99471098
-1.0882226 0.70995116 -0.045013312 0.99481308
-1.0588866 0.70996094 -0.044166069 0.99491048
-1.0349609 0.73225582 -0.043920975 0.99493855
-1.0348828 0.75189453 -0.044315223 0.99489325
-1.0347265 0.7922461 -0.045146599 0.99479771
-1.0346093 0.81302732 -0.045584943 0.99474734
-1.0345312 0.83417964 -0.04603935 0.99469513
-1.0341406 0.92333984 -0.048027992 0.9944666
-8.3759956 7.865654 -0.39805901 0.95505285
-7.9603906 7.8610544 -0.38757813 0.9562102
-7.5658789 7.856699 -0.37786546 0.95728362
-7.3758984 7.8545799 -0.37327781 0.95779127
-7.0092969 7.8505468 -0.36459747 0.95875227
-6.8322654 7.8485742 -0.3604908 0.95920736
-6.4897265 7.8447948 -0.35271099 0.96006978
-6.3239255 7.8429589 -0.3490274 0.96047831
-6.1614842 7.8411717 -0.34547395 0.96087271
-6.0023241 7.8394141 -0.34204718 0.96125329
-5.8462305 7.8376951 -0.33873892 0.96162069
-5.6931248 7.8359962 -0.33554667 0.9619754
-5.542871 7.8343258 -0.33246565 0.96231776
-5.3953123 7.832705 -0.32949468 0.96264827
-5.250371 7.8311033 -0.32662499 0.96296734
-5.1078515 7.8295312 -0.32385695 0.96327549
-4.9677343 7.8279881 -0.32118407 0.96357286
-4.6942186 7.8249607 -0.31611967 0.96413696
-4.5606446 7.8234863 -0.31372064 0.96440428
-4.4290624 7.822031 -0.31140465 0.96466219
-4.2993751 7.8205957 -0.3091729 0.96491104
-4.1715236 7.8191891 -0.30701992 0.96515101
-4.0453906 7.8178024 -0.30494443 0.96538246
-3.9209764 7.8164258 -0.30294541 0.96560544
-3.6768358 7.8137207 -0.29916376 0.96602744
-3.3214843 7.8098044 -0.29400787 0.96660298
-3.2056444 7.8085251 -0.29242012 0.96678036
-2.865371 7.8047462 -0.2880266 0.96727121
-2.6439452 7.8022947 -0.28539321 0.96756548
-2.5347266 7.8010936 -0.28416136 0.96770316
-2.4263866 7.7998924 -0.2829856 0.96783477
-2.2123828 7.7975388 -0.28079298 0.96807981
-2.1065428 7.7963767 -0.2797761 0.96819365
-2.0014648 7.7952147 -0.2788094 0.96830171
-1.8970703 7.7940426 -0.27789313 0.96840429
-1.6903125 7.7917676 -0.27620968 0.96859264
-1.3845313 7.7883887 -0.27404341 0.968835
-1.2835938 7.7872753 -0.27341548 0.96890533
-1.1831055 7.7861619 -0.27283233 0.9689706
-1.0830078 7.7850585 -0.27229664 0.96903074
-0.98333985 7.7839646 -0.27180278 0.96908575
-0.88398433 7.7828512 -0.27135637 0.96913594
-0.78496093 7.7817774 -0.27095246 0.96918106
-0.489375 7.7784958 -0.27000406 0.96928734
-0.39124998 7.7774215 -0.26977473 0.96931297
-0.29330078 7.7763476 -0.2695874 0.96933389
-0.19544922 7.7752538 -0.26944295 0.96935004
-1.953125e-05 7.7731051 -0.26928362 0.96936792
0.39083984 7.7687793 -0.26947373 0.96934658
0.58669919 7.7666016 -0.26982552 0.9693073
0.78320312 7.7644434 -0.27034947 0.96924865
1.2789258 7.7589645 -0.27242199 0.96901661
1.379082 7.7578416 -0.27296862 0.96895534
1.5807031 7.7556152 -0.27420279 0.96881729
1.6822656 7.7544918 -0.27488759 0.96874046
1.7842969 7.7533789 -0.27562222 0.96865839
1.886914 7.7522364 -0.27640158 0.96857107
2.3037889 7.7476363 -0.2800158 0.96816671
2.4097655 7.7464743 -0.28104657 0.96805149
2.6242383 7.7441111 -0.28326443 0.96780342
2.8422265 7.7416797 -0.2856994 0.96753126
2.9526758 7.7404785 -0.2870003 0.96738571
3.1766992 7.737988 -0.28977811 0.96707541
3.2903905 7.7367382 -0.29125682 0.96691024
3.5213671 7.734199 -0.29440013 0.96655911
3.6387498 7.7329001 -0.2960695 0.96637291
3.757539 7.7315817 -0.29780194 0.96617931
4.1226172 7.7275391 -0.30342034 0.96555239
4.2474608 7.726162 -0.30543762 0.96532732
4.5022655 7.72333 -0.30970356 0.96485186
4.6324024 7.7218943 -0.31195557 0.96460086
4.8985548 7.718955 -0.3167116 0.96407098
5.0347266 7.7174511 -0.31922096 0.96379155
5.1730857 7.7159081 -0.32182091 0.96350217
5.3137889 7.7143846 -0.3245151 0.96320206
5.4568357 7.7127829 -0.32730788 0.96289152
5.6024218 7.7111716 -0.33020198 0.96256965
5.7506442 7.7095313 -0.3331998 0.96223629
5.9015818 7.7078805 -0.33630753 0.96189094
6.0553904 7.7061815 -0.33952659 0.96153319
6.2122068 7.704453 -0.34286273 0.96116263
6.5353513 7.7008786 -0.34990337 0.96038109
7.0463672 7.6952243 -0.36146688 0.95909905
7.2243748 7.6932616 -0.36560842 0.95864004
7.5930662 7.689199 -0.37436914 0.95767045
7.9801559 7.6849117 -0.38380489 0.95662677
8.1811523 7.6827145 -0.38879928 0.95607507
8.6542768 7.5336814 -0.3974978 0.95511496
1.2648633 0.89490235 -0.05367687 0.99381775
1.2649219 0.87132812 -0.053211972 0.99387127
1.2651172 0.82536131 -0.052329902 0.99397242
1.2653515 0.75911129 -0.051119383 0.99411148
1.2655078 0.71659178 -0.050381508 0.99419618
1.3719921 0.70996094 -0.053516347 0.99383616
1.4152734 0.70997071 -0.054852523 0.99368274
1.5592968 0.70996094 -0.059354436 0.99316609
1.6127343 0.70995116 -0.061044082 0.99297225
1.7292968 0.70995116 -0.064761199 0.99254602
1.7931249 0.70996094 -0.066811562 0.99231082
1.9337499 0.70995116 -0.071363598 0.9917891
2.0125 0.71029294 -0.073934436 0.9914946
2.0124023 0.68193358 -0.073609926 0.99153173
11.509296 3.5803418 -0.41756645 0.95290291
12.019824 3.5741405 -0.43442461 0.95104879
13.175918 3.5600977 -0.47282532 0.94683886
13.834961 3.552207 -0.49483463 0.94443434
14.027793 3.414453 -0.50015777 0.94385368
14.069472 3.2378709 -0.50015336 0.94385415
14.108945 3.060791 -0.50014919 0.94385457
14.146152 2.8832128 -0.50014526 0.94385511
14.181211 2.7052343 -0.50014156 0.94385535
14.213925 2.5267577 -0.5001381 0.94385594
14.244452 2.3479493 -0.50013489 0.94385636
14.272793 2.1687696 -0.50013196 0.94385648
14.298828 1.9892383 -0.50012928 0.94385684
14.322656 1.8093945 -0.50012684 0.94385701
14.363476 1.4488672 -0.50012273 0.94385749
14.407734 0.90645504 -0.50011837 0.94385803
14.425918 0.54412109 -0.50011677 0.94385821
14.431621 0.36278319 -0.50011629 0.94385821
14.425957 -0.54409176 -0.5001179 0.94385803
14.407773 -0.90645504 -0.50012028 0.94385785
14.395312 -1.0874219 -0.50012189 0.94385761
14.363593 -1.4488574 -0.50012577 0.94385701
14.344257 -1.6292285 -0.50012815 0.94385701
14.244668 -2.3479493 -0.50013989 0.94385552
14.181367 -2.7052343 -0.50014728 0.94385475
14.146367 -2.8832324 -0.50015134 0.94385433
14.028008 -3.414453 -0.50016505 0.9438529
13.938046 -3.765996 -0.50017542 0.94385183
2.0124609 -0.71030271 -0.073934667 0.99149472
1.9337499 -0.70995116 -0.071363635 0.9917891
1.8611132 -0.70996094 -0.069007263 0.99205917
1.7931249 -0.70993161 -0.066811524 0.99231088
1.7293359 -0.70995116 -0.064761393 0.99254584
1.6692969 -0.70995116 -0.062842712 0.99276596
1.6127343 -0.70994139 -0.061043777 0.99297225
1.5592968 -0.70994139 -0.059354208 0.99316609
1.3307421 -0.70994139 -0.052251395 0.99398148
1.2913867 -0.70994139 -0.051052932 0.99411917
1.2655078 -0.71656251 -0.050381508 0.99419624
1.2654296 -0.73766601 -0.050743904 0.99415469
1.2653711 -0.75909179 -0.051119193 0.99411148
1.2652735 -0.78083009 -0.051508483 0.99406683
1.2651953 -0.80291015 -0.051912002 0.99402052
1.2649219 -0.87130857 -0.05321186 0.99387127
1.2647461 -0.91889644 -0.054158438 0.99376255
9.1131048 -6.9775782 -0.39762351 0.95510125
8.8443356 -7.3166404 -0.39765364 0.95509785
8.7519722 -7.4274316 -0.39766401 0.95509648
8.658164 -7.5370016 -0.39767456 0.95509541
8.5629683 -7.6454 -0.3976852 0.95509434
8.4664841 -7.7526364 -0.39769599 0.95509303
8.2694139 -7.9633789 -0.39771804 0.9550907
8.1689453 -8.0668745 -0.39772931 0.95508945
8.0671482 -8.1691694 -0.39774069 0.95508808
7.6895895 -8.3975286 -0.39446238 0.95545024
7.4958982 -8.3954 -0.38990721 0.95595318
7.3065233 -8.393301 -0.38551486 0.95643848
6.9402537 -8.3892574 -0.37719622 0.95735806
6.4189649 -8.3835058 -0.36579123 0.95862037
6.25207 -8.38167 -0.36225456 0.95901215
6.0883789 -8.3798532 -0.35884055 0.95939034
5.9276366 -8.3780756 -0.35554585 0.9597556
5.7698436 -8.376338 -0.35236794 0.9601081
5.6148438 -8.3746185 -0.3492997 0.96044844
5.462461 -8.3729486 -0.34633988 0.96077698
5.165195 -8.369668 -0.34072524 0.96140045
5.0201173 -8.3680563 -0.33806509 0.96169597
4.8772264 -8.3664846 -0.33549756 0.96198118
4.7365232 -8.3649216 -0.33302224 0.96225631
4.5978122 -8.3633986 -0.33063495 0.96252179
4.3262305 -8.3603811 -0.32611319 0.96302468
3.9320703 -8.3560352 -0.3199304 0.96371275
3.5520701 -8.3518162 -0.31441781 0.96432686
3.184375 -8.347744 -0.3095229 0.96487242
3.0642967 -8.3464451 -0.30802044 0.96503967
2.9453709 -8.3451271 -0.30658284 0.96520007
2.4799414 -8.3399897 -0.30142888 0.96577495
2.1404297 -8.3362112 -0.29816443 0.96613944
2.028789 -8.3349905 -0.29718426 0.96624875
1.9178905 -8.3337698 -0.29625818 0.96635216
1.6980859 -8.3313379 -0.29456112 0.96654165
1.5890625 -8.3301172 -0.29378983 0.9666279
1.3726953 -8.327734 -0.29239613 0.96678352
1.2652344 -8.3265429 -0.29177275 0.96685314
1.1582031 -8.3253613 -0.29119778 0.96691728
0.94535154 -8.3230276 -0.29019389 0.96702951
0.73380858 -8.320693 -0.28937724 0.96712071
0.62847656 -8.3195114 -0.28903869 0.9671585
0.52335936 -8.3183594 -0.28874779 0.96719104
0.41843748 -8.3171968 -0.28850189 0.96721852
0.31367186 -8.3160353 -0.28830194 0.96724081
-0.10443359 -8.3114252 -0.28795937 0.96727902
-0.41796875 -8.3079586 -0.28818074 0.96725434
-0.62742186 -8.3056345 -0.28855759 0.96721238
-0.73238277 -8.3044825 -0.28881395 0.96718365
-0.83755857 -8.3033104 -0.2891165 0.96714985
-1.1546484 -8.2998238 -0.29030514 0.96701705
-1.2609766 -8.2986326 -0.29079479 0.9669624
-1.3677148 -8.2974606 -0.29133338 0.9669022
-1.4748046 -8.296279 -0.29191893 0.96683675
-1.5823828 -8.2950783 -0.29255334 0.96676588
-1.7990038 -8.2926855 -0.29397172 0.96660757
-1.908164 -8.2914839 -0.29475516 0.96652001
-2.01791 -8.2902632 -0.29559061 0.96642679
-2.2393358 -8.2878323 -0.297416 0.96622288
-2.3511329 -8.2865915 -0.29840863 0.96611214
-2.5770507 -8.2840919 -0.30055702 0.96587241
-2.9224803 -8.2802925 -0.30420035 0.96546572
-3.0395312 -8.2789936 -0.30553323 0.96531725
-3.2768555 -8.2763672 -0.30837864 0.96499997
-3.6416404 -8.2723436 -0.31312361 0.9644711
-3.7658203 -8.2709761 -0.31483886 0.96428007
-4.0183787 -8.2681837 -0.31847611 0.96387482
-4.1469336 -8.2667675 -0.32040393 0.96366018
-4.4088087 -8.2638769 -0.32448435 0.96320593
-4.6776366 -8.2608986 -0.32888144 0.96271682
-4.9539843 -8.2578516 -0.33361128 0.96219081
-5.0952344 -8.2562885 -0.3361097 0.96191323
-5.5322461 -8.2514448 -0.34416199 0.96101874
-5.9913864 -8.246377 -0.35312477 0.96002412
-6.1498437 -8.2446194 -0.35633174 0.95966864
-6.3112888 -8.2428417 -0.35965326 0.95930028
-6.475781 -8.241025 -0.3630963 0.95891875
-6.9890623 -8.2353516 -0.37419578 0.95769006
-7.3493943 -8.2313576 -0.38228819 0.9567951
-7.5355272 -8.2293062 -0.38655967 0.95632297
-7.920742 -8.225049 -0.39558902 0.95532596
-8.4076948 -7.8953223 -0.39956561 0.95488691
-1.0341406 -0.92333007 -0.048028219 0.9944666
-1.034336 -0.87779295 -0.046997983 0.99458504
-1.0344141 -0.85576171 -0.046510007 0.99464113
-1.0346289 -0.81297851 -0.045584869 0.9947474
-1.0348828 -0.75188476 -0.044315185 0.99489325
-1.0349609 -0.73223633 -0.043920897 0.99493861
-1.0350391 -0.71293944 -0.043540496 0.99498236
-1.0589062 -0.70993161 -0.044165991 0.99491048
-1.0882031 -0.70994139 -0.04501316 0.99481314
-1.2178515 -0.70994139 -0.048836019 0.9943738
-1.253828 -0.70995116 -0.049915884 0.99424964
-1.3307421 -0.70993161 -0.052251663 0.99398148
-1.3719531 -0.70994139 -0.053516462 0.99383634
-1.4152734 -0.70995116 -0.054852676 0.9936828
-1.5087109 -0.70993161 -0.057764512 0.99334866
-1.5592773 -0.70995116 -0.059354246 0.99316615
-1.6126952 -0.70994139 -0.061043892 0.99297237
-1.6692969 -0.70995116 -0.062842861 0.99276596
-1.7292968 -0.70994139 -0.06476143 0.99254602
-1.7818359 -0.70548826 -0.066391297 0.9923591
-1.7817968 -0.67967772 -0.066065788 0.99239635
-1.7817383 -0.65413082 -0.0657539 0.99243218
-12.217481 -4.1401267 -0.44689649 0.94967967
-12.719365 -4.1327634 -0.46331978 0.94787955
-14.115361 -3.4357324 -0.50328296 0.94351333
-14.19751 -3.0799804 -0.50329173 0.94351232
-14.363379 -2.1825097 -0.50330919 0.94351041
-14.455156 -1.4580859 -0.50331855 0.94350946
-14.487372 -1.0943848 -0.50332171 0.94350892
-14.500039 -0.91224605 -0.50332296 0.94350868
-14.518447 -0.54756832 -0.50332457 0.94350845
-14.524179 -0.36507812 -0.50332505 0.94350845
-14.527627 -0.18254882 -0.50332522 0.94350845
-13.444189 0.33798829 -0.50320464 0.94759184
-13.421806 0.84444332 -0.5032016 0.9475922
-13.410156 1.0130273 -0.50320011 0.94759214
-13.362285 1.5177246 -0.50319427 0.94759274
-13.342051 1.6855175 -0.50319189 0.94759315
-13.319697 1.8530176 -0.50318921 0.94759363
-13.295371 2.0202539 -0.50318635 0.94759357
-13.209414 2.5198436 -0.50317627 0.947595
-13.17667 2.6856346 -0.50317246 0.94759512
-13.141768 2.8509667 -0.50316846 0.9475956
-13.104824 3.0158691 -0.50316417 0.94759589
-13.065693 3.1802733 -0.50315964 0.94759667
-12.888926 3.8325779 -0.50313938 0.94759858
-12.016904 3.9045312 -0.47278032 0.95068103
-11.502021 3.8977051 -0.45441467 0.95255071
-1.7825781 0.65446287 -0.071052857 0.99242783
-1.7826366 0.68002927 -0.071390152 0.992392
-1.6127148 0.70996094 -0.065931968 0.9929716
-1.5592773 0.70995116 -0.064107247 0.99316549
-1.5087109 0.70996094 -0.062390212 0.99334794
-1.3307421 0.70997071 -0.056435432 0.99398082
-1.2178515 0.70996094 -0.052746467 0.9943732
-1.1834375 0.70995116 -0.051637381 0.99449116
-1.1187109 0.70995116 -0.049576376 0.99471045
-1.0882226 0.70995116 -0.048617743 0.99481255
-1.0588866 0.70996094 -0.047702447 0.99490994
-1.0342773 0.73175782 -0.047405966 0.99494141
-1.0340039 0.79170895 -0.048728064 0.99480075
-1.0338867 0.81245112 -0.049200896 0.9947505
-1.0338086 0.83359373 -0.049690742 0.99469829
-7.6869531 7.4024997 -0.39930838 0.95818263
-7.5930858 7.498291 -0.39929786 0.95818388
-6.8322263 7.8486032 -0.38935503 0.95920336
-6.4897265 7.8448143 -0.38095251 0.96006578
-6.3239255 7.8429589 -0.37697551 0.96047443
-6.1614842 7.8411717 -0.3731378 0.9608689
-5.8462305 7.8376951 -0.36586288 0.96161693
-5.3953123 7.8327146 -0.35587749 0.96264464
-5.250371 7.8311033 -0.35277939 0.9629637
-4.6942577 7.8249607 -0.34143147 0.96413338
-4.4290624 7.8220215 -0.33633891 0.9646588
-4.1715236 7.8191795 -0.33160439 0.96514761
-4.0453906 7.8177929 -0.32936248 0.96537906
-3.9209569 7.8164158 -0.32720238 0.96560216
-3.7981443 7.8150682 -0.32512236 0.96581703
-3.5570116 7.8123922 -0.32118988 0.96622342
-3.2056444 7.8085251 -0.31583437 0.96677709
-2.7541406 7.8035445 -0.30963701 0.96741825
-2.6439452 7.8022947 -0.30824584 0.96756232
-2.2123828 7.7975388 -0.30327696 0.96807671
-2.1065428 7.7963767 -0.30217776 0.96819049
-1.4859179 7.7895117 -0.29671642 0.96875644
-1.3845313 7.7883887 -0.29598704 0.96883196
-1.1831055 7.7861619 -0.29467911 0.9689675
-0.88398433 7.7828512 -0.29308313 0.9691329
-0.78492188 7.7817578 -0.2926484 0.96917814
-0.68621093 7.7806735 -0.29225954 0.96921837
-0.29330078 7.7763476 -0.29117429 0.96933085
-0.097695313 7.7741699 -0.29090914 0.96935838
-1.953125e-05 7.7731051 -0.2908462 0.96936488
0.09765625 7.7720213 -0.29082817 0.96936673
0.29304686 7.7698531 -0.29093167 0.96935606
0.68484372 7.7655272 -0.29169011 0.96927732
0.78320312 7.7644434 -0.29199627 0.96924561
1.2789258 7.7589645 -0.29423371 0.96901357
1.4796484 7.7567477 -0.29546791 0.96888578
1.5807031 7.7556152 -0.29615825 0.96881425
1.6822656 7.7544918 -0.29689983 0.96873742
2.0940235 7.7499413 -0.30037898 0.96837687
2.5166016 7.7452927 -0.30471981 0.96792728
2.7327733 7.7429004 -0.30723166 0.96766728
3.0641406 7.7392282 -0.31145 0.96723068
3.1766992 7.737988 -0.31298187 0.96707219
3.2903905 7.7367282 -0.31457797 0.96690702
3.4052734 7.7354684 -0.31624296 0.96673489
3.6387694 7.7328906 -0.31977457 0.96636963
4.1226368 7.7275486 -0.32771727 0.96554893
4.2474608 7.726162 -0.32989532 0.96532393
4.502285 7.72332 -0.33450294 0.9648484
4.8985353 7.718955 -0.342071 0.96406752
5.1730857 7.7159081 -0.34759045 0.96349859
5.3137889 7.7143846 -0.35050011 0.96319848
5.4568357 7.7127829 -0.35351557 0.96288788
5.6024218 7.7111716 -0.35664153 0.96256602
5.7506442 7.7095313 -0.35987917 0.96223259
5.9015818 7.7078805 -0.36323559 0.96188718
6.0553904 7.7061815 -0.36671233 0.96152943
6.2121677 7.7044334 -0.37031689 0.96115899
6.5353513 7.7008786 -0.37792069 0.96037722
6.7020311 7.6990428 -0.38193464 0.95996499
6.8723044 7.6971579 -0.38609388 0.9595378
7.0463672 7.6952438 -0.39040989 0.959095
7.6542187 7.370986 -0.39760879 0.95835692
7.7460742 7.2740526 -0.39759871 0.95835781
7.8366795 7.1759667 -0.39758879 0.95835882
7.9260545 7.0767674 -0.39757898 0.95835972
8.100976 6.87499 -0.39755979 0.95836186
8.1865234 6.7725096 -0.39755046 0.95836282
8.2708197 6.6689353 -0.39754122 0.95836365
8.4353905 6.4586911 -0.39752322 0.95836562
1.2638867 0.91829097 -0.058455389 0.99376607
1.2640039 0.8943066 -0.057936173 0.99382132
1.264375 0.80240232 -0.056032255 0.99402374
1.2646874 0.71613282 -0.054381371 0.99419934
1.5087109 0.70995116 -0.062389981 0.99334794
1.6127343 0.70995116 -0.065931931 0.99297154
1.6692969 0.70996094 -0.067874908 0.99276525
1.7292968 0.70995116 -0.069946744 0.99254525
1.7931249 0.70996094 -0.072161295 0.99231011
1.8611327 0.70996094 -0.074532509 0.99205834
1.9337499 0.70995116 -0.07707794 0.99178833
2.0146484 0.71104491 -0.079939231 0.9914847
2.0145311 0.682666 -0.079587705 0.99152195
2.0144141 0.65452147 -0.079251595 0.9915576
11.509257 3.580332 -0.45100111 0.9528985
12.907499 3.4875586 -0.50028181 0.94788802
12.950156 3.3250487 -0.50027728 0.94788861
12.99082 3.1620214 -0.50027299 0.94788903
13.029414 2.9985156 -0.50026888 0.94788945
13.065976 2.8345311 -0.50026494 0.9478898
13.100469 2.6700878 -0.50026131 0.94789016
13.132891 2.5052342 -0.50025791 0.94789052
13.163261 2.3399999 -0.50025475 0.94789082
13.301797 1.3417578 -0.50024045 0.94789207
13.3175 1.1745117 -0.50023884 0.94789249
13.331172 1.0070605 -0.50023752 0.94789261
13.352226 0.67172849 -0.50023556 0.94789279
13.364863 0.33598632 -0.50023454 0.9478929
13.369062 9.7656248e-06 -0.50023443 0.94789296
13.368008 -0.16797851 -0.50023472 0.94789296
13.352265 -0.67169923 -0.50023699 0.94789267
13.342773 -0.83944333 -0.50023824 0.94789261
13.331211 -1.007041 -0.50023967 0.94789249
13.317577 -1.1744921 -0.5002414 0.94789219
13.301836 -1.3417675 -0.50024331 0.94789195
13.217891 -2.0084472 -0.50025326 0.94789088
13.163398 -2.3399999 -0.5002597 0.94789034
13.133066 -2.5052636 -0.50026321 0.94788986
13.100586 -2.6700976 -0.50026703 0.94788975
13.066191 -2.8345408 -0.50027096 0.94788897
12.991015 -3.1620605 -0.50027966 0.94788826
12.862968 -3.6495409 -0.50029439 0.94788682
12.816211 -3.8109276 -0.50029969 0.94788635
2.0144727 -0.68265623 -0.079587743 0.99152219
1.9337499 -0.70995116 -0.077077672 0.99178833
1.7293359 -0.70995116 -0.069946781 0.99254513
1.6692969 -0.70995116 -0.067874677 0.99276525
1.6127343 -0.70994139 -0.065931469 0.99297154
1.3719531 -0.70994139 -0.057801247 0.99383575
1.3307421 -0.70994139 -0.056435354 0.99398088
1.2913867 -0.70994139 -0.05514076 0.99411857
1.2645702 -0.75860351 -0.055177268 0.99411464
1.264375 -0.80238277 -0.056032181 0.9940238
1.2642969 -0.82480466 -0.056483191 0.99397576
1.2641797 -0.84757811 -0.056950301 0.99392617
1.2641015 -0.87073243 -0.057434347 0.99387467
1.2640039 -0.89428711 -0.057936322 0.99382132
8.190156 -6.7754493 -0.39772555 0.95834488
7.8401365 -7.179111 -0.39776477 0.95834088
7.7495117 -7.277246 -0.3977749 0.95833981
7.6576757 -7.3742771 -0.39778522 0.95833862
7.4703121 -7.5647559 -0.39780617 0.95833659
7.3748827 -7.6582322 -0.39781684 0.95833546
7.2782421 -7.7505274 -0.39782763 0.95833439
6.4189649 -8.3835058 -0.39508033 0.95861632
5.9276757 -8.3780565 -0.38401592 0.95975167
5.6148047 -8.3746185 -0.37726805 0.96044469
5.4624219 -8.3729486 -0.37407142 0.96077323
5.3126173 -8.3712893 -0.37098521 0.96109045
5.165195 -8.369668 -0.36800718 0.96139663
4.7365232 -8.3649216 -0.35968971 0.96225262
4.3262305 -8.3603811 -0.35222617 0.9630211
4.1931639 -8.3589258 -0.34991702 0.96325898
3.3056836 -8.3491211 -0.33599737 0.96469432
3.184375 -8.3477631 -0.33430651 0.9648689
3.0642967 -8.3464451 -0.33268607 0.96503627
2.9453709 -8.3451271 -0.33113214 0.96519667
2.4799414 -8.3400002 -0.32556549 0.96577156
2.3659375 -8.3387299 -0.32433027 0.96589923
2.1404297 -8.3362207 -0.32203755 0.96613604
1.9178905 -8.3337698 -0.31998068 0.96634883
1.8076953 -8.3325682 -0.31903589 0.9664464
1.6980859 -8.3313475 -0.31814793 0.96653831
1.4806249 -8.3289452 -0.31653485 0.96670508
1.3727148 -8.3277435 -0.31580842 0.96678019
1.1582227 -8.3253708 -0.31451517 0.966914
0.94537109 -8.3230276 -0.31342983 0.96702623
0.73380858 -8.320693 -0.31254774 0.96711743
0 -8.3125877 -0.31103656 0.96727383
-0.10443359 -8.3114157 -0.31101742 0.96727586
-0.41796875 -8.3079586 -0.31125647 0.96725112
-0.94298828 -8.3021679 -0.31264278 0.96710753
-1.1546484 -8.2998343 -0.31355092 0.96701378
-1.2609766 -8.2986422 -0.31407893 0.96695906
-1.7989843 -8.292695 -0.3175101 0.96660429
-1.9081445 -8.2914944 -0.31835738 0.96651667
-2.01791 -8.2902737 -0.31925958 0.96642345
-2.1282811 -8.289053 -0.3202166 0.96632445
-2.2393749 -8.2878418 -0.32123131 0.96621948
-2.6912889 -8.2828512 -0.32587397 0.96573979
-2.8063867 -8.2815619 -0.32718468 0.96560436
-3.1576562 -8.2776852 -0.33150077 0.96515858
-3.5188282 -8.2737007 -0.336418 0.96465111
-3.7658203 -8.2709761 -0.34004813 0.96427655
-3.8913867 -8.2695704 -0.34197402 0.96407789
-4.1469336 -8.2667675 -0.34605995 0.9636566
-4.2770309 -8.2653217 -0.34822151 0.96343374
-4.4088087 -8.2638769 -0.35046592 0.96320236
-4.5423436 -8.262392 -0.35279673 0.96296221
-5.2386327 -8.2546968 -0.36581782 0.96162182
-5.3842578 -8.2530861 -0.36871696 0.96132374
-5.5322461 -8.2514448 -0.37172037 0.96101487
-5.6826954 -8.2497854 -0.37483352 0.96069491
-5.8357029 -8.2480955 -0.3780582 0.96036351
-5.9913669 -8.2463675 -0.38140112 0.96002024
-6.3112693 -8.2428217 -0.38845205 0.95929641
-6.475781 -8.2410154 -0.3921707 0.95891476
-6.6434569 -8.2391596 -0.39602309 0.95851958
-6.8037891 -8.2243748 -0.39938825 0.95817447
-7.2092576 -7.8729978 -0.39943278 0.95816982
-7.3078122 -7.7819824 -0.39944363 0.9581688
-7.4051952 -7.6897364 -0.39945433 0.95816779
-7.7830076 -7.3087301 -0.39949575 0.9581635
-1.0333788 -0.92264646 -0.05183582 0.99447012
-1.033711 -0.85513669 -0.050198514 0.99464434
-1.0339062 -0.81243163 -0.049200896 0.9947505
-1.0340234 -0.79169923 -0.048727836 0.99480069
-1.034121 -0.77135742 -0.048271675 0.99484926
-1.0341992 -0.75136715 -0.047831304 0.99489617
-1.0882031 -0.70994139 -0.048617516 0.99481261
-1.1503906 -0.70994139 -0.050581891 0.99460357
-1.1833984 -0.70993161 -0.051637266 0.99449134
-1.253828 -0.70995116 -0.053912923 0.99424905
-1.2913867 -0.70995116 -0.055140913 0.99411857
-1.3307421 -0.70993161 -0.056435242 0.99398088
-1.3719531 -0.70994139 -0.057801437 0.99383575
-1.4607812 -0.70995116 -0.060771979 0.9935199
-1.5592773 -0.70995116 -0.064106904 0.99316549
-1.7292968 -0.70994139 -0.069947205 0.99254525
-1.7826953 -0.70580077 -0.071741983 0.99235469
-1.7826562 -0.68000972 -0.071390301 0.99239194
-11.746181 -4.1456833 -0.4660821 0.95136255
-12.719365 -4.1327538 -0.50041747 0.94787455
-12.88914 -3.832617 -0.50314754 0.94759774
-13.024843 -3.344209 -0.50316209 0.94759613
-13.065928 -3.1803026 -0.50316644 0.94759578
-13.176836 -2.6856542 -0.50317824 0.94759452
-13.240361 -2.3536913 -0.50318491 0.94759375
-13.268916 -2.1871386 -0.50318789 0.94759363
-13.319863 -1.852998 -0.5031932 0.94759297
-13.342148 -1.685498 -0.50319546 0.94759279
-13.410146 -1.012998 -0.50320226 0.9475922
-13.421855 -0.84441406 -0.50320339 0.94759202
-12.513525 0.31458008 -0.50310153 0.95112449
-12.501621 0.62894529 -0.50309986 0.95112467
-12.492695 0.78599608 -0.50309873 0.95112479
-12.481807 0.94291013 -0.50309736 0.95112491
-12.454091 1.2562597 -0.50309396 0.9511252
-12.437245 1.4126562 -0.50309193 0.9511255
-12.418515 1.5688477 -0.50308967 0.95112544
-12.397695 1.7247558 -0.50308722 0.95112592
-12.323682 2.1907713 -0.50307852 0.95112669
-12.26457 2.4997363 -0.50307161 0.95112735
-12.232139 2.6536326 -0.50306791 0.95112753
-12.161377 2.9601367 -0.50305974 0.95112836
-12.04083 3.4163182 -0.50304586 0.95112973
-11.996806 3.5672948 -0.50304085 0.95113027
-11.903125 3.867578 -0.50303012 0.95113128
-11.025557 3.8913672 -0.46992815 0.95427227
-1.7834375 0.65477538 -0.076358221 0.99242336
-1.7835156 0.68034178 -0.076720923 0.99238747
-1.7292968 0.70995116 -0.075133741 0.99254447
-1.5592773 0.70995116 -0.068860888 0.99316478
-1.4608203 0.70995116 -0.065278508 0.99351907
-1.4152734 0.70995116 -0.063638113 0.99368149
-1.3719531 0.70995116 -0.062087707 0.99383503
-1.3307421 0.70996094 -0.060620267 0.99398017
-1.253828 0.70994139 -0.057910725 0.99424845
-1.2178515 0.70996094 -0.056657903 0.99437261
-1.1504296 0.70995116 -0.05433296 0.9946028
-1.0336719 0.71203125 -0.05044708 0.99498785
-1.0334766 0.75087887 -0.051343229 0.99489909
-1.0333984 0.77083004 -0.051815718 0.99485224
-1.0331836 0.81189454 -0.052812498 0.99475348
-1.0330859 0.83301759 -0.05333782 0.99470145
-1.0328516 0.87656248 -0.054447059 0.99459159
-1.0326172 0.92199218 -0.055638693 0.99447352
-7.2414255 6.8001852 -0.39925963 0.96101296
-7.0679297 6.9796972 -0.39924026 0.96101469
-6.8899412 7.1547556 -0.39922035 0.96101665
-6.4262695 7.5722556 -0.39916849 0.96102166
-6.3304491 7.6522164 -0.39915782 0.96102262
-6.0023046 7.8394332 -0.39682928 0.96124536
-5.8462501 7.8376951 -0.39299271 0.96161288
-5.3953123 7.8327246 -0.38226584 0.96264064
-5.250371 7.8311033 -0.37893766 0.96295983
-5.1078515 7.8295312 -0.375727 0.96326798
-4.4290819 7.822041 -0.36127922 0.96465498
-4.0453906 7.8177929 -0.35378471 0.96537542
-3.9209569 7.8164158 -0.35146528 0.96559852
-3.7981443 7.8150682 -0.34923089 0.9658134
-3.438535 7.8110838 -0.34301287 0.96641177
-3.2056639 7.8085251 -0.33925453 0.96677357
-3.0910938 7.8072362 -0.33748507 0.96694398
-2.7541406 7.803535 -0.33259636 0.96741486
-2.5347266 7.8010936 -0.32967299 0.96769655
-2.4264061 7.7998924 -0.32830876 0.96782815
-2.2123632 7.7975388 -0.32576498 0.96807331
-2.1065428 7.7963672 -0.32458517 0.96818715
-2.0014453 7.7952051 -0.32346365 0.96829534
-1.8970703 7.7940621 -0.32240185 0.9683978
-1.6903125 7.7917676 -0.32044753 0.96858621
-1.3845117 7.7883787 -0.31793451 0.96882868
-0.78496093 7.7817774 -0.3143484 0.96917474
-0.5876953 7.7795801 -0.31356511 0.9692505
-0.48935544 7.7784863 -0.31324798 0.96928108
-0.39124998 7.7773924 -0.31298199 0.96930683
-0.29328126 7.7763376 -0.31276473 0.96932763
-0.19546874 7.7752633 -0.31259713 0.96934372
0 7.7731051 -0.3124122 0.96936166
0.09765625 7.7720118 -0.31239378 0.96936351
0.48871094 7.7676854 -0.31281206 0.9693231
0.58671874 7.7666016 -0.31304216 0.96930099
0.78320312 7.7644334 -0.31364772 0.96924239
0.88179684 7.7633395 -0.31402695 0.96920586
0.98060542 7.7622361 -0.31445673 0.96916443
1.379082 7.7578321 -0.3166886 0.96894902
1.4796484 7.7567382 -0.31737679 0.9688825
1.886914 7.7522264 -0.32067162 0.96856469
1.9901366 7.7511034 -0.32163313 0.96847183
2.1985157 7.7488084 -0.32372817 0.96826965
2.3037889 7.7476363 -0.32486433 0.96816021
2.4097655 7.7464743 -0.32605827 0.968045
2.5166016 7.7452831 -0.32731581 0.96792394
2.6242187 7.7441015 -0.32863224 0.96779692
2.7327733 7.7429004 -0.3300128 0.96766382
2.9526951 7.7404785 -0.33296767 0.96737903
3.0641406 7.7392282 -0.33454391 0.96722722
3.1766992 7.737988 -0.33618957 0.96706873
3.2903905 7.7367282 -0.33790499 0.96690351
3.4052734 7.7354684 -0.33969223 0.96673137
3.6387694 7.7328906 -0.34348693 0.96636605
3.8777342 7.7302246 -0.34758902 0.96597129
4.2474608 7.726162 -0.35435802 0.96532029
4.3739843 7.7247653 -0.35678658 0.96508676
4.6323829 7.7218943 -0.36191839 0.96459365
4.7644725 7.720459 -0.36462662 0.9643333
4.8985548 7.718955 -0.36743522 0.96406364
5.0347266 7.7174511 -0.37034747 0.96378422
5.1730857 7.7159081 -0.37336388 0.96349472
5.3137693 7.7143846 -0.37649024 0.96319461
5.4568553 7.7128024 -0.37972999 0.96288383
5.6024218 7.7111912 -0.38308635 0.96256202
5.7506442 7.7095504 -0.38656521 0.96222854
6.4975586 7.4640622 -0.39773685 0.96115857
6.682734 7.298027 -0.39771652 0.96116054
6.7737303 7.2133007 -0.39770651 0.96116155
7.3799996 6.5892477 -0.39763999 0.96116787
7.46207 6.4958396 -0.39763099 0.96116871
7.5429492 6.4014258 -0.39762214 0.96116948
7.6225977 6.3059864 -0.39761344 0.96117043
7.8543749 6.0138278 -0.39758804 0.96117276
1.2632617 0.87017578 -0.061652336 0.99387801
1.2634765 0.82426757 -0.060632017 0.99397904
1.2635742 0.80189449 -0.060148161 0.9940269
1.263828 0.73674804 -0.058796424 0.99416083
1.2913867 0.70996094 -0.05922981 0.99411792
1.3719921 0.70995116 -0.062087364 0.99383491
1.4152734 0.70996094 -0.063637771 0.99368149
1.4607812 0.70996094 -0.065278322 0.99351919
1.5592968 0.70996094 -0.068860739 0.99316466
1.6692969 0.70996094 -0.072907791 0.99276447
1.7292968 0.70995116 -0.07513351 0.99254447
1.7931249 0.70996094 -0.077512167 0.99230927
1.8611327 0.70996094 -0.080059394 0.9920575
2.0167773 0.71181637 -0.085957982 0.99147481
2.0166407 0.68338865 -0.085579142 0.99151218
11.509257 3.580332 -0.48444381 0.95289356
12.096445 2.9443457 -0.50037229 0.95138288
12.132382 2.7920604 -0.50036848 0.95138329
12.166445 2.6393847 -0.50036484 0.95138353
12.198515 2.4862499 -0.50036144 0.95138407
12.257031 2.1789062 -0.5003553 0.95138448
