# .PCD v0.7 - Point Cloud Data file format
VERSION 0.7
FIELDS x y z intensity
SIZE 4 4 4 4
TYPE F F F F
COUNT 1 1 1 1
WIDTH 1078
HEIGHT 1
VIEWPOINT 0 0 0 1 0 0 0
POINTS 1078
DATA ascii
9.9482031 -8.4426365 -0.12651767 0.94914508
9.6952734 -8.4398432 -0.12464157 0.94988054
9.211113 -8.4345016 -0.12110405 0.95126748
8.7533979 -8.4294233 -0.11783661 0.95255131
8.5336323 -8.4270115 -0.11629387 0.95315748
8.1106634 -8.4223337 -0.1133797 0.9543041
7.9070311 -8.4200878 -0.1120018 0.95484614
7.7082028 -8.417881 -0.11067531 0.95536888
7.5140233 -8.4157324 -0.10939651 0.95587283
7.3242188 -8.4136524 -0.10816524 0.95635885
7.1386132 -8.4115915 -0.1069767 0.95682782
6.9570312 -8.4095697 -0.10583046 0.95728022
6.4345312 -8.4038086 -0.10263062 0.95854461
6.2672262 -8.4019728 -0.10163906 0.95893711
5.7838082 -8.3966303 -0.098865241 0.96003515
5.3254685 -8.3915529 -0.096371919 0.96102303
4.8890624 -8.3867283 -0.094131544 0.96191156
4.2032809 -8.3791599 -0.090899996 0.96319532
4.0716209 -8.3776951 -0.090321384 0.96342504
3.9416015 -8.3762693 -0.089764513 0.96364623
3.8131053 -8.3748531 -0.089229353 0.96385926
3.6861327 -8.3734369 -0.088713489 0.96406436
3.5606248 -8.3720608 -0.088217311 0.96426147
3.4364843 -8.3706732 -0.08774139 0.96445107
3.3136718 -8.3693256 -0.087283283 0.96463311
3.1920702 -8.3679981 -0.086844712 0.96480787
2.8343358 -8.3640327 -0.08563301 0.96529013
2.6011133 -8.3614645 -0.08491043 0.96557796
2.2582421 -8.357666 -0.083946802 0.96596164
2.1455858 -8.3564253 -0.08365757 0.96607721
2.0336914 -8.355195 -0.083382264 0.9661867
1.8120313 -8.3527441 -0.082877122 0.96638811
1.7021874 -8.3515234 -0.082645833 0.96648014
1.5928906 -8.3503218 -0.082429886 0.9665665
1.3760351 -8.3479099 -0.082038805 0.96672249
1.2683008 -8.3467283 -0.081863515 0.96679217
0.84146482 -8.3420115 -0.081299245 0.96701723
0.73558593 -8.3408499 -0.081192054 0.96706027
0.41943359 -8.3373537 -0.080945969 0.96715826
-0.41896483 -8.3280954 -0.080855943 0.96719408
-0.62894529 -8.3257713 -0.080961339 0.96715206
-0.73417968 -8.3245993 -0.081033856 0.96712339
-1.1574414 -8.3199215 -0.081452139 0.9669565
-1.4783984 -8.3163767 -0.081904486 0.96677583
-1.5862108 -8.3151951 -0.082083128 0.96670479
-1.6945508 -8.3139839 -0.082274437 0.96662825
-1.9127734 -8.3115816 -0.082701303 0.96645844
-2.1334374 -8.3091497 -0.083184429 0.96626586
-2.3568358 -8.3066797 -0.083726272 0.96604985
-2.8132031 -8.3016205 -0.084994428 0.96554464
-2.9295311 -8.3003416 -0.085350916 0.96540242
-3.0469141 -8.2990627 -0.085725017 0.96525353
-3.1652734 -8.2977438 -0.086114995 0.96509808
-3.4054492 -8.2950974 -0.086948507 0.96476632
-3.5273438 -8.2937403 -0.087392613 0.96458977
-3.9008203 -8.2895994 -0.088835716 0.96401548
-4.1569724 -8.286787 -0.089896776 0.96359354
-4.5533204 -8.282402 -0.091646574 0.96289802
-4.9659958 -8.2778416 -0.093602754 0.96212155
-5.3973045 -8.2730761 -0.095783345 0.96125668
-6.1647654 -8.2645893 -0.099977411 0.95959479
-6.6595311 -8.2591209 -0.10287605 0.95844781
-6.830996 -8.2572365 -0.1039143 0.95803761
-7.3671875 -8.2513275 -0.10725982 0.95671606
-7.5537887 -8.2492476 -0.10845787 0.9562431
-7.7446094 -8.247138 -0.1097002 0.95575285
-7.9399219 -8.2449703 -0.11099239 0.95524436
-8.139883 -8.2427635 -0.11233051 0.9547171
-8.7702732 -8.2358007 -0.11665985 0.95301324
-1.0410352 -0.88350582 -0.013239822 0.99455303
-1.0410937 -0.83947265 -0.012968025 0.99466449
-1.0411328 -0.81813473 -0.012839279 0.99471724
-1.0412109 -0.75648433 -0.012479515 0.99486494
-1.1187109 -0.70996094 -0.012847519 0.99471384
-1.2178515 -0.70997071 -0.013668747 0.99437684
-1.2913672 -0.70996094 -0.014289627 0.99412245
-1.3307421 -0.70996094 -0.014625053 0.99398476
-1.4607617 -0.70994139 -0.015748709 0.99352419
-1.5087109 -0.70996094 -0.01616825 0.99335223
-1.5592773 -0.70994139 -0.01661312 0.99316996
-1.6126952 -0.70995116 -0.017085876 0.99297625
-1.6692773 -0.70994139 -0.017589606 0.99277002
-1.7741406 -0.67676759 -0.018412018 0.99243307
-22.892841 -8.0797358 -0.23539995 0.90745449
-1.7749804 0.67708004 -0.023684273 0.99242926
-1.7292968 0.70994139 -0.023305969 0.9925499
-1.5592773 0.70994139 -0.021359976 0.99316972
-1.5087109 0.70994139 -0.020787964 0.99335206
-1.4607812 0.70993161 -0.020248795 0.99352396
-1.4152343 0.70995116 -0.019740028 0.9936862
-1.3307421 0.70995116 -0.018804016 0.99398458
-1.2178711 0.70994139 -0.017574919 0.99437666
-1.1834375 0.70995116 -0.017205352 0.99449456
-1.1503906 0.70994139 -0.016853675 0.99460691
-1.0882226 0.70994139 -0.016199302 0.99481577
-1.0589062 0.70995116 -0.015894242 0.9949131
-1.0404687 0.7761035 -0.016183129 0.99482089
-1.0403906 0.81752926 -0.016496582 0.99472094
-1.0403711 0.83887696 -0.016661873 0.99466807
-1.040332 0.86064452 -0.016833266 0.99461341
-1.0402734 0.90556639 -0.017194938 0.9944979
-1.0402343 0.92875975 -0.017385865 0.99443704
-1.0401953 0.95249021 -0.017583884 0.9943738
-8.3543158 7.8452635 -0.14288078 0.95518953
-7.7405467 7.8384957 -0.13734218 0.95688844
-6.9911523 7.830205 -0.13087055 0.95887792
-6.8145504 7.8282518 -0.12939422 0.95933163
-6.6419139 7.8263278 -0.12797341 0.95976919
-6.472949 7.8244824 -0.12660298 0.96019137
-6.307539 7.8226657 -0.12528019 0.96059877
-5.9867773 7.8191013 -0.12277496 0.96137148
-5.8311133 7.8173828 -0.12158711 0.96173775
-5.6784177 7.8156934 -0.1204417 0.96209133
-4.9549217 7.8077145 -0.11528755 0.96368396
-4.8174219 7.8061914 -0.11436256 0.96397018
-4.6821094 7.804697 -0.113469 0.96424639
-4.4175978 7.8017673 -0.11177646 0.9647702
-3.9108202 7.7961621 -0.10873939 0.96571064
-3.7882812 7.7948141 -0.10804836 0.96592492
-3.4296484 7.7908492 -0.1061261 0.96652126
-3.1973827 7.788281 -0.10496196 0.96688193
-3.0830858 7.7870116 -0.10441402 0.96705186
-2.9699609 7.7857809 -0.10388889 0.96721482
-2.5281639 7.7808886 -0.10199745 0.96780199
-2.4201171 7.7796874 -0.10157555 0.96793318
-1.8921875 7.7738767 -0.099747121 0.96850091
-1.6859374 7.7715816 -0.099142723 0.96868879
-1.5837694 7.7704587 -0.098867111 0.96877456
-1.4820703 7.7693357 -0.09860836 0.96885514
-1.3809179 7.7682223 -0.098366655 0.96893042
-1.2802734 7.7670994 -0.098141551 0.96900058
-0.88171875 7.7626953 -0.097401239 0.96923047
-0.78291017 7.7616014 -0.097255893 0.96927553
-0.68441403 7.7605176 -0.097127378 0.96931565
-0.58617187 7.7594433 -0.097013392 0.96935087
-0.29253906 7.7561913 -0.096767463 0.96942782
-0.19496094 7.7551074 -0.096715391 0.96944392
-0.09742187 7.7540331 -0.096678466 0.96945524
0.09742187 7.7518945 -0.096651725 0.96946353
0.38980469 7.7486324 -0.096725464 0.96944052
0.48740232 7.7475681 -0.096781306 0.96942329
0.58515626 7.7464938 -0.096852571 0.96940124
0.68308592 7.74541 -0.09693817 0.96937448
0.78117186 7.7443357 -0.097040325 0.96934283
0.87951171 7.7432518 -0.097156182 0.96930635
1.0769141 7.7410545 -0.097437702 0.96921885
1.2755859 7.7388768 -0.097783737 0.96911144
1.5766406 7.7355466 -0.098423615 0.96891266
1.779668 7.7332811 -0.098932147 0.96875441
1.8820312 7.7321677 -0.09921211 0.96866721
2.0885546 7.7298727 -0.099824868 0.96847683
2.192832 7.7287402 -0.10015842 0.96837324
2.2977929 7.7275681 -0.10051014 0.96826416
2.403496 7.7263961 -0.10087944 0.96814936
2.7256639 7.7228417 -0.10210228 0.96776938
2.9449999 7.7204199 -0.10301621 0.96748561
3.0562108 7.7191796 -0.10350467 0.96733415
3.5122266 7.7141404 -0.10567272 0.96666151
3.6293163 7.7128611 -0.10627186 0.96647578
3.8676758 7.7102051 -0.10754013 0.96608227
4.362617 7.7047558 -0.11038665 0.96520066
4.62041 7.7019138 -0.11197463 0.96470892
4.7521091 7.700449 -0.11281196 0.96444958
5.0216794 7.6974707 -0.11458068 0.96390212
5.1596875 7.6959276 -0.11551452 0.96361357
5.2999997 7.6944041 -0.11648124 0.96331447
5.4427342 7.6928124 -0.11748409 0.96300465
5.5879297 7.6912208 -0.11852329 0.9626838
5.7357812 7.68958 -0.11959999 0.96235138
5.8862891 7.6879196 -0.12071563 0.96200716
6.0397263 7.6862302 -0.12187057 0.96165049
6.1960936 7.6844921 -0.12306865 0.96128112
6.3556442 7.6827245 -0.1243092 0.9608984
6.5184374 7.6809373 -0.12559485 0.96050185
6.8545117 7.6772165 -0.12831108 0.95966506
7.3873825 7.6713281 -0.13277534 0.95829141
7.9594922 7.6650095 -0.13776486 0.95675874
8.1599607 7.6627831 -0.13955753 0.95620871
9.248105 7.6507711 -0.14963791 0.95312041
9.485117 7.6481442 -0.151907 0.95242709
9.7295313 7.6454492 -0.15427002 0.95170516
9.9816408 7.6426463 -0.15673195 0.9509536
1.2716016 0.94850582 -0.01977787 0.99367404
1.2716211 0.92388672 -0.019596366 0.99373198
1.2716796 0.89971679 -0.019421006 0.99378783
1.2717187 0.87597656 -0.019251937 0.99384171
1.2717968 0.80708981 -0.01877903 0.99399257
1.2718359 0.76299804 -0.018490981 0.99408448
1.2718945 0.74143553 -0.01835453 0.99412793
1.2718945 0.72017574 -0.01822277 0.99417007
1.3307421 0.70993161 -0.018804129 0.99398464
1.4152734 0.70994139 -0.019740105 0.99368608
1.50875 0.70995116 -0.020787964 0.99335194
1.6692969 0.70994139 -0.022615241 0.99276972
1.9956249 0.70432615 -0.026384201 0.99157
1.9955859 0.67624021 -0.026269225 0.99160659
1.9955468 -0.6483984 -0.026159324 0.99164152
1.9956249 -0.70435548 -0.026384125 0.99156994
1.9337695 -0.70994139 -0.025681915 0.99179333
1.8611327 -0.70997071 -0.024833946 0.99206322
1.7931249 -0.70996094 -0.024043731 0.99231482
1.6692969 -0.70996094 -0.02261528 0.99276972
1.6127343 -0.70995116 -0.021968307 0.99297589
1.5087109 -0.70996094 -0.020788154 0.99335206
1.3719921 -0.70994139 -0.019259147 0.99383938
1.271875 -0.7414453 -0.018354263 0.99412799
1.2718555 -0.76299804 -0.018490791 0.99408442
1.2717968 -0.80711913 -0.018778991 0.99399251
1.2717578 -0.8296777 -0.018930931 0.99394411
1.2717578 -0.85263669 -0.01908863 0.99389374
1.2716211 -0.92389649 -0.019596061 0.99373198
1.2716016 -0.94851559 -0.019777756 0.99367404
11.042402 -8.4547262 -0.17338927 0.94588518
9.9482031 -8.4426365 -0.16267231 0.94914353
9.4497261 -8.437129 -0.15793845 0.95058602
8.7533979 -8.4294434 -0.15150657 0.95254987
8.3194723 -8.4246387 -0.14761397 0.95374006
8.1106834 -8.4223242 -0.1457759 0.95430273
7.7082028 -8.417881 -0.14229923 0.95536757
7.1386132 -8.4115915 -0.13754517 0.95682651
6.6051364 -8.4057131 -0.13328041 0.95813674
6.2672262 -8.4019728 -0.13068226 0.95893592
6.103086 -8.400156 -0.12945041 0.95931488
5.1776953 -8.3899317 -0.12291389 0.96132863
5.0322657 -8.38832 -0.12195496 0.96162468
4.7479687 -8.3851662 -0.12013634 0.96218616
4.2032809 -8.3791599 -0.11687309 0.96319425
4.0716209 -8.3776951 -0.11612938 0.96342391
3.9415624 -8.3762693 -0.1154134 0.96364516
3.8131053 -8.3748531 -0.11472412 0.96385819
3.5606248 -8.3720608 -0.11342407 0.9642604
3.4364843 -8.3706732 -0.11281215 0.96445
3.3136718 -8.3693256 -0.11222439 0.96463203
3.1920702 -8.3679981 -0.11165924 0.9648068
3.0716991 -8.3666697 -0.11111816 0.96497446
2.9524415 -8.3653316 -0.11059868 0.96513528
2.8343358 -8.3640327 -0.11010136 0.96528912
2.7172265 -8.3627539 -0.10962677 0.96543622
2.4859765 -8.3601751 -0.10873867 0.96571112
2.37166 -8.3589163 -0.1083255 0.96583897
1.922539 -8.3539553 -0.10687382 0.96628934
1.7021874 -8.3515234 -0.10626182 0.96647912
1.4841992 -8.3491211 -0.10572204 0.96664619
1.0541406 -8.3443747 -0.10485885 0.9669143
0.94763672 -8.3431835 -0.10468559 0.96696794
0.73558593 -8.3408499 -0.10439137 0.96705925
0.62998044 -8.3396778 -0.10426986 0.9670971
0.52460939 -8.3385057 -0.1041642 0.96712977
0.41943359 -8.3373537 -0.10407513 0.96715724
0.31441405 -8.3362007 -0.10400249 0.9671796
0.20953125 -8.3350286 -0.10394756 0.96719682
0.10472656 -8.3338575 -0.103908 0.96720904
-0.20943359 -8.3304005 -0.10389084 0.96721476
-0.31414062 -8.3292475 -0.10391693 0.96720648
-0.52390623 -8.3269234 -0.10401947 0.96717471
-0.73417968 -8.3245993 -0.10418709 0.96712238
-1.1574414 -8.3199215 -0.10472576 0.96695548
-1.3710351 -8.3175678 -0.10509674 0.96684039
-1.5862108 -8.3151951 -0.10553715 0.96670377
-1.6945508 -8.3139839 -0.10578331 0.96662724
-1.8033594 -8.3127832 -0.10604843 0.96654522
-2.0228124 -8.3103609 -0.10663341 0.96636403
-2.5832813 -8.3041792 -0.1084235 0.96580869
-2.8132031 -8.3016205 -0.10927906 0.96554357
-3.1653125 -8.2977438 -0.11072224 0.96509701
-3.284785 -8.2964058 -0.11124607 0.96493471
-3.4054492 -8.2950974 -0.11179279 0.96476525
-3.5273438 -8.2937403 -0.11236366 0.9645887
-4.1569724 -8.286787 -0.1155846 0.96359247
-4.2873826 -8.2853317 -0.11630737 0.96336925
-4.4194922 -8.2838764 -0.11705688 0.96313745
-4.6889453 -8.2809076 -0.11864166 0.96264738
-5.1075583 -8.2762794 -0.12124985 0.96184236
-5.3973045 -8.2730761 -0.12315304 0.96125549
-5.849824 -8.2680664 -0.12627274 0.96029365
-6.1647654 -8.2645893 -0.12854439 0.95959353
-6.3265624 -8.2628021 -0.12974238 0.95922464
-6.830996 -8.2572365 -0.13360615 0.95803636
-7.0059958 -8.2553024 -0.1349895 0.95761138
-7.1846676 -8.2533197 -0.13642353 0.95717108
-7.3671875 -8.2513275 -0.13790913 0.95671475
-7.5537887 -8.2492476 -0.13944969 0.95624179
-8.5548048 -8.2381935 -0.14806797 0.953601
-8.7703123 -8.2357912 -0.14999375 0.95301175
-1.0402539 -0.90557617 -0.017195091 0.99449795
-1.0403125 -0.88288087 -0.017011032 0.99455667
-1.0403515 -0.86065429 -0.016833266 0.99461329
-1.0404297 -0.79664063 -0.016337126 0.99477172
-1.0404882 -0.77612305 -0.016183052 0.99482077
-1.0405078 -0.75598633 -0.016034432 0.99486822
-1.0405273 -0.73621094 -0.015891112 0.99491405
-1.0405663 -0.71675777 -0.015752716 0.99495822
-1.1834179 -0.70996094 -0.017205123 0.99449462
-1.2178515 -0.70997071 -0.017574616 0.99437666
-1.2538086 -0.70995116 -0.017963294 0.99425268
-1.4152734 -0.70994139 -0.019739952 0.99368608
-1.5087109 -0.70996094 -0.020788001 0.99335206
-1.6692773 -0.70994139 -0.022615699 0.99276978
-1.7292968 -0.70995116 -0.023306083 0.9925499
-1.7749804 -0.70278317 -0.023800658 0.9923923
-1.7749609 -0.67708004 -0.023684539 0.99242932
-1.7749609 -0.65165037 -0.023573112 0.99246472
-12.123574 4.2789159 -0.19591048 0.9498682
-1.7757812 0.6519531 -0.028825989 0.99246097
-1.7758203 0.67739254 -0.028962288 0.99242544
-1.7758203 0.70310545 -0.029104462 0.99238843
-1.7292968 0.70994139 -0.028485641 0.9925496
-1.6692773 0.70993161 -0.027641905 0.99276954
-1.5087109 0.70994139 -0.025408247 0.99335182
-1.3719531 0.70994139 -0.023539696 0.99383932
-1.3307421 0.70995116 -0.022983398 0.99398434
-1.2913672 0.70993161 -0.022456016 0.99412209
-1.1834375 0.70995116 -0.021029357 0.99449432
-1.1187109 0.70994139 -0.020189971 0.99471354
-1.0398437 0.71626949 -0.019241104 0.9949615
-1.0397656 0.77557617 -0.01976612 0.99482417
-1.0397265 0.79607421 -0.01995407 0.99477512
-1.039668 0.81697261 -0.020148849 0.99472433
-1.0396484 0.83827144 -0.020350609 0.99467164
-1.0395703 0.8822363 -0.020776596 0.99456036
-1.0394531 0.92808592 -0.021234436 0.99444091
-1.039414 0.95178711 -0.021476097 0.99437779
-8.3543158 7.8452635 -0.17463623 0.95518786
-7.3567967 7.8342481 -0.16376403 0.95791811
-6.8145504 7.8282518 -0.15815346 0.95933008
-6.307539 7.8226657 -0.15312496 0.96059728
-5.9867773 7.8191013 -0.15006183 0.96136999
-5.8311133 7.8173828 -0.14861107 0.96173632
-5.3813281 7.8124118 -0.14455539 0.96276093
-5.2367773 7.8108201 -0.14329712 0.96307898
-4.9549217 7.8077145 -0.1409103 0.96368259
-4.6821094 7.804697 -0.13868743 0.96424502
-4.5488672 7.8032126 -0.13763386 0.96451163
-4.2882419 7.8003416 -0.13563961 0.96501696
-4.1607032 7.798945 -0.13469569 0.96525621
-4.0349216 7.7975488 -0.13378471 0.96548694
-3.9108202 7.7961621 -0.13290779 0.96570933
-3.6673045 7.7934861 -0.1312487 0.96613002
-3.1973436 7.788281 -0.12828998 0.96688074
-3.0830858 7.7870116 -0.12762016 0.96705061
-2.9699609 7.7857809 -0.12697838 0.96721363
-2.8579686 7.7845311 -0.12636273 0.96737003
-2.7470312 7.7833104 -0.12577304 0.96751994
-2.6371093 7.7820897 -0.12520736 0.96766347
-2.5281639 7.7808886 -0.12466747 0.96780074
-2.4201171 7.7796874 -0.12415069 0.96793199
-2.2066016 7.7773337 -0.12318977 0.96817642
-2.1010547 7.7761817 -0.12274284 0.96828979
-1.9962499 7.7750096 -0.12231937 0.96839762
-1.3809179 7.7682223 -0.12022846 0.96892923
-1.180039 7.765996 -0.11969718 0.96906441
-0.98080075 7.7637987 -0.11924454 0.96917927
-0.88171875 7.7626953 -0.11904868 0.96922928
-0.78292966 7.7616014 -0.11887207 0.96927434
-0.68441403 7.7605176 -0.11871387 0.96931446
-0.58617187 7.7594433 -0.11857566 0.96934974
-0.39027342 7.7572656 -0.11835525 0.96940583
-0.29253906 7.7561913 -0.11827289 0.96942669
-0.09742187 7.7540331 -0.11816623 0.96945405
0 7.7529588 -0.11814003 0.96946061
0.09742187 7.7518945 -0.11813247 0.96946234
0.38980469 7.7486324 -0.11822372 0.96943939
0.48740232 7.7475681 -0.11829101 0.9694221
0.58515626 7.7464938 -0.1183778 0.96940011
0.68308592 7.74541 -0.11848266 0.96937329
0.97804683 7.7421579 -0.11891304 0.96926385
1.0769141 7.7410545 -0.11909431 0.96921766
1.2755859 7.7388768 -0.11951618 0.96911031
1.5766406 7.7355466 -0.12029823 0.96891147
1.6778711 7.7344041 -0.12059879 0.96883506
1.8820312 7.7321677 -0.12126304 0.96866602
2.0885546 7.7298727 -0.12201187 0.96847564
2.403496 7.7263961 -0.12330097 0.96814817
2.5100586 7.7252245 -0.12377506 0.96802741
2.6174414 7.7240429 -0.12427391 0.96790075
2.7256639 7.7228417 -0.12479637 0.96776819
2.8348632 7.721621 -0.1253421 0.96762943
3.168457 7.7179489 -0.12713119 0.96717489
3.2818553 7.7166991 -0.12778038 0.9670102
3.3964257 7.7154293 -0.12845558 0.96683872
3.5122266 7.7141404 -0.12915939 0.96666026
3.6293554 7.7128611 -0.12989067 0.96647447
3.9890039 7.7088766 -0.13226399 0.9658727
4.1119142 7.7075095 -0.13311648 0.96565652
4.2364063 7.7061424 -0.13400188 0.96543211
4.4905858 7.7033396 -0.13587311 0.96495795
4.7521482 7.700449 -0.13788563 0.96444815
5.1596875 7.6959276 -0.14118873 0.9636122
5.7357812 7.68958 -0.14618096 0.96234995
6.0397263 7.6862302 -0.14895618 0.96164906
6.6846871 7.6791015 -0.15513924 0.96008939
7.0281248 7.675293 -0.15858158 0.95922208
7.5733981 7.6692672 -0.16424233 0.95779777
8.5771675 7.658164 -0.17521538 0.95504266
8.7944527 7.6557813 -0.17767406 0.95442611
9.0179882 7.6533103 -0.18023327 0.95378524
9.7295313 7.6454492 -0.18855622 0.95170337
1.2707422 0.94784176 -0.024156876 0.99367809
1.2707813 0.92325193 -0.023935355 0.99373597
1.2709765 0.80657226 -0.022937965 0.9939962
1.2710156 0.78437501 -0.02275875 0.99404287
1.2710546 0.76251954 -0.022586059 0.99408793
1.2711133 0.71973634 -0.022258606 0.99417341
1.2914063 0.70994139 -0.022456054 0.99412191
1.3307421 0.70993161 -0.02298313 0.9939844
1.3719921 0.70993161 -0.023539428 0.9938392
1.4152734 0.70994139 -0.024127312 0.99368584
1.4607812 0.70994139 -0.024749411 0.99352366
1.50875 0.70995116 -0.025408324 0.99335164
1.5592968 0.70995116 -0.026107596 0.99316937
1.6127343 0.70995116 -0.026850929 0.99297565
1.7292968 0.70993161 -0.028485717 0.9925496
1.9976562 0.64904296 -0.032006338 0.99163246
1.9976953 -0.67696285 -0.032141075 0.99159741
1.9977343 -0.70507812 -0.032281797 0.99156082
1.7931249 -0.70996094 -0.029387511 0.99231458
1.6692969 -0.70996094 -0.027641753 0.99276942
1.6127343 -0.70995116 -0.026850509 0.99297565
1.5087109 -0.70996094 -0.02540821 0.99335176
1.4608008 -0.70996094 -0.024749221 0.99352354
1.415293 -0.70995116 -0.024127273 0.99368578
1.2710937 -0.71974605 -0.022258567 0.99417347
1.2710742 -0.74097657 -0.022419281 0.99413145
1.2710351 -0.76252925 -0.022586059 0.99408799
1.2710156 -0.78436524 -0.022758903 0.99404287
1.270957 -0.80659175 -0.022937851 0.9939962
1.2708985 -0.85208005 -0.023315506 0.99389756
1.2708594 -0.87541991 -0.023515129 0.99384552
1.2708203 -0.89913082 -0.023721619 0.9937917
1.2707617 -0.92328125 -0.023935432 0.99373591
10.755527 -8.4515619 -0.20844197 0.94674861
8.5336323 -8.4270115 -0.18275459 0.95315433
8.3194723 -8.4246387 -0.18042137 0.95373833
7.9070311 -8.4200878 -0.17601185 0.9548431
7.5140233 -8.4157324 -0.17191894 0.95586985
7.1386132 -8.4115915 -0.16811584 0.9568249
6.6051364 -8.4057131 -0.16290176 0.95813519
6.2672262 -8.4019728 -0.15972485 0.95893437
6.103086 -8.4001465 -0.15822063 0.95931339
5.6283984 -8.3949022 -0.15401386 0.96037346
5.4756641 -8.3932123 -0.15270793 0.96070266
5.1776953 -8.3899317 -0.15023281 0.96132714
4.8890624 -8.3867283 -0.14792973 0.961909
4.6089454 -8.3836422 -0.14578448 0.96245062
4.2032809 -8.3791599 -0.14284794 0.96319282
3.8131053 -8.3748531 -0.14022274 0.96385682
3.6861327 -8.3734369 -0.13941219 0.96406192
3.3136718 -8.3693256 -0.13716613 0.96463066
2.8343358 -8.3640327 -0.13457137 0.9652878
2.6011133 -8.3614645 -0.13343589 0.96557558
2.4859569 -8.3601856 -0.13290699 0.96570981
2.37166 -8.3589163 -0.13240208 0.96583772
2.2582421 -8.357666 -0.13192287 0.96595931
2.1455858 -8.3564253 -0.13146782 0.96607488
1.922539 -8.3539553 -0.13062656 0.96628809
1.8120313 -8.3527441 -0.13024066 0.96638584
1.7021874 -8.3515234 -0.12987839 0.96647787
1.5928906 -8.3503218 -0.12953769 0.96656424
1.4841992 -8.3491211 -0.12921986 0.96664494
1.2682812 -8.3467283 -0.12864903 0.9667899
1.1610352 -8.3455372 -0.12839623 0.96685421
1.0541797 -8.3443556 -0.12816463 0.9669131
0.84146482 -8.3420115 -0.12776233 0.96701503
0.31443357 -8.3361816 -0.12711936 0.9671784
0.20953125 -8.3350286 -0.12705101 0.96719563
0.10472656 -8.3338575 -0.12700374 0.96720779
-0.10470703 -8.3315525 -0.12696849 0.96721673
-0.52390623 -8.3269234 -0.1271387 0.96717346
-0.73417968 -8.3245993 -0.12734482 0.96712112
-0.83958983 -8.3234177 -0.12747875 0.96708733
-1.3710351 -8.3175678 -0.12845543 0.96683913
-1.4783984 -8.3163767 -0.12871329 0.96677357
-1.6945508 -8.3139839 -0.12929474 0.96662599
-2.0228124 -8.3103609 -0.1303326 0.96636277
-2.1334374 -8.3091497 -0.130723 0.96626353
-2.4696679 -8.3054199 -0.13203658 0.96593052
-2.5833201 -8.3041792 -0.13252182 0.96580732
-2.6978126 -8.3029003 -0.13303268 0.96567798
-2.813164 -8.3016405 -0.13356754 0.96554226
-3.0469141 -8.2990627 -0.13471577 0.96525115
-3.1653125 -8.2977438 -0.13533013 0.9650957
-3.284785 -8.2964058 -0.13597049 0.9649334
-3.4054492 -8.2950974 -0.13663982 0.96476388
-3.5273438 -8.2937403 -0.13733639 0.96458733
-3.6504686 -8.2923822 -0.13806309 0.96440351
-3.7749608 -8.2909956 -0.13881862 0.96421212
-3.9008203 -8.2895994 -0.13960552 0.96401304
-4.0281053 -8.2882032 -0.1404238 0.96380615
-4.2874022 -8.2853317 -0.14215538 0.96336782
-4.4194922 -8.2838764 -0.14307259 0.96313602
-4.6889453 -8.2809076 -0.1450111 0.96264601
-4.9659958 -8.2778416 -0.14709713 0.96211898
-5.1075583 -8.2762794 -0.14819762 0.96184087
-5.3973045 -8.2730761 -0.15052216 0.96125406
-5.696445 -8.2697754 -0.15301906 0.96062416
-5.8498435 -8.2680664 -0.15433651 0.96029216
-6.0058594 -8.2663479 -0.15570049 0.9599483
-6.3265624 -8.2628021 -0.15857898 0.95922309
-6.6595311 -8.2591209 -0.16167022 0.95844501
-7.0059958 -8.2553024 -0.16499072 0.95760977
-7.1846676 -8.2533197 -0.16674331 0.95716947
-7.3671875 -8.2513084 -0.16855918 0.9567132
-7.5537887 -8.2492476 -0.17044227 0.95624018
-7.7446094 -8.247138 -0.17239685 0.95574981
-7.9399219 -8.2449703 -0.1744231 0.95524138
-8.139883 -8.2427635 -0.17652737 0.95471406
-8.3447657 -8.2405081 -0.17870986 0.95416695
-8.5548048 -8.2381935 -0.18097618 0.95359927
-1.0395898 -0.86003906 -0.020559693 0.99461699
-1.0396093 -0.83830076 -0.020350723 0.99467164
-1.039668 -0.81698239 -0.020148886 0.99472433
-1.0397071 -0.79607421 -0.019954186 0.99477518
-1.0397656 -0.77557617 -0.019766387 0.99482417
-1.0397656 -0.75545895 -0.019585038 0.99487168
-1.0398047 -0.73571289 -0.019409865 0.99491733
-1.0398437 -0.71629882 -0.019240875 0.99496144
-1.0589062 -0.70996094 -0.019426689 0.99491286
-1.1187109 -0.70996094 -0.020189894 0.99471349
-1.1504296 -0.70996094 -0.020599365 0.99460649
-1.2913672 -0.70996094 -0.02245613 0.99412203
-1.3307421 -0.70996094 -0.02298313 0.99398434
-1.4152734 -0.70994139 -0.024127388 0.99368584
-1.4607617 -0.70994139 -0.024749184 0.99352372
-1.5592773 -0.70994139 -0.026107443 0.99316949
-1.7293164 -0.70995116 -0.028485907 0.99254954
-1.7758594 -0.70310545 -0.029104309 0.99238831
-24.54414 4.0456443 -0.44798571 0.90527415
-22.665956 4.0292478 -0.41459605 0.91201383
-21.680204 4.4187694 -0.39847049 0.9152866
-21.622314 4.6907129 -0.39845893 0.91528898
-21.428301 5.5018649 -0.39842454 0.91529602
-21.200048 6.3038964 -0.39831808 0.91531765
-21.119141 6.5698047 -0.39831817 0.91531771
-1.7766405 0.65224606 -0.034084242 0.99245703
-1.6127343 0.70992184 -0.031733666 0.99297535
-1.4607812 0.70993161 -0.029250259 0.99352336
-1.2178711 0.70994139 -0.025387343 0.99437618
-1.1503906 0.70994139 -0.024345512 0.99460644
-1.1187109 0.70994139 -0.023861464 0.99471331
-1.0882226 0.70994139 -0.023400078 0.99481535
-1.0589062 0.70995116 -0.022959746 0.99491262
-1.0391015 0.73519528 -0.022924347 0.99492055
-1.0390625 0.75493163 -0.02313076 0.99487489
-1.0389843 0.79553711 -0.023566589 0.99477851
-1.0389453 0.81641603 -0.023796463 0.99472773
-1.0388671 0.85941404 -0.024281578 0.99462056
-1.038789 0.8815918 -0.024537353 0.99456412
-1.0386328 0.95109373 -0.0253627 0.99438167
-8.1442966 7.8429489 -0.20362571 0.95577371
-7.9398241 7.8406835 -0.20096073 0.95633966
-7.7405467 7.8384957 -0.19839486 0.95688486
-7.1718359 7.8321972 -0.19125164 0.95840406
-6.8145504 7.8282518 -0.18691377 0.95932829
-6.6419139 7.8263278 -0.18486105 0.95976585
-6.472949 7.8244824 -0.18288022 0.96018809
-6.307539 7.8226657 -0.18097088 0.96059549
-5.9867773 7.8191013 -0.17735198 0.96136826
-5.6784177 7.8156934 -0.17398284 0.96208823
-5.3813281 7.8124118 -0.17084418 0.96275926
-5.0946484 7.8092575 -0.1679197 0.96338451
-4.9549217 7.8077145 -0.16653472 0.96368092
-4.8174219 7.8061914 -0.16519722 0.9639672
-4.6821094 7.804697 -0.16390796 0.96424341
-4.2882419 7.8003416 -0.16030586 0.96501535
-4.1607032 7.798945 -0.15919018 0.96525466
-4.0349216 7.7975488 -0.15811478 0.96548539
-3.7882812 7.7948141 -0.15607895 0.96592212
-3.6673045 7.7934861 -0.15511741 0.96612847
-3.4296484 7.7908492 -0.1532996 0.96651846
-3.3128905 7.7895508 -0.15244342 0.9667024
-2.9699609 7.7857809 -0.15007061 0.96721214
-2.8579686 7.7845311 -0.14934303 0.96736854
-2.7470312 7.7833104 -0.14864594 0.96751845
-2.5281639 7.7808886 -0.14733928 0.96779931
-2.4201171 7.7796874 -0.14672847 0.9679305
-2.3129687 7.7785153 -0.14614604 0.96805561
-2.2066016 7.7773337 -0.14559081 0.96817493
-1.8921875 7.7738767 -0.14408775 0.96849829
-1.7887695 7.7727146 -0.14363903 0.96859497
-1.6859374 7.7715816 -0.14321572 0.96868622
-1.3809179 7.7682223 -0.14209308 0.9689278
-0.39027342 7.7572656 -0.13987918 0.96940446
-0.19496094 7.7551074 -0.13970684 0.96944141
0.19484374 7.7508006 -0.1396302 0.9694581
0.38980469 7.7486324 -0.13972366 0.96943802
0.68308592 7.74541 -0.14002891 0.96937191
0.78117186 7.7443357 -0.14017624 0.96934026
1.0769141 7.7410545 -0.14075279 0.96921629
1.2755859 7.7388768 -0.14125125 0.96910888
1.3755078 7.7377539 -0.14153591 0.96904778
1.5766406 7.7355466 -0.14217423 0.9689101
1.779668 7.7332811 -0.14291038 0.96875185
1.8820312 7.7321677 -0.14331566 0.96866465
2.192832 7.7287402 -0.14468281 0.96837062
2.2977929 7.7275681 -0.14518951 0.96826154
2.7256639 7.7228417 -0.14748962 0.96776676
2.9449999 7.7204199 -0.14881092 0.96748286
3.0562108 7.7191796 -0.14951538 0.96733141
3.168457 7.7179489 -0.15025119 0.9671734
3.2818553 7.7166991 -0.15101738 0.96700871
3.3964257 7.7154293 -0.15181644 0.96683723
3.6293163 7.7128611 -0.15351146 0.96647298
3.8676758 7.7102051 -0.15534607 0.96607947
3.9890039 7.7088766 -0.15631652 0.96587116
4.1119142 7.7075095 -0.1573249 0.96565491
4.362617 7.7047558 -0.15945636 0.96519774
4.62041 7.7019138 -0.16175003 0.964706
4.7521091 7.700449 -0.16295937 0.96444666
4.8858595 7.6989646 -0.16421489 0.96417773
5.021699 7.6974802 -0.16551651 0.96389908
5.1596875 7.6959276 -0.16686538 0.96361053
5.7357812 7.68958 -0.17276534 0.96234822
5.8862891 7.6879196 -0.17437553 0.96200407
6.0397263 7.6862302 -0.17604534 0.96164727
6.1960936 7.6844921 -0.17777446 0.96127796
6.3556442 7.6827245 -0.17956783 0.96089512
6.6846871 7.6791015 -0.18335271 0.9600876
6.8545117 7.6772165 -0.18534902 0.95966172
7.9594922 7.6650095 -0.1990035 0.95675516
8.5771484 7.658164 -0.2070784 0.95504063
8.7944527 7.6557813 -0.20998554 0.95442408
9.485117 7.6481442 -0.21943358 0.95242316
9.9816408 7.6426463 -0.22640321 0.95094955
1.2699219 0.92264646 -0.028268851 0.99373984
1.27 0.8747949 -0.027772674 0.99384946
1.2700976 0.82859373 -0.027310638 0.99395144
1.2701952 0.78385741 -0.026880225 0.99404645
1.2702539 0.74047852 -0.026479568 0.99413502
1.2702734 0.71929687 -0.026289977 0.99417692
1.3307421 0.70993161 -0.027162818 0.9939841
1.3719921 0.70993161 -0.027820358 0.99383891
1.4152734 0.70994139 -0.028515128 0.99368554
1.50875 0.70995116 -0.030028839 0.99335134
1.6692969 0.70994139 -0.032668646 0.99276912
1.7931445 0.70994139 -0.034731749 0.99231416
1.9997265 0.64973629 -0.037866402 0.9916234
21.442734 -5.5055566 -0.39869505 0.91524148
21.371836 -5.7745895 -0.39869502 0.91524154
1.9997656 -0.67765623 -0.038025931 0.99158835
1.9337695 -0.70994139 -0.037098236 0.99179262
1.7931249 -0.70996094 -0.034731828 0.99231422
1.6127343 -0.70995116 -0.031733628 0.99297529
1.5592968 -0.70996094 -0.030855292 0.99316907
1.415293 -0.70995116 -0.028515015 0.99368548
1.3719921 -0.70994139 -0.027820319 0.99383891
1.3307421 -0.70994139 -0.027162857 0.9939841
1.2914063 -0.70994139 -0.026539803 0.99412167
1.2703124 -0.71930665 -0.02628994 0.99417675
1.2702734 -0.74050778 -0.026479645 0.9941349
1.2702343 -0.76203126 -0.026676331 0.99409145
1.2701952 -0.78386718 -0.026880378 0.99404645
1.27 -0.87480468 -0.027772788 0.99384946
1.2699609 -0.89851558 -0.028016586 0.99379563
1.2699023 -0.92264646 -0.028269004 0.9937399
11.042402 -8.4547262 -0.25046334 0.94588071
10.755527 -8.4515619 -0.24634548 0.94674623
9.6952734 -8.4398432 -0.23149464 0.94987494
9.4497261 -8.437129 -0.22814563 0.95058197
8.9791403 -8.4319334 -0.22183084 0.95191622
8.7533789 -8.4294338 -0.21885328 0.952546
8.5336323 -8.4270115 -0.21598995 0.95315218
7.9070311 -8.4200878 -0.20801966 0.95484108
7.7082028 -8.417881 -0.20555708 0.95536387
7.5140233 -8.4157324 -0.2031825 0.95586789
6.9570312 -8.4095697 -0.19655904 0.95727539
6.7792578 -8.4076271 -0.19450612 0.95771194
6.4345312 -8.4038086 -0.19061615 0.95853996
6.2672262 -8.4019728 -0.18877247 0.95893252
5.4756837 -8.3932123 -0.1804795 0.96070081
5.1776953 -8.3899317 -0.17755413 0.96132541
5.0322657 -8.38832 -0.17616752 0.96162146
4.7479687 -8.3851662 -0.17354022 0.962183
4.6089454 -8.3836422 -0.17229557 0.96244895
4.3367186 -8.3806448 -0.16993992 0.96295267
4.2032809 -8.3791599 -0.16882508 0.96319115
4.0716209 -8.3776951 -0.16775219 0.96342087
3.6861327 -8.3734369 -0.16476566 0.96406025
3.3136718 -8.3693256 -0.16210979 0.96462905
3.1920702 -8.3679981 -0.16129367 0.96480387
3.0716991 -8.3666697 -0.16051178 0.96497154
2.9524415 -8.3653316 -0.1597628 0.96513242
2.8343358 -8.3640327 -0.15904464 0.9652862
2.7172265 -8.3627539 -0.15835877 0.96543336
2.6011133 -8.3614645 -0.15770248 0.96557403
2.4859765 -8.3601751 -0.15707615 0.96570826
2.37166 -8.3589163 -0.15648071 0.96583617
2.2582421 -8.357666 -0.1559132 0.96595782
2.1455858 -8.3564253 -0.15537517 0.96607333
1.922539 -8.3539553 -0.15438217 0.96628654
1.7021874 -8.3515234 -0.15349799 0.96647638
1.5928906 -8.3503218 -0.1530963 0.96656275
1.4842187 -8.3491116 -0.15271977 0.96664345
1.3760351 -8.3479099 -0.15237014 0.96671867
1.2683008 -8.3467283 -0.15204498 0.96678841
0.94763672 -8.3431835 -0.15122035 0.9669652
0.73558593 -8.3408499 -0.15079616 0.96705651
0.62998044 -8.3396778 -0.15062054 0.96709436
0.52460939 -8.3385057 -0.15046807 0.96712708
0.41943359 -8.3373537 -0.15034062 0.9671545
0.20953125 -8.3350286 -0.15015636 0.96719414
0.10472656 -8.3338575 -0.15009941 0.9672063
-0.10470703 -8.3315525 -0.15005672 0.96721524
-0.31414062 -8.3292475 -0.15011089 0.96720374
-0.52390623 -8.3269234 -0.15025897 0.96717197
-0.83958983 -8.3234177 -0.15065971 0.96708584
-1.0512109 -8.3211031 -0.15104812 0.96700233
-1.1574414 -8.3199215 -0.15128036 0.96695274
-1.264043 -8.3187494 -0.1515353 0.96689785
-1.3710155 -8.3175488 -0.15181622 0.9668377
-1.4783984 -8.3163767 -0.15212104 0.96677208
-1.8033594 -8.3127832 -0.15319011 0.96654242
-2.0228124 -8.3103609 -0.15403366 0.96636122
-2.3568358 -8.3066797 -0.15550296 0.96604598
-2.4696679 -8.3054199 -0.15604846 0.96592903
-2.5832813 -8.3041792 -0.15662216 0.96580583
-2.9295311 -8.3003416 -0.15852065 0.96539849
-3.0469141 -8.2990627 -0.15921402 0.9652496
-3.1652734 -8.2977438 -0.15994099 0.96509415
-3.284785 -8.2964058 -0.16069797 0.96493179
-3.5273438 -8.2937403 -0.16231231 0.96458578
-3.6504686 -8.2923822 -0.16317111 0.9644019
-3.7749608 -8.2909956 -0.16406406 0.96421051
-4.0281053 -8.2882032 -0.16595885 0.96380454
-4.2873826 -8.2853317 -0.16800636 0.96336621
-4.9659958 -8.2778416 -0.17384796 0.96211725
-5.1075583 -8.2762794 -0.17514865 0.9618392
-5.3973045 -8.2730761 -0.17789482 0.96125227
-5.5456443 -8.2714357 -0.17934489 0.96094292
-5.696445 -8.2697754 -0.18084693 0.96062237
-5.849824 -8.2680664 -0.18240392 0.96029037
-6.1647654 -8.2645893 -0.18568723 0.9595902
-6.3265624 -8.2628021 -0.18741801 0.95922124
-6.6595311 -8.2591209 -0.19107011 0.95844311
-6.830996 -8.2572365 -0.19299646 0.95803291
-7.0059958 -8.2553024 -0.19499454 0.95760787
-7.7446094 -8.247138 -0.20374893 0.95574784
-7.9399219 -8.2449703 -0.20614332 0.95523936
-8.139883 -8.2427635 -0.20863006 0.95471197
-8.3447657 -8.2405081 -0.21120948 0.95416492
-1.0386328 -0.95107418 -0.025362434 0.99438173
-1.0387695 -0.90425777 -0.024802208 0.99450541
-1.0389062 -0.8376953 -0.024034653 0.9946751
-1.0389453 -0.81641603 -0.023796501 0.99472773
-1.0391015 -0.73520505 -0.022924155 0.99492055
-1.0391601 -0.71581054 -0.022724953 0.99496454
-1.0882422 -0.70994139 -0.023399886 0.99481529
-1.1187109 -0.70996094 -0.023861464 0.99471325
-1.3307421 -0.70996094 -0.027163047 0.99398404
-1.4152734 -0.70994139 -0.028514976 0.99368554
-1.4607617 -0.70994139 -0.029249916 0.99352342
-1.5592773 -0.70994139 -0.030855292 0.99316919
-1.7292968 -0.70995116 -0.03366581 0.99254924
-1.7766796 -0.67773438 -0.034245566 0.99242139
-1.7766405 -0.65227538 -0.034084283 0.99245697
-20.865635 -7.364326 -0.39849532 0.91528231
-21.286728 -6.0396094 -0.39849189 0.91528285
-21.360947 -5.7716308 -0.39849129 0.91528285
-21.499228 -5.2330079 -0.39849001 0.91528291
-21.563311 -4.9624219 -0.39848942 0.91528285
-21.623974 -4.6910739 -0.39848885 0.91528279
-21.73501 -4.1461716 -0.39848778 0.91528291
-24.135937 9.7656248e-06 -0.5015617 0.90795124
-24.128309 0.60654294 -0.50156111 0.90795124
-24.105438 1.212705 -0.50156057 0.9079513
-24.08831 1.5155176 -0.50156033 0.90795124
-24.067362 1.8180761 -0.50156009 0.90795124
-24.04248 2.1203516 -0.50155991 0.90795177
-23.945488 3.0250096 -0.50155938 0.90795171
-23.905596 3.325664 -0.50155926 0.90795171
-23.861885 3.6258202 -0.50155914 0.90795177
-23.814453 3.9253807 -0.50155908 0.90795177
-22.613241 4.0198827 -0.47728592 0.91220468
-20.971201 4.0004687 -0.44365448 0.9181304
-18.566153 4.7669921 -0.39833227 0.92617691
-18.504795 4.9999218 -0.39833233 0.92617685
-18.440477 5.2320409 -0.39833236 0.92617697
-18.373291 5.4633594 -0.39833245 0.92617691
-18.303192 5.6938086 -0.39833254 0.92617691
-18.230194 5.9233594 -0.39833263 0.92617691
-18.154316 6.1519628 -0.39833274 0.92617697
-1.7774999 0.65256834 -0.039348297 0.99245298
-1.777539 0.70375973 -0.03972847 0.99238038
-1.7292968 0.70994139 -0.038846739 0.99254888
-1.5592773 0.70994139 -0.035603523 0.99316877
-1.3719531 0.70994139 -0.032101631 0.99383873
-1.2913672 0.70993161 -0.030623969 0.99412149
-1.2178711 0.70994139 -0.029294204 0.99437588
-1.1834375 0.70995116 -0.028678283 0.99449378
-1.1503906 0.70994139 -0.028092079 0.99460614
-1.1187109 0.70994139 -0.027533492 0.99471301
-1.0589062 0.70995116 -0.026492691 0.99491239
-1.0384375 0.73471677 -0.026434325 0.99492353
-1.0382617 0.79498047 -0.027174529 0.99478191
-1.0382227 0.81582028 -0.027439423 0.99473119
-1.038164 0.83708984 -0.027713737 0.99467862
-1.0380468 0.88094723 -0.02829277 0.99456775
-1.0378711 0.95037109 -0.029243849 0.99438554
-8.3543158 7.8452635 -0.23815584 0.95518345
-8.1442966 7.8429489 -0.23496059 0.95577139
-7.7405467 7.8384957 -0.22892457 0.9568826
-7.5463281 7.8363376 -0.22607446 0.95740777
-6.9911523 7.830205 -0.21813509 0.95887238
-6.8145504 7.8282518 -0.2156783 0.95932615
-6.6419139 7.8263378 -0.21330953 0.95976371
-6.472949 7.8244824 -0.21102418 0.96018595
-5.8311133 7.8173828 -0.20266519 0.96173257
-5.3813281 7.8124118 -0.19713421 0.96275729
-5.2367773 7.8108201 -0.19541833 0.9630754
-4.0349216 7.7975488 -0.18244609 0.96548355
-3.9108202 7.7961621 -0.18125024 0.96570599
-3.7882812 7.7948141 -0.18009704 0.96592033
-3.1973436 7.788281 -0.17495354 0.96687752
-2.8579686 7.7845311 -0.1723246 0.96736687
-2.7470312 7.7833104 -0.17151916 0.96751672
-2.6371093 7.7820897 -0.17074893 0.96766031
-2.5281639 7.7808886 -0.1700114 0.96779758
-2.2066016 7.7773337 -0.16799721 0.96817327
-2.1010547 7.7761817 -0.16738892 0.96828669
-1.8921875 7.7738767 -0.16626167 0.96849662
-1.6859765 7.7716012 -0.1652544 0.96868443
-1.4820703 7.7693357 -0.16436218 0.96885091
-1.3809179 7.7682223 -0.16395794 0.96892619
-1.180039 7.765996 -0.16323429 0.96906137
-1.0802344 7.7648826 -0.16291347 0.9691214
-0.88171875 7.7626953 -0.16235012 0.96922624
-0.78291017 7.7616014 -0.1621083 0.96927136
-0.68441403 7.7605176 -0.16189361 0.96931148
-0.58617187 7.7594433 -0.16170402 0.9693467
-0.29253906 7.7561913 -0.1612931 0.96942365
-0.09742187 7.7540331 -0.16114646 0.96945107
0 7.7529688 -0.16110978 0.96945757
0.19484374 7.7508006 -0.16111602 0.96945649
0.38980469 7.7486324 -0.16122405 0.96943641
0.58515626 7.7464938 -0.16143516 0.96939707
0.87949216 7.7432418 -0.16194405 0.96930218
0.97804683 7.7421579 -0.16216411 0.96926087
1.3755078 7.7377539 -0.16331615 0.96904618
1.5766406 7.7355466 -0.1640538 0.96890843
1.779668 7.7332811 -0.16490296 0.96875018
1.9849609 7.7310252 -0.16586524 0.96857047
2.0885546 7.7298727 -0.16639122 0.96847254
2.192832 7.7287402 -0.1669461 0.96836895
2.2977929 7.7275681 -0.16753207 0.96825987
2.6174414 7.7240429 -0.1694757 0.96789759
2.8348632 7.721621 -0.17093135 0.96762627
2.9449999 7.7204199 -0.17171063 0.9674812
3.168457 7.7179489 -0.17337249 0.96717167
3.2818553 7.7166991 -0.17425659 0.96700698
3.3964257 7.7154293 -0.17517853 0.96683544
3.5122266 7.7141404 -0.17613827 0.96665698
3.7478125 7.7115426 -0.17817356 0.9662782
3.8676758 7.7102051 -0.17925148 0.96607769
3.989043 7.7088766 -0.1803709 0.96586931
4.1119142 7.7075095 -0.18153362 0.96565312
4.362617 7.7047558 -0.18399417 0.96519589
4.4905858 7.7033396 -0.18529394 0.9649545
4.7521091 7.700449 -0.18803863 0.96444476
5.021699 7.6974802 -0.19098806 0.96389717
5.1596875 7.6959276 -0.19254334 0.96360862
5.2999997 7.6944041 -0.19415498 0.96330947
5.7357812 7.68958 -0.19935113 0.96234626
6.0397263 7.6862302 -0.20313714 0.96164531
6.1960936 7.6844921 -0.20513275 0.96127588
6.6846871 7.6791015 -0.21156758 0.96008545
6.8545117 7.6772165 -0.21387158 0.95965958
7.0281248 7.675293 -0.21626247 0.95921808
7.2057028 7.6733298 -0.21874166 0.95876032
7.3873825 7.6713281 -0.22131371 0.95828581
7.9594922 7.6650095 -0.22962995 0.9567529
8.7944527 7.6557813 -0.24229923 0.9544217
9.0179882 7.6533103 -0.24578895 0.95378071
9.248105 7.6507711 -0.24941969 0.95311409
9.9816408 7.6426463 -0.26124558 0.95094699
1.2689843 0.94654292 -0.032898407 0.9936862
1.269043 0.92200196 -0.032597084 0.99374384
1.2691015 0.89790034 -0.032305982 0.99379951
1.2691797 0.87422848 -0.032025337 0.99385309
1.2692187 0.85092771 -0.031754415 0.99390507
1.2692578 0.82803708 -0.031492766 0.99395514
1.2693359 0.80551755 -0.031240234 0.99400336
1.269375 0.78336912 -0.030996703 0.99404997
1.269453 0.7400195 -0.030535201 0.99413836
1.2695312 0.71881837 -0.030316619 0.99418014
1.3307421 0.70993161 -0.031342886 0.99398381
1.7292968 0.70993161 -0.038846817 0.99254888
1.7931445 0.70994139 -0.040076599 0.99231374
2.0019336 0.70655274 -0.04411621 0.99154228
2.0017967 0.65041012 -0.043739278 0.99161428
18.311289 5.6963377 -0.39850712 0.92614549
23.229609 6.5908203 -0.50178051 0.90791285
23.310547 6.2983985 -0.50178123 0.90791303
23.531523 5.4153709 -0.50178319 0.90791249
23.597675 5.1192579 -0.50178385 0.90791261
23.660175 4.8223143 -0.50178444 0.90791249
23.719023 4.5246387 -0.5017851 0.90791208
23.774023 4.2262497 -0.50178564 0.90791196
23.825274 3.9271679 -0.50178623 0.9079119
23.872734 3.627461 -0.50178677 0.90791196
23.992773 2.7251368 -0.50178826 0.90791094
24.025116 2.4234276 -0.50178879 0.90791094
24.053671 2.1213281 -0.50178921 0.90791094
24.078438 1.8189062 -0.50178963 0.90791088
24.099375 1.5162109 -0.50179005 0.907911
24.116524 1.2132422 -0.50179046 0.907911
24.129883 0.91009766 -0.50179088 0.90791094
24.145117 0.30340821 -0.5017916 0.907911
24.145117 -0.3034375 -0.50179225 0.907911
24.139414 -0.60682619 -0.50179249 0.90791094
24.129883 -0.91010737 -0.50179285 0.90791094
24.116543 -1.2132617 -0.50179309 0.90791088
24.025234 -2.4234569 -0.50179392 0.90791053
23.992929 -2.7251756 -0.5017941 0.90791035
23.956757 -3.0264354 -0.50179422 0.90791047
23.873125 -3.6275291 -0.50179452 0.90791053
23.825663 -3.9272168 -0.50179458 0.90791047
23.774452 -4.2262988 -0.50179464 0.90791041
22.612539 -4.6087985 -0.47956452 0.9118045
18.791796 -4.5740232 -0.40190813 0.92553943
18.520977 -5.0042968 -0.3986806 0.92611474
18.319218 -5.6987891 -0.39868042 0.92611474
2.0017967 -0.65042967 -0.043739129 0.99161428
2.0018554 -0.67837888 -0.043923378 0.99157912
1.9337695 -0.70994139 -0.042807236 0.9917922
1.8611327 -0.70997071 -0.04139347 0.99206215
1.7931249 -0.70996094 -0.04007652 0.9923138
1.6692969 -0.70996094 -0.037695922 0.9927687
1.4608008 -0.70996094 -0.03375122 0.99352294
1.415293 -0.70995116 -0.032902982 0.99368513
1.2914063 -0.70994139 -0.030623816 0.99412131
1.269453 -0.74002928 -0.030535048 0.99413836
1.2692773 -0.82806641 -0.031492919 0.99395502
1.2691406 -0.89791012 -0.03230606 0.99379933
1.269043 -0.92201167 -0.032596968 0.99374384
1.2689843 -0.94657224 -0.032898597 0.99368608
11.042402 -8.4547262 -0.28900754 0.94587791
10.477851 -8.4484863 -0.27970183 0.94757402
9.6952734 -8.4398432 -0.26711947 0.94987231
9.4497261 -8.437129 -0.26325384 0.9505794
8.9791403 -8.4319334 -0.25596884 0.95191371
8.7533979 -8.4294233 -0.25253308 0.9525435
8.5336323 -8.4270115 -0.24922763 0.95314974
8.3194723 -8.4246387 -0.24604593 0.9537338
8.1106834 -8.4223242 -0.242982 0.95429653
7.9070311 -8.4200878 -0.24003106 0.95483869
7.7082028 -8.417881 -0.23718905 0.95536155
7.5140233 -8.4157324 -0.23445049 0.95586556
7.3242188 -8.4136524 -0.23180923 0.95635164
6.9570312 -8.4095697 -0.22680776 0.95727319
6.6051364 -8.4057131 -0.2221538 0.95813107
6.4344921 -8.4038277 -0.21995029 0.95853782
5.9419923 -8.3983784 -0.21379021 0.95967525
5.7838082 -8.3966303 -0.21187833 0.96002853
5.3254685 -8.3915529 -0.206534 0.9610166
5.1776953 -8.3899317 -0.20487691 0.96132338
5.0322657 -8.38832 -0.20327799 0.9616195
4.8890624 -8.3867283 -0.20173436 0.96190524
4.7479687 -8.3851662 -0.20024534 0.96218103
4.6089454 -8.3836422 -0.19881064 0.96244693
4.3367186 -8.3806448 -0.19609219 0.96295071
4.2032809 -8.3791599 -0.19480592 0.96318924
3.6861327 -8.3734369 -0.19012064 0.9640584
3.3136718 -8.3693256 -0.18705723 0.96462721
2.9524415 -8.3653316 -0.18434881 0.96513057
2.8343358 -8.3640327 -0.18352015 0.96528441
2.7172265 -8.3627539 -0.18272758 0.96543157
2.37166 -8.3589163 -0.18056065 0.96583438
2.2582421 -8.357666 -0.17990704 0.96595597
2.1455858 -8.3564253 -0.17928603 0.96607155
2.0336914 -8.355195 -0.17869678 0.9661811
1.8120313 -8.3527441 -0.17761397 0.96638256
1.7021874 -8.3515234 -0.17711891 0.96647459
1.4842187 -8.3491116 -0.17622092 0.96664172
1.2683008 -8.3467283 -0.17544235 0.96678662
1.1610352 -8.3455372 -0.17509742 0.96685094
1.0541797 -8.3443556 -0.17478129 0.96690989
0.73558593 -8.3408499 -0.17400233 0.96705478
0.52460939 -8.3385057 -0.17362274 0.96712536
-0.10470703 -8.3315525 -0.17315029 0.96721351
-0.52386719 -8.3269234 -0.17338149 0.96717024
-0.62894529 -8.3257713 -0.17350872 0.96714664
-1.0512109 -8.3211031 -0.17429413 0.96700054
-1.8033594 -8.3127832 -0.17676468 0.96654063
-1.9127734 -8.3115816 -0.17723663 0.9664529
-2.5832813 -8.3041792 -0.18072388 0.96580404
-2.9295311 -8.3003416 -0.18291558 0.9653967
-3.5273438 -8.2937403 -0.18728966 0.96458387
-3.6504686 -8.2923822 -0.18827946 0.96439999
-3.7749608 -8.2909956 -0.18931103 0.9642086
-3.9008203 -8.2895994 -0.19038288 0.96400952
-4.0281053 -8.2882032 -0.19149978 0.96380264
-4.5533204 -8.282402 -0.19640876 0.96289188
-5.1075583 -8.2762794 -0.20210133 0.96183717
-5.2513084 -8.2747068 -0.20365869 0.96154886
-5.3973045 -8.2730761 -0.20527264 0.96125025
-5.5456443 -8.2714357 -0.20694435 0.96094084
-5.696445 -8.2697754 -0.20867668 0.96062028
-5.849824 -8.2680664 -0.21047185 0.96028829
-6.0058594 -8.2663479 -0.21233295 0.95994443
-6.1647654 -8.2645893 -0.21426024 0.95958811
-6.4914451 -8.2609768 -0.21832834 0.95883685
-7.0059958 -8.2553024 -0.22500382 0.95760566
-7.1846676 -8.2533197 -0.2273923 0.9571653
-7.5537887 -8.2492476 -0.23243716 0.95623589
-8.139883 -8.2427635 -0.24073343 0.95470965
-8.3447657 -8.2405081 -0.24371161 0.95416248
-1.0378906 -0.95037109 -0.029243965 0.99438548
-1.0379688 -0.92672849 -0.028915253 0.99444836
-1.0380859 -0.88098633 -0.028292885 0.99456751
-1.038164 -0.8371191 -0.027713699 0.99467856
-1.0382617 -0.79498047 -0.027174415 0.99478191
-1.0383203 -0.77452147 -0.02691902 0.99483079
-1.0383984 -0.75443357 -0.026672363 0.99487793
-1.0384375 -0.73471677 -0.026434287 0.99492353
-1.0384766 -0.71535152 -0.026204718 0.99496758
-1.0589062 -0.70996094 -0.026492957 0.99491233
-1.0882422 -0.70994139 -0.027001113 0.99481499
-1.1187109 -0.70996094 -0.027533645 0.99471301
-1.1834179 -0.70996094 -0.028678207 0.99449384
-1.3719531 -0.70993161 -0.032101516 0.99383873
-1.4152734 -0.70994139 -0.032903176 0.99368525
-1.5592773 -0.70994139 -0.035603598 0.99316877
-1.6126952 -0.70995116 -0.036616974 0.99297506
-1.6692773 -0.70994139 -0.037695885 0.99276882
-1.777539 -0.70378906 -0.039728697 0.99238032
-1.7774999 -0.67806637 -0.039534416 0.99241751
-1.7774999 -0.65257812 -0.039347991 0.99245298
-18.162294 -6.1546874 -0.39850691 0.92614573
-18.238213 -5.9259567 -0.39850631 0.92614567
-18.381269 -5.4657421 -0.39850512 0.92614609
-18.448477 -5.2343063 -0.39850456 0.92614615
-18.512821 -5.0020704 -0.39850402 0.92614609
-18.574188 -4.7690625 -0.39850348 0.92614615
-18.688076 -4.3007421 -0.39850241 0.92614651
-18.838379 -4.0867677 -0.40058029 0.92577606
-23.862314 -3.6258788 -0.50156689 0.90795022
-23.945898 -3.0250781 -0.50156581 0.90795022
-23.981884 -2.7239063 -0.50156534 0.9079507
-24.014208 -2.4223144 -0.50156486 0.90795076
-24.042763 -2.1203711 -0.50156438 0.9079507
-24.067499 -1.8180859 -0.50156397 0.90795076
-24.088467 -1.5155078 -0.50156349 0.9079507
-24.105595 -1.2126952 -0.50156313 0.90795076
-24.118799 -0.90967768 -0.50156277 0.90795118
-24.128321 -0.60652339 -0.50156236 0.90795124
-21.294384 0.26760742 -0.50157493 0.91832137
-21.269159 1.0699999 -0.50157422 0.91832137
-21.254042 1.3371875 -0.50157398 0.91832137
-21.213739 1.8708886 -0.50157362 0.91832131
-21.15999 2.4033983 -0.50157332 0.91832143
-21.092802 2.934375 -0.50157309 0.91832185
-21.054268 3.1991992 -0.50157297 0.91832179
-21.012421 3.4635057 -0.50157291 0.91832179
-20.967216 3.7272851 -0.50157285 0.91832185
-20.918739 3.990459 -0.50157279 0.91832179
-19.527901 3.9800975 -0.4693867 0.92335671
-17.196611 3.9575293 -0.41561046 0.93183076
-16.433203 3.999912 -0.39834327 0.93456811
-16.270761 4.6164355 -0.39834338 0.93456817
-16.211473 4.8205271 -0.39834341 0.93456817
-16.149706 5.0238867 -0.3983435 0.93456781
-16.085283 5.2264452 -0.39834362 0.93456787
-16.018358 5.4281344 -0.39834371 0.93456781
-12.092021 4.2677636 -0.30201262 0.94998747
-1.7783399 0.6529004 -0.04461769 0.99244893
-1.7783984 0.70413083 -0.045049284 0.99237621
-1.7292968 0.70994139 -0.044028319 0.99254841
-1.5087109 0.70994139 -0.039271772 0.99335074
-1.4607812 0.70993161 -0.038253326 0.99352264
-1.4152343 0.70995116 -0.037291754 0.99368495
-1.2913672 0.70993161 -0.034708671 0.99412113
-1.2178711 0.70994139 -0.033201523 0.99437553
-1.1834375 0.70995116 -0.032503355 0.99449348
-1.1503906 0.70994139 -0.03183895 0.99460584
-1.0882226 0.70994139 -0.030602455 0.99481475
-1.0589062 0.70995116 -0.030026473 0.99491209
-1.0376562 0.75391603 -0.030209502 0.99488121
-1.0373242 0.88032222 -0.03204361 0.99457121
-1.0372461 0.90292966 -0.032389488 0.9945128
