# .PCD v0.7 - Point Cloud Data file format
VERSION 0.7
FIELDS x y z intensity
SIZE 4 4 4 4
TYPE F F F F
COUNT 1 1 1 1
WIDTH 1098
HEIGHT 1
VIEWPOINT 0 0 0 1 0 0 0
POINTS 1098
DATA ascii
-3.5405664 7.7763085 0.15387756 0.96639454
-3.1908593 7.7724414 0.15131271 0.96694547
-2.5230079 7.7650585 0.14703915 0.96786374
-2.2021289 7.7615232 0.14529578 0.96823859
-2.0968163 7.7603512 0.14476986 0.96835184
-1.9922265 7.7591991 0.14426956 0.96845943
-1.8883593 7.7580466 0.14379616 0.96856141
-1.5805078 7.7546482 0.14252526 0.96883452
-1.4790624 7.7535152 0.14215325 0.96891499
-1.378125 7.7524023 0.14180382 0.96899009
-1.2776757 7.7512984 0.14147891 0.96906006
-1.1776562 7.750195 0.14117599 0.96912497
-1.0780468 7.7491112 0.14089946 0.96918476
-0.97878903 7.7479882 0.14064415 0.96923971
-0.78132808 7.7458301 0.14020367 0.96933442
-0.58496094 7.7436423 0.13985477 0.96940976
-0.48710936 7.742578 0.13971305 0.9694401
-0.38945311 7.7414842 0.13959454 0.96946573
-0.2919336 7.7404099 0.13949737 0.96948653
-0.1945703 7.7393165 0.13942325 0.96950263
1.953125e-05 7.7371774 0.13934028 0.96952045
0.09722656 7.7361035 0.13933212 0.96952224
0.19445312 7.7350292 0.13934627 0.96951926
0.38902342 7.7328906 0.13943924 0.96949911
0.48644531 7.7318163 0.1395185 0.96948195
0.77957028 7.7285743 0.13989219 0.96940172
0.87769532 7.7275 0.14006057 0.96936524
0.97605467 7.7263961 0.14025265 0.96932411
1.0747266 7.7253027 0.14046638 0.96927798
1.2730078 7.723125 0.14096351 0.96917081
1.4728124 7.7209177 0.14155491 0.96904361
1.5733789 7.7198143 0.14188537 0.96897238
1.6744531 7.7186718 0.1422409 0.96889603
1.8781836 7.7164254 0.14302418 0.96872741
2.1883593 7.7129979 0.14438739 0.96843404
2.2931249 7.7118359 0.14489333 0.96832508
2.3986132 7.7106738 0.14542781 0.96821046
2.5049219 7.7095118 0.14598751 0.96809
2.6120703 7.7083201 0.14657459 0.96796364
2.7201171 7.707119 0.14718997 0.96783131
2.8290625 7.7059374 0.14783402 0.96769273
3.0499804 7.7034664 0.14921135 0.96739686
3.1620116 7.7022457 0.14994682 0.96723908
3.5050976 7.6984472 0.15233681 0.96672541
3.621953 7.6971483 0.15319969 0.9665401
3.7401757 7.6958299 0.15409698 0.96634752
3.9809375 7.693193 0.15599899 0.96593928
4.1035547 7.6918259 0.15700477 0.96572357
4.3537498 7.6890817 0.15913101 0.9652673
4.4814649 7.6876755 0.16025482 0.96502632
4.8759375 7.6833105 0.1638826 0.96424925
5.1492186 7.6802926 0.16652595 0.96368313
5.289238 7.6787305 0.1679206 0.96338469
6.0274415 7.6705761 0.17568755 0.96172386
6.183496 7.6688571 0.17741363 0.96135515
6.8405857 7.661582 0.18497352 0.95974213
7.3723631 7.6557322 0.19140799 0.95837098
7.5580077 7.6536617 0.19371612 0.95787984
8.1433592 7.6471972 0.20118445 0.95629221
8.7765627 7.6401954 0.20955947 0.95451468
9.4658594 7.6325974 0.21898879 0.95251751
9.7097263 7.6298923 0.22239409 0.95179707
1.2903515 0.9374609 0.028723793 0.99363953
1.2901562 0.91279292 0.028462181 0.99369729
1.2898242 0.86476558 0.027966423 0.99380672
1.2896875 0.84134763 0.027731704 0.99385852
1.2895312 0.8183496 0.027505111 0.99390852
1.2892187 0.77341795 0.02707592 0.99400342
1.2889843 0.72985351 0.026676407 0.99409145
1.3307421 0.70994139 0.027162857 0.9939841
1.4608008 0.70995116 0.029250106 0.9935233
1.5592773 0.70995116 0.030855255 0.99316913
1.6127148 0.70994139 0.031733587 0.99297541
1.9728711 0.69628906 0.037678413 0.99166501
1.9729687 0.66856444 0.03751602 0.99170059
1.9729296 -0.66857421 0.037516136 0.99170077
1.9728906 -0.6963281 0.037678108 0.99166489
1.9337499 -0.70995116 0.037098274 0.99179268
1.7931249 -0.70996094 0.034731902 0.99231422
1.7293359 -0.70996094 0.033666115 0.99254912
1.6127343 -0.70997071 0.031733587 0.99297529
1.5087304 -0.70995116 0.030028876 0.9933514
1.4607812 -0.70996094 0.029250221 0.99352336
1.4152734 -0.70996094 0.028515166 0.99368554
1.3719921 -0.70995116 0.027820319 0.99383885
1.3307421 -0.70993161 0.027162895 0.9939841
1.2913867 -0.70996094 0.026539916 0.99412167
1.2890821 -0.75148433 0.026872406 0.9940483
1.2892187 -0.77342772 0.027075768 0.99400342
1.2898047 -0.86478513 0.027966384 0.99380672
1.29 -0.88857418 0.028209839 0.9937529
1.2903125 -0.9375 0.028723793 0.99363953
11.360547 -8.4740133 0.25524291 0.94487673
11.063281 -8.4707327 0.25093862 0.94578117
10.775859 -8.4675684 0.24681243 0.94664824
9.9670315 -8.4586325 0.23542754 0.94904554
9.7136517 -8.4558201 0.23193321 0.94978237
9.2285547 -8.4504585 0.22535217 0.95117205
8.9961329 -8.4478903 0.22225128 0.95182747
8.7699413 -8.4453907 0.21926819 0.95245838
8.5497656 -8.4429684 0.21639816 0.95306569
8.3351955 -8.4405956 0.21363586 0.95365077
8.1260157 -8.4382906 0.21097548 0.95421445
7.9219723 -8.4360352 0.20841491 0.95475763
7.7227731 -8.4338179 0.20594551 0.95528132
7.1521091 -8.4275198 0.19906349 0.95674306
6.7920704 -8.4235353 0.19487418 0.95763367
6.6176562 -8.4216213 0.19289115 0.95805568
6.4466796 -8.4197168 0.19097625 0.95846319
6.2790427 -8.417861 0.18913147 0.95885652
5.1875 -8.4058104 0.17789017 0.96125364
4.8983202 -8.402607 0.17516212 0.96183652
4.7569723 -8.4010448 0.1738694 0.96211272
4.6176562 -8.3995018 0.17262283 0.96237928
4.2112498 -8.3950195 0.16914566 0.96312279
3.9490428 -8.3921289 0.1670333 0.96357459
3.8203125 -8.3907032 0.16603629 0.96378803
3.6931055 -8.389287 0.16507721 0.96399349
3.5673437 -8.3879004 0.16415489 0.96419102
3.0774999 -8.3824902 0.16081634 0.96490651
2.9580662 -8.3811817 0.16006576 0.96506745
2.2624805 -8.373476 0.15620872 0.96589452
2.0374999 -8.371006 0.15515876 0.96612
1.9261328 -8.3697748 0.15467338 0.96622384
1.8154687 -8.368535 0.15421753 0.96632183
1.7053906 -8.3673143 0.15378876 0.96641409
1.3785741 -8.3637304 0.1526577 0.96665674
0.94945312 -8.358984 0.15150787 0.96690369
0.84308594 -8.3578119 0.15128319 0.96695209
0.73701173 -8.3566303 0.15108192 0.96699524
0.52562499 -8.3542871 0.15075248 0.96706587
0.42023435 -8.3531342 0.15062492 0.96709341
0.2099414 -8.3508101 0.15044044 0.96713305
0.10496093 -8.3496389 0.15038261 0.9671452
-0.20980468 -8.3461618 0.15035652 0.96715105
-0.63011718 -8.3415327 0.15065315 0.96708721
-0.73554689 -8.3403616 0.15078765 0.96705842
-1.4811718 -8.3321095 0.15240897 0.96671027
-1.9164062 -8.3273144 0.15389022 0.96639222
-2.0266211 -8.3260937 0.15432571 0.96629864
-2.3613086 -8.3223925 0.15579757 0.96598285
-2.5881641 -8.3198919 0.15691902 0.96574223
-2.7028906 -8.3186226 0.15752265 0.96561259
-2.9350781 -8.3160543 0.15882079 0.96533418
-3.0526366 -8.3147554 0.15951636 0.96518511
-3.171289 -8.3134375 0.16024345 0.96502924
-3.2910156 -8.312129 0.16100165 0.96486652
-3.6573827 -8.3080759 0.16347991 0.96433574
-3.908164 -8.3053026 0.16530646 0.96394461
-4.0357423 -8.3038864 0.16627388 0.96373725
-4.1648436 -8.3024702 0.16727898 0.96352178
-4.2955079 -8.3010254 0.1683245 0.96329808
-4.9753904 -8.2935247 0.17417617 0.96204686
-5.26125 -8.2903509 0.17683242 0.9614796
-5.7072263 -8.28543 0.18118912 0.96054935
-6.0172653 -8.2820015 0.18436408 0.95987213
-6.5037498 -8.2766209 0.18956985 0.95876271
-7.0192575 -8.270937 0.19536476 0.95752937
-7.1982813 -8.2689552 0.19743812 0.95708817
-7.3811326 -8.2669239 0.19958824 0.95663112
-7.5680857 -8.264863 0.20182045 0.95615721
-7.9549217 -8.2605858 0.20653449 0.95515662
-8.360527 -8.2561035 0.21160889 0.95408028
-8.7869139 -8.2513866 0.21708114 0.95292109
-1.0563476 -0.94317383 0.025503768 0.99435055
-1.0558203 -0.87345701 0.024677429 0.99453294
-1.0554687 -0.82939452 0.024174651 0.99464411
-1.0553125 -0.80802733 0.023936462 0.99469674
-1.0551562 -0.78707027 0.023706855 0.99474752
-1.0549999 -0.76651365 0.023485107 0.99479651
-1.0547265 -0.72653317 0.023065185 0.99488932
-1.0589062 -0.70995116 0.022959517 0.99491262
-1.1186913 -0.70995116 0.023861617 0.99471337
-1.1503906 -0.70996094 0.024345588 0.99460638
-1.1833984 -0.70995116 0.024853477 0.9944942
-1.3307421 -0.70995116 0.027162857 0.9939841
-1.6127343 -0.70997071 0.03173336 0.99297529
-1.7656054 -0.72485352 0.034372978 0.99239343
-1.7656835 -0.67354488 0.034033544 0.99246812
-23.066406 -8.1410151 0.44052008 0.90677637
-13.362471 4.5281348 0.21499282 0.94512135
-1.7665234 0.67385739 0.028810538 0.9924649
-1.7664648 0.72519529 0.029097937 0.9923901
-1.6126952 0.70993161 0.026850853 0.99297583
-1.5087304 0.70994139 0.025408287 0.99335176
-1.4607812 0.70994139 0.024749374 0.99352366
-1.3719921 0.70994139 0.023539543 0.9938392
-1.3307421 0.70994139 0.022983398 0.99398434
-1.2913867 0.70994139 0.022455977 0.99412197
-1.2538086 0.70993161 0.021955909 0.9942525
-1.1503906 0.70994139 0.020599365 0.99460667
-1.0589062 0.70994139 0.019426612 0.99491292
-1.0523046 0.72487301 0.019471588 0.99490124
-1.0528125 0.80610347 0.020205535 0.99470949
-1.0529492 0.82739258 0.020406112 0.99465716
-1.0533789 0.89395505 0.021052893 0.9944883
-1.0535351 0.91710937 0.021284789 0.99442774
-1.0536914 0.94080079 0.021524925 0.99436498
-8.3373632 7.8293066 0.174282 0.95527679
-7.9236717 7.8247361 0.16969322 0.95642847
-7.3418555 7.8183007 0.16343109 0.95800185
-7.1572657 7.8162789 0.16149543 0.9584887
-6.800703 7.812324 0.15783286 0.95941108
-6.4597654 7.8085546 0.15442558 0.96026927
-6.2947264 7.8067379 0.15281364 0.96067584
-5.9745898 7.8031931 0.14975646 0.96144706
-5.8192577 7.8014841 0.14830871 0.96181262
-5.5172849 7.7981639 0.14556293 0.96250623
-5.3704295 7.7965136 0.14426182 0.96283519
-5.2260938 7.7949414 0.14300628 0.96315271
-4.9448438 7.7918258 0.14062397 0.96375513
-4.8076172 7.7903123 0.13949566 0.96404082
-4.5395899 7.7873535 0.13735507 0.96458256
-4.4086328 7.7858887 0.13634178 0.96483922
-4.279531 7.7844825 0.13536446 0.96508682
-4.1522655 7.7830663 0.13442191 0.96532565
-3.9028904 7.7803221 0.13263713 0.96577781
-3.7806053 7.778955 0.13179383 0.96599174
-3.6598437 7.777617 0.1309814 0.96619779
-3.5405858 7.7763181 0.13019963 0.96639597
-3.4226952 7.7750192 0.12944733 0.96658683
-3.3061328 7.7737207 0.12872589 0.96677047
-3.1908789 7.7724414 0.12803046 0.96694696
-3.0768359 7.7712011 0.12736255 0.96711636
-2.8521483 7.7687011 0.1261055 0.9674353
-2.7414453 7.7674608 0.12551719 0.96758497
-2.4152343 7.7638865 0.12389885 0.967996
-2.2021484 7.7615333 0.12293922 0.96823996
-1.9922265 7.7591991 0.122071 0.96846086
-1.8883593 7.7580371 0.12166946 0.96856284
-1.5805078 7.7546482 0.12059593 0.96883595
-0.78132808 7.7458301 0.11863056 0.96933579
-0.58496094 7.7436423 0.11833553 0.96941119
-0.48710936 7.742578 0.11821556 0.96944147
-0.2919336 7.7404199 0.11803291 0.96948791
-0.1945703 7.739326 0.11796948 0.969504
0 7.7371774 0.11790001 0.96952182
0.19445312 7.7350388 0.11790416 0.96952063
0.29171875 7.7339644 0.11793476 0.96951294
0.38902342 7.7328906 0.11798301 0.96950048
0.58398438 7.7307324 0.1181374 0.96946138
0.68171871 7.7296581 0.11824295 0.96943462
0.77957028 7.7285838 0.11836639 0.96940303
1.2730078 7.723125 0.11927353 0.96917218
1.3726953 7.7220211 0.11951274 0.96911114
1.7760156 7.7175684 0.1206739 0.96881574
1.8781641 7.7164354 0.12101627 0.96872884
1.9809179 7.7153025 0.12137977 0.96863651
2.0842774 7.71416 0.12176471 0.9685387
2.1883593 7.7130075 0.12217052 0.96843541
2.2931249 7.7118454 0.12259872 0.96832651
2.5049219 7.7095118 0.12352352 0.96809143
2.6120703 7.7083201 0.12402137 0.96796513
2.8290625 7.7059374 0.12508689 0.96769416
3.0499609 7.7034764 0.1262522 0.96739835
3.1619921 7.7022457 0.1268729 0.96724063
3.2751758 7.7009959 0.12752098 0.96707624
3.8598046 7.694541 0.13117619 0.96614873
3.9808984 7.693203 0.13199566 0.96594089
4.1035547 7.6918259 0.13284671 0.96572512
4.3537693 7.6890721 0.13464661 0.96526885
4.6109767 7.6862402 0.13658252 0.96477818
4.7424607 7.6847754 0.13760506 0.96451926
4.8759375 7.6833105 0.13866508 0.96425086
5.0114841 7.6818066 0.13976291 0.96397287
5.289238 7.6787305 0.1420818 0.96338636
5.4316406 7.6771579 0.14330478 0.96307719
5.724082 7.673945 0.14588402 0.96242511
6.183496 7.6688571 0.15011474 0.96135688
6.6710935 7.6634665 0.15482453 0.96016896
6.8405857 7.661582 0.15651062 0.95974392
7.0138278 7.6596875 0.15825927 0.95930332
7.3723631 7.6557322 0.1619561 0.95837289
7.7482419 7.6515622 0.16593727 0.95737213
8.3487501 7.6449413 0.17249863 0.95572406
8.5597267 7.6425877 0.17485839 0.95513195
8.7765627 7.6401954 0.17731459 0.95451671
1.2873437 0.93531245 0.024247359 0.99365449
1.2871875 0.91069335 0.02402729 0.99371201
1.286914 0.86280274 0.02360977 0.99382091
1.2867968 0.83948243 0.023411941 0.99387246
1.2865624 0.79395509 0.023037147 0.99397027
1.2864063 0.77171874 0.022859458 0.99401677
1.2863085 0.74984372 0.022688141 0.99406135
1.2914063 0.70995116 0.02245613 0.99412191
1.3307421 0.70994139 0.022983398 0.99398434
1.3719727 0.70994139 0.023539657 0.99383926
1.4152734 0.70993161 0.024127349 0.9936859
1.4608008 0.70995116 0.024749374 0.9935236
1.5087109 0.70994139 0.02540821 0.99335182
1.6127148 0.70994139 0.0268507 0.99297571
1.6692773 0.70995116 0.027642058 0.99276954
1.7293164 0.70994139 0.028485755 0.99254954
1.7931249 0.70995116 0.029387511 0.99231458
1.8611327 0.70993161 0.030353354 0.99206299
1.9337499 0.70994139 0.031389847 0.9917931
1.9337499 -0.70995116 0.031389959 0.9917931
1.7293359 -0.70996094 0.028485831 0.99254942
1.4607812 -0.70996094 0.024749488 0.99352366
1.3719921 -0.70995116 0.023539696 0.99383914
1.2913867 -0.70996094 0.022456206 0.99412197
1.2861718 -0.72829098 0.022523003 0.99410456
1.2865235 -0.79395509 0.0230373 0.99397039
1.2866406 -0.81654292 0.02322113 0.99392235
1.2869335 -0.86281246 0.023609923 0.99382085
1.2870703 -0.88656247 0.023814734 0.99376732
1.2873437 -0.93532223 0.024247665 0.99365449
11.063281 -8.4707327 0.21232407 0.94578362
10.775859 -8.4675684 0.2088356 0.94665062
10.497695 -8.4644823 0.2054908 0.94748247
8.9961329 -8.4478903 0.18805213 0.95182961
8.5497656 -8.4429684 0.18310089 0.95306778
8.3351955 -8.4405956 0.18076378 0.95365286
8.1260347 -8.4382715 0.17851326 0.95421648
7.7227731 -8.4338179 0.17425659 0.95528334
7.5282421 -8.4316797 0.17224266 0.95578814
7.3380857 -8.4295607 0.17030288 0.95627517
7.1521091 -8.4275198 0.16843292 0.95674497
6.9702148 -8.425498 0.16662864 0.95719814
6.7920704 -8.4235353 0.16488929 0.95763558
6.6176562 -8.4216213 0.16320992 0.95805758
6.4466796 -8.4197168 0.16159095 0.9584651
6.2790427 -8.417861 0.16002861 0.95885837
5.9532228 -8.4142771 0.15706581 0.9596045
5.7947459 -8.4125195 0.15566108 0.95995831
5.4860349 -8.409111 0.15299812 0.9606297
5.335547 -8.4074316 0.1517356 0.96094811
5.1875 -8.4058104 0.1505172 0.96125537
4.6176562 -8.3995018 0.14606036 0.96238095
4.344902 -8.3965034 0.144063 0.96288562
4.2112498 -8.3950195 0.14311932 0.96312445
4.0793357 -8.3935547 0.14220928 0.96335459
3.9490428 -8.3921289 0.14133312 0.9635762
3.8203514 -8.3907032 0.14048961 0.96378964
3.6931055 -8.389287 0.13967796 0.9639951
3.4429686 -8.3865232 0.1381454 0.96438259
3.1981249 -8.3838282 0.1367337 0.96474004
2.9580662 -8.3811817 0.1354354 0.96506906
2.7223632 -8.3785543 0.13424473 0.96537077
2.6060157 -8.3772945 0.1336893 0.96551156
2.2624805 -8.3734665 0.13217323 0.96589613
2.1496093 -8.3722363 0.131716 0.96601182
1.3785741 -8.3637209 0.12916839 0.96665829
1.1632031 -8.3613281 0.12863952 0.96679258
1.0561328 -8.360137 0.12840641 0.96685159
0.94943357 -8.3589745 0.12819435 0.96690524
0.84306639 -8.3578119 0.12800454 0.96695358
0.73699218 -8.3566208 0.12783413 0.96699679
0.52562499 -8.3542776 0.12755519 0.96706742
0 -8.3484764 0.12721615 0.96715379
-0.10488281 -8.3473043 0.12720837 0.96715575
-0.31474608 -8.3450003 0.12725361 0.96714425
-0.52488279 -8.3426752 0.12737839 0.96711236
-0.84117186 -8.339179 0.12771957 0.967026
-0.9470312 -8.338027 0.12787448 0.96698678
-1.2664453 -8.3344917 0.12846035 0.96683776
-1.4811718 -8.332099 0.12895812 0.96671182
-1.5892187 -8.3309078 0.12923808 0.96664065
-2.1374609 -8.3248529 0.13097098 0.96620089
-2.4743359 -8.3211327 0.13228698 0.96586722
-2.5881836 -8.3198824 0.13277298 0.96574384
-2.7029102 -8.3186131 0.13328484 0.9656142
-2.8185155 -8.3173342 0.13382068 0.96547818
-3.171289 -8.3134375 0.13558601 0.96503085
-3.4119139 -8.310791 0.13689777 0.96469843
-3.5340037 -8.3094435 0.13759647 0.96452153
-3.6573827 -8.3080759 0.13832435 0.96433735
-3.7820897 -8.3066988 0.13908198 0.9641456
-4.1648436 -8.3024702 0.1415409 0.96352345
-4.2955079 -8.3010254 0.14242549 0.96329975
-4.4278517 -8.2995701 0.1433427 0.96306753
-5.26125 -8.2903509 0.14962234 0.96148133
-5.4075193 -8.2887497 0.15080741 0.96118212
-5.7072263 -8.28543 0.15330955 0.96055108
-5.8608985 -8.283721 0.15462868 0.96021849
-6.0172653 -8.2820015 0.15599495 0.95987391
-6.3385348 -8.2784662 0.15887938 0.95914745
-6.5037498 -8.2766209 0.16040093 0.95876455
-7.7592773 -8.2627439 0.17272285 0.95566797
-7.9549217 -8.2605858 0.1747538 0.95515865
-8.1552925 -8.258379 0.17685989 0.95463026
-1.0536914 -0.9408105 0.021525344 0.99436498
-1.0533789 -0.8939746 0.021052819 0.99448824
-1.0532422 -0.87131834 0.020829277 0.99454653
-1.0530859 -0.84913087 0.020613937 0.99460286
-1.0529687 -0.82740235 0.020406151 0.9946571
-1.0528125 -0.80611324 0.020205574 0.99470949
-1.052539 -0.76474607 0.01982544 0.99480879
-1.0524414 -0.74461913 0.019645385 0.99485582
-1.0523046 -0.72486329 0.019471588 0.99490124
-1.1503906 -0.70996094 0.020599479 0.99460667
-1.1833984 -0.70995116 0.021029472 0.9944945
-1.2538086 -0.70995116 0.021956099 0.9942525
-1.2913867 -0.70996094 0.02245613 0.99412197
-1.3307421 -0.70995116 0.022983475 0.99398434
-1.3719727 -0.70995116 0.023539543 0.9938392
-1.4152734 -0.70996094 0.024127502 0.99368584
-1.4607812 -0.70994139 0.024749298 0.99352366
-1.5087109 -0.70995116 0.02540821 0.99335182
-1.5592968 -0.70996094 0.026107559 0.99316937
-1.7664844 -0.72521484 0.029098013 0.99238998
-1.7665038 -0.69941407 0.0289513 0.99242824
-1.7665234 -0.67386717 0.028810501 0.9924649
-1.7665234 -0.64856446 0.028675612 0.99250013
-13.35707 4.5263181 0.17582488 0.94514495
-22.630478 7.9872656 0.29919669 0.90846217
-1.7673827 0.64886719 0.023472518 0.99249679
-1.7673438 0.72555661 0.023818435 0.99238664
-1.6692969 0.70994139 0.022615585 0.99276972
-1.6126952 0.70993161 0.021968193 0.99297607
-1.5592577 0.70994139 0.021360168 0.99316978
-1.5087109 0.70994139 0.020788077 0.99335206
-1.4152734 0.70994139 0.019740142 0.99368608
-1.3719921 0.70994139 0.019259071 0.99383938
-1.3307421 0.70994139 0.018804016 0.99398458
-1.2913867 0.70994139 0.018372573 0.99412221
-1.1187109 0.70993161 0.016518783 0.99471378
-1.0882031 0.70994139 0.016199302 0.99481583
-1.0499219 0.7232129 0.015894774 0.99491298
-1.0500195 0.74290037 0.016036224 0.9948678
-1.0502343 0.7833789 0.016335143 0.99477243
-1.0508008 0.89175779 0.017182464 0.99450195
-1.0510352 0.9384082 0.017566871 0.9943794
-8.1277342 7.8270016 0.14067562 0.95586526
-7.7248435 7.8225293 0.13706234 0.95697415
-7.3418746 7.8183103 0.13371345 0.95800334
-7.1572657 7.8162889 0.1321297 0.95849025
-6.6283984 7.8104391 0.12771374 0.9598493
-6.4598045 7.8085546 0.12634529 0.9602707
-5.8192773 7.8014841 0.12134098 0.96181405
-5.6668358 7.7998047 0.12019718 0.96216702
-5.5173044 7.7981734 0.11909427 0.96250755
-5.3704295 7.7965136 0.11802895 0.96283656
-5.2261133 7.7949414 0.11700165 0.96315408
-5.0842967 7.7933788 0.11600932 0.96346056
-4.5396094 7.7873631 0.11237796 0.96458381
-4.2795506 7.7844825 0.11075027 0.96508807
-4.1522655 7.7830663 0.10997856 0.96532696
-4.0267382 7.7816796 0.10923519 0.96555722
-3.7806053 7.778955 0.10782883 0.96599305
-3.6598437 7.777617 0.10716426 0.96619904
-3.5405858 7.7763181 0.10652462 0.96639729
-3.3061328 7.7737207 0.10531715 0.96677172
-3.1908789 7.7724414 0.10474815 0.96694821
-3.0768359 7.7712011 0.10420261 0.96711761
-2.9639256 7.7699413 0.10367806 0.96728045
-2.8521483 7.7687011 0.10317589 0.96743655
-2.7414453 7.7674608 0.10269378 0.96758622
-2.6317577 7.7662792 0.10223202 0.96772933
-2.4152343 7.7638865 0.10136864 0.96799719
-2.2021484 7.7615333 0.10058448 0.96824116
-2.0968163 7.7603512 0.10021969 0.96835446
-1.9922265 7.7591991 0.0998732 0.96846205
-1.7851171 7.7569041 0.099234805 0.96866047
-1.682539 7.7557616 0.098941647 0.96875149
-1.5805078 7.7546482 0.098667294 0.96883714
-1.378125 7.7524118 0.098166235 0.96899265
-1.0780078 7.7491012 0.097539365 0.96918738
-0.97880858 7.7479978 0.097364388 0.96924222
-0.58496094 7.7436423 0.096816137 0.96941233
-0.48710936 7.742578 0.096719779 0.96944267
-0.38945311 7.7414842 0.096636958 0.9694683
0 7.7371774 0.09646152 0.96952295
0.29171875 7.7339644 0.096489221 0.96951407
0.48644531 7.7318163 0.096585006 0.96948445
0.77957028 7.7285838 0.096842192 0.96940422
0.87769532 7.7275095 0.09695942 0.9693678
1.074707 7.7253122 0.097241208 0.96928048
1.3726953 7.7220211 0.097781025 0.96911234
1.472793 7.7209277 0.097994 0.96904618
1.6744531 7.7186718 0.098468855 0.96889865
1.9809179 7.7153025 0.099307634 0.96863765
2.5049219 7.7095118 0.10106251 0.96809262
2.7201171 7.707119 0.10189487 0.96783394
2.9390428 7.7047167 0.10280761 0.96755058
3.2751758 7.7009959 0.10433235 0.96707743
3.3895311 7.6997266 0.1048838 0.96690631
3.7401562 7.6958399 0.10667614 0.96635026
4.1035547 7.6918454 0.10868949 0.96572638
4.2278123 7.6904783 0.10941216 0.96550244
4.3537693 7.6890721 0.11016212 0.96527016
4.4814844 7.6876755 0.11094002 0.96502918
4.6109767 7.6862402 0.11174701 0.9647795
4.7424607 7.6847754 0.11258239 0.96452057
4.8759375 7.68332 0.11344978 0.96425217
5.1492186 7.6803026 0.11528053 0.96368605
5.4316406 7.6771579 0.11724681 0.96307862
5.7240624 7.673945 0.11935695 0.9624266
5.8743162 7.6722655 0.12047027 0.96208304
6.3427148 7.6670995 0.12405685 0.96097636
6.505156 7.6653028 0.12534022 0.96058065
6.8405662 7.6615915 0.12805134 0.95974547
7.0138083 7.6596971 0.12948078 0.95930487
7.3723435 7.6557422 0.13250549 0.95837444
7.9433007 7.6494141 0.13748519 0.95684475
8.1433592 7.6471972 0.13927375 0.95629585
8.7766018 7.6402144 0.14507122 0.95451826
8.9996872 7.6377344 0.14716063 0.95387864
9.9613476 7.6271091 0.15641318 0.95105082
10.221191 7.6242285 0.15897651 0.95026904
1.2843554 0.93312496 0.019792633 0.99366945
1.2842187 0.90860349 0.019613266 0.99372667
1.2838086 0.81472653 0.018956337 0.99393594
1.2835156 0.74823242 0.018522415 0.9940744
1.2834179 0.72671872 0.018387871 0.99411738
1.2914063 0.70995116 0.018372649 0.99412215
1.3307421 0.70994139 0.018803939 0.99398458
1.3719727 0.70994139 0.019259108 0.9938395
1.5592773 0.70993161 0.021360092 0.99316978
1.6693164 0.70995116 0.022615585 0.99276966
1.7931249 0.70995116 0.024043731 0.99231488
1.8611327 0.70993161 0.024833946 0.99206328
1.9769921 0.69776368 0.026137581 0.99164838
1.9769921 -0.69776368 0.026137657 0.99164838
1.9337499 -0.70995116 0.025682105 0.99179339
1.7293359 -0.70996094 0.023305854 0.99254972
1.5087304 -0.70995116 0.020788154 0.993352
1.4152734 -0.70996094 0.019740142 0.99368608
1.2913867 -0.70996094 0.018372726 0.99412215
1.2834375 -0.7267285 0.018387718 0.99411732
1.2837304 -0.79223633 0.018806724 0.99398369
1.2838281 -0.81474608 0.018956374 0.99393582
1.2840234 -0.86086911 0.019273071 0.99383497
1.2841406 -0.88455075 0.019439964 0.99378169
1.2842578 -0.90863281 0.019613151 0.99372649
9.2285547 -8.4504585 0.15600303 0.95117605
8.7699413 -8.4453907 0.15179238 0.95246232
8.5497656 -8.4429684 0.14980698 0.95306957
8.3351955 -8.4405956 0.14789459 0.95365459
8.1260347 -8.4382715 0.14605163 0.95421821
7.7227731 -8.4338179 0.14256927 0.95528501
7.3380857 -8.4295607 0.13933532 0.95627683
6.7920704 -8.4235353 0.13490535 0.95763719
6.4466991 -8.4197073 0.13220806 0.95846659
6.1146092 -8.4160547 0.12969565 0.95923954
5.9532228 -8.4142771 0.12850456 0.95960599
4.7569532 -8.4010353 0.1203632 0.96211594
4.6176562 -8.3994923 0.11950035 0.96238238
4.4803514 -8.3979883 0.11866809 0.96263927
4.0793357 -8.3935452 0.11634868 0.96335602
3.9490232 -8.3921194 0.11563267 0.96357763
3.8203321 -8.3906927 0.11494259 0.96379107
3.5673828 -8.3878908 0.11364017 0.964194
3.4429686 -8.3865137 0.11302532 0.96438396
3.3199217 -8.3851757 0.11243621 0.96456629
3.1981249 -8.3838186 0.11187065 0.96474141
3.0775194 -8.3824806 0.11132736 0.96490943
2.9580662 -8.3811712 0.11080757 0.96507037
2.6060157 -8.3772945 0.10937969 0.96551287
2.3760936 -8.3747358 0.10853118 0.96577549
2.2624805 -8.3734665 0.10813827 0.96589738
2.1496093 -8.3722363 0.10776527 0.96601313
1.9261523 -8.3697748 0.10707641 0.96622664
1.8154687 -8.3685255 0.1067609 0.96632469
1.7053906 -8.3673048 0.10646304 0.9664169
1.3785741 -8.3637209 0.10568008 0.96665955
1.270664 -8.3625193 0.1054554 0.9667294
1.1632031 -8.3613281 0.10524734 0.96679384
0.63117188 -8.3554487 0.10446785 0.96703595
0.52562499 -8.3542776 0.104361 0.96706867
0.42023435 -8.3531246 0.10427281 0.96709615
0.31501952 -8.351963 0.1042004 0.96711856
0.20992187 -8.3508005 0.10414539 0.96713579
-0.20980468 -8.3461523 0.10408706 0.96715379
-0.41976562 -8.3438568 0.10415711 0.96713203
-0.52490234 -8.3426752 0.10421539 0.96711361
-0.63013673 -8.3415232 0.10429218 0.96708995
-0.84119141 -8.339179 0.1044957 0.96702725
-1.2664453 -8.3344917 0.10510173 0.96683902
-1.3736132 -8.3333006 0.10529678 0.96677876
-1.6977539 -8.3297262 0.10598381 0.96656513
-1.8067968 -8.3285255 0.10624969 0.96648288
-2.1374609 -8.3248529 0.10715591 0.96620214
-2.2490234 -8.3236322 0.10749477 0.96609688
-2.7029102 -8.3186131 0.10904785 0.96561545
-2.9350977 -8.3160448 0.10994743 0.96533704
-3.0526562 -8.3147459 0.1104282 0.96518797
-3.171289 -8.3134279 0.11093178 0.96503222
-3.2910156 -8.312129 0.1114563 0.96486944
-3.5340037 -8.309433 0.1125764 0.9645229
-3.6573827 -8.3080664 0.11317207 0.96433872
-3.7820897 -8.3066893 0.11379185 0.96414697
-3.908164 -8.3052931 0.11443668 0.96394759
-4.0357423 -8.3038769 0.11510608 0.96374029
-4.1648436 -8.3024607 0.11580169 0.96352482
-4.2955079 -8.3010159 0.11652546 0.96330118
-4.4278517 -8.2995605 0.11727771 0.96306896
-4.5619335 -8.2980566 0.11805774 0.96282804
-4.6978321 -8.2965717 0.1188668 0.96257806
-5.1172462 -8.2919331 0.12148021 0.96177149
-5.26125 -8.2903414 0.12241459 0.96148282
-5.7072263 -8.2854195 0.12543148 0.96055263
-5.8608985 -8.2837105 0.12651038 0.96022004
-6.3385348 -8.2784567 0.12998821 0.959149
-6.5037498 -8.2766113 0.13123329 0.9587661
-7.0192575 -8.2709274 0.13524528 0.95753288
-7.3811326 -8.2669239 0.13816963 0.9566347
-7.5680857 -8.264863 0.13971397 0.95616078
-7.7592773 -8.2627439 0.1413161 0.95566964
-7.9549217 -8.2605858 0.14297757 0.95516032
-8.1552925 -8.258379 0.14470172 0.95463198
-8.7868748 -8.2513962 0.15027817 0.95292503
-9.0084963 -8.2489548 0.15228325 0.95231205
-1.0508008 -0.89176756 0.017182387 0.99450195
-1.0505664 -0.8470996 0.016824912 0.99461597
-1.0504687 -0.82543945 0.016655693 0.99466991
-1.0589062 -0.70995116 0.015894165 0.9949131
-1.1503906 -0.70996094 0.016853675 0.99460685
-1.1833984 -0.70995116 0.017205391 0.99449468
-1.2913867 -0.70996094 0.018372802 0.99412215
-1.3307421 -0.70995116 0.018804092 0.99398458
-1.3719727 -0.70995116 0.019259147 0.99383944
-1.4152734 -0.70996094 0.019740066 0.99368608
-1.5087109 -0.70995116 0.020788077 0.99335206
-1.5592968 -0.70996094 0.021360015 0.99316967
-1.7673438 -0.72557616 0.02381813 0.99238658
-1.7673438 -0.69974607 0.023698272 0.99242491
-1.7673827 -0.67418945 0.023582878 0.99246156
-1.7673827 -0.64887697 0.023472365 0.99249679
-1.7682031 0.70006835 0.018440323 0.99242151
-1.768164 0.72588867 0.018533859 0.99238336
-1.6692969 0.70994139 0.017589416 0.99276996
-1.6126952 0.70993161 0.017086143 0.99297631
-1.5592577 0.70994139 0.016613159 0.99317002
-1.4152734 0.70994139 0.015353165 0.99368632
-1.3719921 0.70994139 0.014979057 0.99383962
-1.2913867 0.70994139 0.014289474 0.99412239
-1.2538086 0.70993161 0.013971367 0.99425292
-1.1833984 0.70995116 0.013381843 0.99449486
-1.1187109 0.70993161 0.012847671 0.99471396
-1.0589062 0.70994139 0.012361946 0.99491328
-1.0475781 0.72157222 0.012334365 0.99492455
-1.0478905 0.80230469 0.01279705 0.99473464
-1.048125 0.86707032 0.013190193 0.99457335
-1.0484179 0.9360742 0.013628349 0.99439353
-8.3373432 7.8293161 0.11090168 0.95527983
-7.9236717 7.8247461 0.10798191 0.95643139
-7.3418746 7.8183103 0.10399666 0.95800465
-7.1572657 7.8162889 0.10276508 0.9584915
-6.976953 7.8142867 0.10157783 0.95896095
-6.6283789 7.8104391 0.099331014 0.95985055
-6.2947264 7.8067479 0.09724167 0.96067846
-5.9746094 7.8031931 0.095295824 0.96144968
-5.6668358 7.7998047 0.093485147 0.96216816
-5.5173044 7.7981734 0.092626378 0.96250868
-5.2261133 7.7949414 0.090998873 0.96315521
-5.0842967 7.7933788 0.090227924 0.9634617
-4.9448438 7.7918358 0.089483947 0.96375757
-4.8076172 7.7903123 0.088764913 0.96404326
-4.1522655 7.7830663 0.085537411 0.96532798
-3.9028904 7.7803221 0.084401131 0.96578014
-3.7806053 7.778955 0.083865583 0.96599406
-3.6598437 7.777617 0.083348766 0.96620005
-3.5405858 7.7763181 0.082851142 0.9663983
-3.3061328 7.7737207 0.081911922 0.96677274
-3.1908789 7.7724414 0.081469499 0.96694916
-3.0768359 7.7712011 0.081045374 0.96711862
-2.9639256 7.7699413 0.080637358 0.9672814
-2.7414453 7.7674608 0.079869799 0.96758717
-2.2021484 7.7615333 0.078230396 0.96824211
-2.0968163 7.7603512 0.077946663 0.96835548
-1.9922265 7.7591991 0.077677041 0.968463
-1.5805078 7.7546482 0.076738469 0.9688381
-1.4790624 7.7535253 0.076538011 0.96891844
-1.378125 7.7524118 0.076349527 0.9689936
-1.2776953 7.7512984 0.076175801 0.96906358
-1.1776562 7.750195 0.076012835 0.96912843
-0.97878903 7.7480173 0.075725973 0.96924305
-0.87992185 7.7469039 0.075600661 0.969293
-0.78132808 7.7458301 0.075489618 0.96933788
-0.58496094 7.7436423 0.075300217 0.96941328
-0.48710936 7.742578 0.075224496 0.96944356
-0.38945311 7.7414842 0.075160027 0.96946919
0 7.7371774 0.0750238 0.96952391
0.29171875 7.7339644 0.075045928 0.96951503
0.48644531 7.7318258 0.075119741 0.96948534
0.58398438 7.7307324 0.075174905 0.96946347
0.68171871 7.7296581 0.07524208 0.96943671
0.77957028 7.7285838 0.07532043 0.96940511
0.87769532 7.7275095 0.075411677 0.9693687
0.97605467 7.7263865 0.075515285 0.96932763
1.1736718 7.7242184 0.075757213 0.96923035
1.2730078 7.723125 0.07589779 0.96917427
1.3726953 7.7220211 0.076050796 0.96911323
1.472793 7.7209277 0.07621567 0.96904713
1.6744531 7.7186718 0.076584816 0.96889955
1.7760156 7.7175684 0.076790504 0.96881789
1.9809179 7.7153025 0.077238008 0.9686386
2.1883593 7.7130075 0.07774128 0.96843755
2.3986328 7.7106833 0.078301959 0.96821404
2.6120899 7.7083201 0.078918152 0.96796727
2.9390428 7.7047167 0.079959184 0.96755159
3.0499609 7.703496 0.080338702 0.96740043
3.2751758 7.7009959 0.081146121 0.96707845
3.3895311 7.6997266 0.081574015 0.96690726
3.5050781 7.6984568 0.08202152 0.96672916
3.8598046 7.694541 0.083471067 0.96615106
4.1035547 7.6918359 0.084535137 0.96572745
4.3537693 7.6890721 0.085679397 0.96527123
4.7424607 7.6847754 0.087562747 0.96452165
5.4316406 7.6771579 0.09118969 0.96307969
5.5765624 7.6755662 0.091996156 0.96275944
5.7241015 7.6739254 0.092830926 0.96242768
6.027422 7.6705761 0.094594344 0.96172822
6.3427148 7.6670995 0.096484981 0.96097749
6.505156 7.6653028 0.097484164 0.96058184
6.6710935 7.6634569 0.098519973 0.9601717
7.0138083 7.6596971 0.10070553 0.95930606
7.7482419 7.6515722 0.10559196 0.95737493
7.9432812 7.6494236 0.10693138 0.95684606
8.1433592 7.6471972 0.10832123 0.95629716
8.3487501 7.6449413 0.10976662 0.95572704
8.5597067 7.6425977 0.11126927 0.95513505
8.9996681 7.6377439 0.11445656 0.95388007
1.2813281 0.90655273 0.015219459 0.99374098
1.2812109 0.88251948 0.015085563 0.99379605
1.2811328 0.85892576 0.014956322 0.99384904
1.2809765 0.81292969 0.014711075 0.99394947
1.2808985 0.79047853 0.014594917 0.9939971
1.2808203 0.76835936 0.014482879 0.99404311
1.2914063 0.70995116 0.01428955 0.99412233
1.3307421 0.70994139 0.014625167 0.99398476
1.3719727 0.70994139 0.014979095 0.99383968
1.4152734 0.70993161 0.015353012 0.99368632
1.5087109 0.70994139 0.01616825 0.99335229
1.5592773 0.70995116 0.016613083 0.9931699
1.6693164 0.70995116 0.017589722 0.99276984
1.7293164 0.70994139 0.018126564 0.99255008
1.9337695 0.70994139 0.019974746 0.99179357
1.9790233 0.69847655 0.020350035 0.99164009
1.9790624 -0.67066407 0.020261994 0.99167597
1.9790624 -0.69848633 0.020350112 0.99163991
1.8611327 -0.70996094 0.019314995 0.99206346
1.7293359 -0.70996094 0.018126717 0.99254996
1.6127343 -0.70997071 0.017086066 0.99297607
1.5592773 -0.70995116 0.01661312 0.9931699
1.5087304 -0.70995116 0.016168099 0.99335217
1.4152734 -0.70996094 0.015353088 0.99368626
1.3719921 -0.70995116 0.014979057 0.99383956
1.3307421 -0.70993161 0.014624977 0.99398482
1.2806641 -0.72516602 0.014270821 0.99413013
1.2807617 -0.7466113 0.014374923 0.99408728
1.2807813 -0.76837891 0.014483032 0.99404317
1.2811524 -0.85893553 0.014956322 0.99384892
1.2812304 -0.88254881 0.015085297 0.99379593
1.2813281 -0.90655273 0.015219383 0.99374098
1.2814062 -0.93099606 0.015358276 0.99368411
11.360547 -8.4740133 0.13742787 0.94488293
10.775859 -8.4675589 0.13288738 0.94665426
10.497676 -8.4644728 0.13076118 0.9474861
10.228242 -8.461504 0.12871681 0.94828445
9.7136326 -8.4558201 0.1248764 0.94978809
9.4675779 -8.4530764 0.1230722 0.95049649
9.2285347 -8.4504585 0.12133373 0.9511776
8.7699413 -8.4453802 0.11805736 0.95246375
8.5497656 -8.4429588 0.11651199 0.953071
8.1260347 -8.4382715 0.11359539 0.95421958
7.9219723 -8.4360151 0.11221477 0.95476276
7.7227731 -8.4338179 0.11088554 0.95528638
7.5282226 -8.4316502 0.10960365 0.95579129
7.3380857 -8.4295607 0.10836929 0.95627815
6.9702148 -8.425498 0.10603138 0.95720106
6.7920704 -8.4235249 0.10492313 0.9576385
6.6176562 -8.4216108 0.10385711 0.95806044
5.9532228 -8.4142771 0.099946596 0.95960718
5.7947655 -8.4125099 0.099052347 0.95996106
5.6390233 -8.4107904 0.098190725 0.96030271
5.3355274 -8.4074221 0.096554488 0.96095085
4.8983202 -8.4025974 0.094310604 0.96184087
4.4803514 -8.3979883 0.092295915 0.9626404
4.2112303 -8.39501 0.091070935 0.96312702
3.9490232 -8.3921194 0.089934155 0.96357876
3.693125 -8.3892965 0.088881068 0.96399748
3.5673828 -8.3879004 0.088384397 0.96419501
3.3199217 -8.3851757 0.087448038 0.96456736
3.1981249 -8.3838186 0.087008052 0.96474248
3.0774999 -8.3824806 0.086586528 0.96491051
2.8396873 -8.3798532 0.08579433 0.96522564
2.7223632 -8.3785543 0.085424349 0.9653731
2.4906054 -8.3759861 0.084732935 0.96564847
2.3761327 -8.3747358 0.084411696 0.9657765
2.2624805 -8.3734665 0.084106408 0.96589845
2.0374999 -8.3709955 0.08354038 0.96612388
1.9261523 -8.3697748 0.083279535 0.96622765
1.7053906 -8.3673048 0.082802393 0.96641791
1.5959375 -8.3661032 0.082587086 0.96650434
1.3785741 -8.3637209 0.082194291 0.96666056
1.270664 -8.3625193 0.082017668 0.96673042
0.84306639 -8.3578119 0.081452593 0.96695578
0.73699218 -8.3566208 0.081345096 0.96699899
0.63117188 -8.3554487 0.081250802 0.9670369
0.31501952 -8.351963 0.081043467 0.96711951
0.20992187 -8.3508005 0.080999829 0.9671368
0 -8.3484764 0.080952071 0.96715599
-0.10488281 -8.3473043 0.080946803 0.96715796
-0.52490234 -8.3426752 0.081055909 0.96711463
-0.63013673 -8.3415232 0.081114881 0.96709096
-0.84119141 -8.339179 0.081272393 0.96702826
-0.9470312 -8.338027 0.081370234 0.96698904
-1.1596289 -8.3356543 0.08160606 0.96689504
-1.2664453 -8.3344917 0.081744611 0.96684003
-1.4811718 -8.332119 0.082059786 0.96671402
-1.8067968 -8.3285255 0.082637407 0.96648389
-1.9163867 -8.3273048 0.082857318 0.96639609
-2.0266407 -8.3260841 0.083091542 0.96630251
-2.1374609 -8.3248529 0.083341405 0.96620321
-2.4743359 -8.3211327 0.084178887 0.96586955
-2.5881836 -8.3198824 0.084487952 0.96574616
-2.8185155 -8.3173237 0.085154414 0.96548057
-3.171289 -8.313447 0.086277768 0.96503317
-3.2910156 -8.312129 0.086686894 0.96487051
-3.5340037 -8.309433 0.087557107 0.96452397
-3.6573827 -8.3080664 0.088020399 0.96433979
-3.9082031 -8.3052931 0.089004137 0.96394861
-4.5619335 -8.2980757 0.091821328 0.96282911
-4.6978321 -8.2965717 0.092450671 0.96257919
-4.8356051 -8.2950392 0.093103521 0.96232003
-4.9753904 -8.2935152 0.093779296 0.96205121
-5.1172462 -8.2919331 0.094482265 0.96177268
-5.4075389 -8.2887402 0.095963895 0.96118474
-5.5561523 -8.2870798 0.096745297 0.96087486
-5.8608985 -8.2837105 0.098395422 0.96022123
-6.0172458 -8.281992 0.099264905 0.95987672
-6.5037107 -8.2766113 0.10206749 0.95876747
-6.6721482 -8.2747459 0.10307109 0.9583708
-6.843945 -8.2728615 0.1041114 0.95795989
-7.0192575 -8.2709274 0.1051892 0.95753413
-7.3811326 -8.2669134 0.10746391 0.95663601
-7.5680857 -8.2648535 0.1086647 0.95616215
-1.0483203 -0.91257811 0.013476982 0.99445564
-1.0482031 -0.88958985 0.013330917 0.9945156
-1.048125 -0.86708003 0.013190346 0.99457335
-1.0478516 -0.80233395 0.012796859 0.99473464
-1.0477734 -0.78157222 0.012675209 0.99478471
-1.0476172 -0.74122071 0.012444 0.9948796
-1.0475585 -0.72159177 0.012334136 0.99492455
-1.0589257 -0.70996094 0.012361907 0.99491316
-1.1503906 -0.70996094 0.013108253 0.99460703
-1.1833984 -0.70995116 0.013381767 0.99449486
-1.2913867 -0.70996094 0.014289627 0.99412233
-1.3307421 -0.70995116 0.014625015 0.99398476
-1.3719727 -0.70995116 0.01497921 0.99383962
-1.4607812 -0.70994139 0.015748825 0.99352413
-1.5087109 -0.70995116 0.016168023 0.99335223
-1.5592968 -0.70996094 0.016613083 0.99316984
-1.6127343 -0.70997071 0.017086143 0.99297607
-1.6692969 -0.70996094 0.017589377 0.9927699
-13.349638 4.5237889 0.09762314 0.9451775
-22.630478 7.9872556 0.16621414 0.90846688
-1.769082 0.64946288 0.013052253 0.99249005
-1.7690234 0.70041013 0.013177643 0.99241817
-1.6126952 0.70993161 0.01220417 0.99297643
-1.5592577 0.70994139 0.011866379 0.9931702
-1.5087109 0.70994139 0.011548576 0.99335241
-1.4152734 0.70994139 0.010966492 0.99368644
-1.1833984 0.70995116 0.0095582195 0.99449497
-1.1503906 0.70994139 0.009362869 0.99460721
-1.1187109 0.70993161 0.0091766352 0.99471408
-1.0882031 0.70994139 0.0089992899 0.99481612
-1.0455078 0.80050778 0.009120102 0.99474663
-1.0456054 0.86498046 0.0093987649 0.99458653
-1.0456641 0.88741207 0.0094989007 0.99452901
-1.0457226 0.91032225 0.0096026231 0.99446946
-1.0457813 0.9337402 0.0097100446 0.99440765
-8.3373432 7.8293161 0.079213671 0.95528084
-8.1277151 7.8270116 0.078151017 0.95586759
-7.1572266 7.8162694 0.073401451 0.95849258
-6.2946873 7.8067479 0.069456935 0.96067947
-6.1330466 7.8049607 0.068749391 0.96107173
-5.9746094 7.8031931 0.068066865 0.96145052
-5.3704295 7.7965136 0.065568998 0.96283853
-5.2261133 7.7949414 0.064998507 0.96315604
-5.0842967 7.7933788 0.064447977 0.96346247
-4.9448438 7.7918162 0.063915521 0.96375841
-4.8076172 7.7903123 0.063402824 0.96404403
-4.5396094 7.7873631 0.062430494 0.96458566
-4.1522655 7.7830663 0.06109665 0.96532881
-3.4226952 7.7750192 0.058836021 0.96658987
-3.3061328 7.7737207 0.058508147 0.96677351
-3.1908789 7.7724414 0.058191948 0.96694994
-2.9639256 7.7699413 0.057596739 0.96728218
-2.8521483 7.7687011 0.057317123 0.96743828
-2.7414453 7.7674608 0.057049178 0.96758789
-2.5230079 7.7650681 0.056548156 0.96786809
-2.4152343 7.7638865 0.056314621 0.96799892
-2.3082616 7.7626853 0.056090772 0.96812391
-2.2021484 7.7615333 0.05587757 0.96824288
-1.9922069 7.7591991 0.055482939 0.96846372
-1.7851171 7.7569041 0.055129316 0.96866214
-1.682539 7.7557616 0.054966278 0.96875316
-1.2776953 7.7512984 0.054410134 0.9690643
-1.1776367 7.750195 0.054294586 0.96912915
-0.87992185 7.7469039 0.0539991 0.96929371
-0.78132808 7.7458301 0.053920098 0.9693386
-0.68300778 7.7447362 0.053848952 0.96937871
-0.48710936 7.742578 0.053730544 0.96944427
-0.38945311 7.7414842 0.053685188 0.9694699
-0.19453125 7.7393456 0.053620145 0.96950668
-0.09722656 7.7382517 0.053599358 0.96951807
0 7.7371774 0.053587034 0.96952456
0.09722656 7.7361035 0.053584252 0.96952635
0.29171875 7.7339644 0.053603783 0.96951568
0.48644531 7.7318163 0.053656463 0.96948606
0.58398438 7.7307324 0.053695142 0.96946418
0.68171871 7.7296581 0.053744201 0.96943736
0.77957028 7.7285838 0.053799856 0.96940583
0.87769532 7.7275095 0.053864248 0.96936941
0.97605467 7.7263865 0.05393837 0.96932828
1.074707 7.7253122 0.054021146 0.96928209
1.1737109 7.7242184 0.054112699 0.96923101
1.2730078 7.723125 0.054212265 0.96917498
1.3726953 7.7220211 0.054320641 0.96911395
1.4728124 7.7209082 0.054439314 0.96904784
1.5733789 7.7198143 0.054566 0.96897656
1.7760156 7.7175684 0.054848287 0.9688186
2.0842774 7.71416 0.055344008 0.96854156
2.2931249 7.7118454 0.055723418 0.96832937
2.3986328 7.7106833 0.055927962 0.96821475
2.6120899 7.7083201 0.056369551 0.96796799
2.9390428 7.7047167 0.057113074 0.9675523
3.0499609 7.7034764 0.057383459 0.96740127
3.2751758 7.7009959 0.05796127 0.96707922
3.621953 7.6971579 0.058918037 0.96654463
4.4814844 7.6876755 0.061631162 0.96503103
4.6109767 7.6862402 0.06207943 0.9647814
4.7424998 7.6847754 0.062544286 0.96452236
5.0114646 7.6818066 0.063525692 0.96397614
5.5765624 7.6755662 0.065711252 0.96276027
5.7240624 7.673945 0.066307142 0.96242857
5.8743162 7.6722655 0.066925772 0.96208501
6.1834764 7.6688671 0.068230554 0.96136039
6.3427148 7.6670995 0.068918265 0.96097839
6.505156 7.6653028 0.069631994 0.96058273
6.6710935 7.6634569 0.07037086 0.96017259
6.8405662 7.6615915 0.071137086 0.95974755
7.0138083 7.6596971 0.071931802 0.95930701
7.5580077 7.6536717 0.074499927 0.9578855
7.7482419 7.6515722 0.075421296 0.95737594
8.1433592 7.6471972 0.077371597 0.95629811
8.7765627 7.6402049 0.080591887 0.95452076
8.9996681 7.6377439 0.081752814 0.95388108
9.2292967 7.6352148 0.082961008 0.95321596
9.4658394 7.6326075 0.084219016 0.95252395
1.2785351 0.95367187 0.011047172 0.99364001
1.2782421 0.85701168 0.010659027 0.99386293
1.2782227 0.83388668 0.010570297 0.99391371
1.2781249 0.78873044 0.010401992 0.99401027
1.2780468 0.76669919 0.010322456 0.99405605
1.2914063 0.70995116 0.010206833 0.99412245
1.6127148 0.70994139 0.012204094 0.99297637
1.6693164 0.70995116 0.012563705 0.99277002
1.7931249 0.70995116 0.013357391 0.99231529
1.8611327 0.70993161 0.013796195 0.9920637
1.9811327 0.67134762 0.014487647 0.99166757
1.9811132 -0.67135739 0.014487418 0.99166763
1.9810938 -0.69921875 0.014550666 0.99163157
1.9337499 -0.70995116 0.014267234 0.99179381
1.8611327 -0.70996094 0.013795967 0.9920637
1.7931249 -0.70996094 0.013357086 0.99231523
1.6127343 -0.70997071 0.012204094 0.99297625
1.4607812 -0.70996094 0.011249046 0.99352425
1.3307421 -0.70993161 0.010446358 0.99398494
1.2913867 -0.70996094 0.01020668 0.99412251
1.2779492 -0.72361326 0.010171317 0.99414271
1.2780077 -0.7450195 0.01024559 0.99410009
1.2782812 -0.85701168 0.010658798 0.99386281
1.2783984 -0.90449214 0.010846062 0.99375534
1.2784765 -0.92885739 0.010944938 0.99369866
10.775859 -8.4675589 0.094918519 0.94665545
10.497676 -8.4644728 0.093398705 0.94748729
9.7136326 -8.4558201 0.089196734 0.94978923
9.2285347 -8.4504585 0.086666256 0.95117867
8.9961128 -8.4478807 0.085473366 0.95183402
8.5497656 -8.4429588 0.08322338 0.95307201
8.3351955 -8.4405861 0.082159191 0.95365703
7.7227926 -8.4338179 0.079201885 0.95528734
7.3380857 -8.4295607 0.07740581 0.9562791
6.9702148 -8.425498 0.075736389 0.95720202
6.4466991 -8.4197073 0.073446497 0.95846879
6.2790623 -8.4178514 0.07273563 0.95886207
6.1146092 -8.4160547 0.072049446 0.95924169
5.9532228 -8.4142771 0.071388625 0.95960814
5.7947655 -8.4125099 0.070749931 0.95996195
5.6390233 -8.4107904 0.070134774 0.9603036
5.0417771 -8.4041891 0.067878567 0.96155554
4.8982811 -8.4025974 0.067363016 0.96184182
4.7569532 -8.4010353 0.066866986 0.96211797
4.0793357 -8.3935452 0.064636417 0.96335793
3.9490232 -8.3921194 0.064238206 0.9635796
3.8203321 -8.3906927 0.063854791 0.96379298
3.693125 -8.3892965 0.063485026 0.96399832
3.5673828 -8.3878908 0.063130416 0.96419591
3.3199217 -8.3851757 0.062462118 0.96456814
2.9580662 -8.3811712 0.061557274 0.96507221
2.8396873 -8.3798532 0.061281126 0.96522647
2.6060157 -8.3772945 0.060763624 0.96551472
2.0374999 -8.3709955 0.059670296 0.96612465
1.9261523 -8.3697748 0.059483793 0.96622843
1.7053906 -8.3673048 0.05914402 0.96641868
1.5958984 -8.3661232 0.058988724 0.96650505
1.4869921 -8.3649025 0.058844145 0.96658599
0.94943357 -8.3589745 0.058266714 0.96690822
0.84306639 -8.3578119 0.058180731 0.96695656
0.63119137 -8.3554487 0.058034934 0.96703768
0.31501952 -8.351963 0.057887878 0.96712029
0 -8.3484764 0.057821501 0.96715677
-0.20980468 -8.3461523 0.057824973 0.96715552
-0.31474608 -8.3450003 0.057838477 0.96714723
-0.41974607 -8.3438377 0.057862014 0.96713388
-0.52490234 -8.3426752 0.057895735 0.96711534
-0.84117186 -8.339179 0.058050346 0.96702898
-0.9470312 -8.338027 0.058120079 0.96698976
-1.1596289 -8.3356543 0.058289755 0.96689582
-1.3735937 -8.3333006 0.058495291 0.96678048
-1.4811718 -8.332119 0.05861263 0.96671474
-1.6977539 -8.3297262 0.058878552 0.96656692
-2.0266407 -8.3260841 0.059350621 0.96630323
-2.1374609 -8.3248529 0.059529074 0.96620393
-2.361289 -8.3223829 0.059916802 0.9659875
-2.7028906 -8.3186131 0.060579758 0.9656173
-2.8185155 -8.3173237 0.060824163 0.96548134
-3.171289 -8.313447 0.061626319 0.96503395
-3.4119139 -8.310791 0.062222365 0.96470159
-3.5340037 -8.309433 0.062540285 0.96452481
-3.908164 -8.3052931 0.063572884 0.9639495
-4.1648436 -8.3024607 0.0643325 0.96352679
-4.9753904 -8.2935152 0.066985622 0.96205205
-5.26125 -8.2903414 0.068005443 0.96148485
-5.7072263 -8.2854195 0.069681548 0.96055472
-5.8608985 -8.2837105 0.070280686 0.96022213
-6.5037107 -8.2766113 0.072904587 0.95876837
-6.6721482 -8.2747459 0.073621631 0.95837176
-7.0192184 -8.2709084 0.075133167 0.95753527
-7.1982813 -8.2689447 0.075932078 0.95709401
-7.5680857 -8.2648535 0.07761585 0.95616311
-8.1553125 -8.2583685 0.080386043 0.95463431
-8.5709963 -8.2537689 0.082412489 0.95351779
-8.7868948 -8.2513771 0.083485983 0.95292747
-1.0457422 -0.91033202 0.0096024321 0.99446934
-1.0455469 -0.84305662 0.0093024056 0.9946419
-1.0454687 -0.77987301 0.0090336222 0.99479628
-1.0454687 -0.75958985 0.0089505007 0.99484408
-1.0454687 -0.7396875 0.0088699339 0.99489027
-1.0882422 -0.70995116 0.0089992899 0.99481595
-1.1186913 -0.70995116 0.0091766352 0.99471408
-1.1833984 -0.70995116 0.0095584486 0.99449497
-1.2178515 -0.70996094 0.0097634504 0.99437702
-1.3307421 -0.70995116 0.010446396 0.99398488
-1.3719727 -0.70995116 0.010699119 0.9938398
-1.5087109 -0.70995116 0.011548576 0.99335241
-1.6127343 -0.70997071 0.012204094 0.99297625
-1.6692969 -0.70996094 0.012563744 0.99277008
-1.769043 -0.67481446 0.013113517 0.99245489
-1.7690625 -0.64947265 0.013052253 0.99249011
-13.345908 4.5225391 0.058555715 0.94519317
-1.7699023 0.64977539 0.0078350445 0.99248666
-1.7698828 0.67514646 0.0078718951 0.99245143
-1.6126952 0.70993161 0.0073222732 0.99297655
-1.5592577 0.70994139 0.007119827 0.99317026
-1.4607812 0.70994139 0.00674942 0.99352437
-1.3307421 0.70994139 0.006267624 0.993985
-1.2913867 0.70994139 0.0061240387 0.99412262
-1.1503906 0.70994139 0.0056176758 0.99460727
-1.1187109 0.70993161 0.00550621 0.99471414
-1.0882031 0.70994139 0.0053992844 0.99481618
-1.0447656 0.71963865 0.0052720262 0.99493831
-1.0447656 0.7391699 0.0053183362 0.99489379
-1.0447656 0.77930665 0.0054165646 0.99479991
-1.0448437 0.88670897 0.0056947707 0.99453342
-1.0448437 0.90954101 0.0057564923 0.99447423
-1.0448437 0.93288082 0.0058206939 0.99441284
-8.5527344 7.8316894 0.048192482 0.95467204
-8.3373432 7.8293161 0.047528267 0.95528156
-7.7248435 7.8225293 0.045685347 0.95697707
-7.5309763 7.8204002 0.045116536 0.95750117
-6.800703 7.8123336 0.043041267 0.95941538
-6.1330466 7.8049607 0.041248627 0.96107233
-5.9746094 7.8031931 0.040839996 0.96145111
-5.6668358 7.7998047 0.040064085 0.96216959
-5.3704295 7.7965136 0.039341278 0.96283907
-4.9448438 7.7918162 0.038349263 0.96375901
-4.8076172 7.7903123 0.038041726 0.96404457
-4.6725779 7.7888279 0.037744027 0.96432024
-4.4085937 7.7859082 0.037181471 0.96484298
-3.9028904 7.7803025 0.036171492 0.96578145
-3.5405858 7.7763181 0.035506781 0.96639955
-3.4226952 7.7750192 0.035301514 0.9665904
-3.3061328 7.7737207 0.03510521 0.96677399
-3.1908789 7.7724414 0.034915313 0.96695042
-3.0768359 7.7712011 0.034732129 0.96711987
-2.7414453 7.7674608 0.034229394 0.96758842
-2.6317186 7.7662597 0.034075201 0.96773165
-2.2021484 7.7615333 0.033526495 0.96824336
-2.0967968 7.7603512 0.033405494 0.96835667
-1.9922069 7.7591991 0.033289757 0.9684642
-1.8883203 7.7580371 0.033181038 0.96856618
-1.682539 7.7557616 0.032979127 0.96875364
-1.378125 7.7524118 0.032721024 0.96899474
