# .PCD v0.7 - Point Cloud Data file format
VERSION 0.7
FIELDS x y z intensity
SIZE 4 4 4 4
TYPE F F F F
COUNT 1 1 1 1
WIDTH 1082
HEIGHT 1
VIEWPOINT 0 0 0 1 0 0 0
POINTS 1082
DATA ascii
2.1501758 -8.3744335 -0.25157565 0.96599281
2.0380664 -8.3731833 -0.25074941 0.96610266
1.9266406 -8.3719625 -0.24996805 0.96620649
1.815918 -8.3707418 -0.24923067 0.96630448
1.7058203 -8.3695307 -0.24853577 0.96639675
1.4873828 -8.3670998 -0.24727511 0.9665643
1.3789648 -8.3658981 -0.24670839 0.96663964
1.2710156 -8.3647165 -0.24618293 0.96670949
1.163496 -8.3635159 -0.24569856 0.96677399
0.84328121 -8.3599901 -0.24448574 0.9669351
0.52574217 -8.3564749 -0.24363065 0.96704894
0.42031249 -8.3553219 -0.2434238 0.96707648
0.31507811 -8.3541498 -0.2432546 0.96709889
0.20996094 -8.3529978 -0.24312489 0.96711612
0.10496093 -8.3518257 -0.24303378 0.96712834
1.953125e-05 -8.3506536 -0.242981 0.96713543
-0.10492187 -8.3495016 -0.24296573 0.96713734
-0.20986328 -8.3483295 -0.24298976 0.96713418
-0.31484374 -8.3471775 -0.24305221 0.96712589
-0.4198828 -8.3460255 -0.24315307 0.96711248
-0.52501953 -8.3448629 -0.24329247 0.967094
-0.84142578 -8.3413668 -0.24394099 0.96700752
-1.053457 -8.3390236 -0.24457002 0.96692395
-1.1599414 -8.337842 -0.24494393 0.96687424
-1.5896484 -8.333086 -0.24684139 0.96662199
-2.0271485 -8.3282518 -0.2494045 0.96628141
-2.1380663 -8.3270311 -0.25015184 0.96618193
-2.2496092 -8.3258009 -0.25094441 0.96607667
-2.3619139 -8.3245602 -0.251782 0.96596545
-2.5888672 -8.3220606 -0.25359473 0.96572465
-3.1721094 -8.3156147 -0.25896764 0.9650113
-3.2918944 -8.3142767 -0.26019415 0.96484858
-3.5349414 -8.3116016 -0.2628074 0.96450174
-3.6583397 -8.3102341 -0.26419717 0.96431744
-3.9092185 -8.3074703 -0.26714924 0.96392608
-4.0368161 -8.3060646 -0.26871449 0.96371859
-4.6990623 -8.2987299 -0.277493 0.96255577
-4.8368945 -8.2972164 -0.27945277 0.96229637
-5.4089451 -8.2908983 -0.28803989 0.96116048
-5.7087302 -8.2875881 -0.29281807 0.96052915
-5.8624411 -8.2858982 -0.29533789 0.96019632
-6.1780663 -8.282402 -0.30065444 0.95949453
-6.5054297 -8.2787695 -0.30636153 0.95874166
-6.6739254 -8.2769337 -0.30937216 0.9583447
-6.8457618 -8.2750292 -0.31249255 0.95793355
-7.0210934 -8.2730951 -0.31572625 0.95750767
-7.7612891 -8.2649021 -0.32989845 0.95564336
-7.9570312 -8.2627439 -0.33377719 0.95513362
-8.3627338 -8.2582617 -0.34197882 0.9540568
-8.7891989 -8.2535448 -0.3508226 0.95289707
-1.0356641 -0.9246875 -0.040397909 0.99445945
-1.0357617 -0.90163082 -0.039956205 0.99451983
-1.0359961 -0.83534175 -0.038722649 0.99468863
-1.0361524 -0.7933203 -0.037970886 0.99479151
-1.0362109 -0.77291989 -0.037614554 0.99484026
-1.0364257 -0.713916 -0.036618195 0.99497646
-1.0589257 -0.70994139 -0.037095144 0.99491125
-1.1187109 -0.70993161 -0.038552284 0.99471194
-1.1504102 -0.70995116 -0.039334182 0.99460495
-1.2914063 -0.70995116 -0.04287941 0.99412012
-1.3307421 -0.70994139 -0.043886185 0.99398255
-1.5087304 -0.70996094 -0.048516616 0.99334967
-1.6127148 -0.70995116 -0.051270828 0.99297357
-1.7293164 -0.70993161 -0.054393079 0.99254727
-1.7801367 -0.70480466 -0.055708043 0.99236768
-1.7800976 -0.67904294 -0.05543514 0.99240488
-1.7800585 -0.65352535 -0.055173721 0.99244058
-12.918779 -4.5595508 -0.39862171 0.94665331
-12.975048 -4.3968654 -0.39862168 0.94665331
-13.029297 -4.2334571 -0.39862159 0.94665325
-13.431152 -4.1781931 -0.40927795 0.9452669
-14.012822 -4.166748 -0.42537493 0.94317681
-15.33624 -4.1437793 -0.46224016 0.93840688
-16.099482 -4.1336427 -0.48364103 0.93564898
-16.753828 -4.0779591 -0.50171918 0.93332565
-16.851034 -3.6556346 -0.50171894 0.93332559
-16.895655 -3.4436133 -0.50171882 0.93332553
-16.937578 -3.2310154 -0.50171864 0.93332559
-16.976854 -3.0179198 -0.50171852 0.93332553
-17.013447 -2.8043652 -0.5017184 0.93332547
-17.047304 -2.590332 -0.50171822 0.93332565
-17.132763 -1.9459765 -0.50171769 0.93332589
-17.155859 -1.7305371 -0.50171757 0.93332589
-17.193945 -1.2988477 -0.50171715 0.93332583
-17.208897 -1.0826758 -0.50171697 0.93332589
-17.221142 -0.86635739 -0.50171673 0.93332589
-15.731269 0.5933398 -0.50171202 0.93894178
-15.662978 1.5799316 -0.50171083 0.93894178
-15.61833 1.9730663 -0.5017103 0.93894172
-15.592295 2.1691601 -0.50171006 0.93894178
-15.53287 2.5603027 -0.50170952 0.93894178
-15.463613 2.9498339 -0.50170892 0.93894178
-15.425332 3.1439257 -0.50170869 0.93894178
-15.341396 3.5305662 -0.50170803 0.93894196
-15.295752 3.7230566 -0.50170773 0.93894225
-15.193154 3.9009373 -0.49991071 0.93915409
-13.035459 3.8761425 -0.43341613 0.94702876
-12.449853 3.8729296 -0.41553184 0.94915813
-11.910566 3.8699706 -0.39912349 0.95111579
-11.840957 4.0125585 -0.39844921 0.95119631
-11.78959 4.1610351 -0.39844894 0.95119637
-1.7808789 0.65382808 -0.060460776 0.99243647
-1.780957 0.67935544 -0.060747717 0.99240065
-1.7809961 0.70512694 -0.061046675 0.99236339
-1.7293164 0.70994139 -0.05957691 0.99254662
-1.6693164 0.70996094 -0.05781189 0.99276656
-1.6127148 0.70994139 -0.056156997 0.99297297
-1.5087109 0.70995116 -0.053140182 0.99334919
-1.4608008 0.70996094 -0.051762085 0.99352103
-1.4152734 0.70996094 -0.050461233 0.99368334
-1.3719727 0.70993161 -0.049231756 0.99383688
-1.253828 0.70995116 -0.045919877 0.99425018
-1.2178711 0.70995116 -0.044926375 0.99437422
-1.1834179 0.70994139 -0.043981627 0.99449229
-1.0882226 0.70996094 -0.041409757 0.9948135
-1.0357226 0.71342772 -0.040081251 0.99497944
-1.0355859 0.75239259 -0.040794868 0.99489027
-1.0354297 0.7927832 -0.041560858 0.99479461
-1.0353711 0.81356442 -0.041964758 0.99474412
-1.0350976 0.87841797 -0.043266371 0.99458164
-1.0350195 0.90096676 -0.043732259 0.99452335
-1.0348828 0.92399412 -0.044215314 0.99446315
-8.1254492 7.8247948 -0.35950619 0.95585883
-7.9214063 7.8225293 -0.35480192 0.95642388
-7.7226367 7.8203416 -0.35027263 0.95696795
-7.5288477 7.818193 -0.34591052 0.95749217
-7.3397851 7.8160934 -0.34171125 0.95799738
-6.9749608 7.8120704 -0.33376515 0.95895392
-6.4579492 7.8063669 -0.3228851 0.96026498
-6.2929492 7.8045311 -0.31951278 0.96067166
-5.9729295 7.8010058 -0.31312159 0.96144283
-5.8176365 7.7992773 -0.3100931 0.9618085
-5.6652536 7.7976074 -0.30717126 0.96216148
-5.368906 7.7943258 -0.30162966 0.96283114
-5.2246289 7.7927341 -0.29900447 0.96314877
-5.082871 7.7911816 -0.29646975 0.96345526
-4.6712694 7.7866306 -0.28938693 0.96431261
-4.2783203 7.7822657 -0.28302756 0.96508312
-4.0256052 7.7794724 -0.27915782 0.96555227
-3.7795117 7.7767673 -0.27556342 0.9659881
-3.658828 7.7754297 -0.27386603 0.96619409
-3.5395899 7.7741113 -0.27223104 0.9663924
-3.3052149 7.7715135 -0.26914534 0.96676695
-3.1899414 7.7702637 -0.26769152 0.96694338
-2.9631054 7.7677441 -0.26495576 0.96727568
-2.8513865 7.7665133 -0.2636703 0.96743172
-2.7406836 7.7652926 -0.26243868 0.96758139
-2.5223045 7.7628708 -0.2601324 0.96786171
-2.4145117 7.7616892 -0.25905505 0.96799266
-2.3075976 7.760498 -0.25802711 0.96811759
-2.0961914 7.7581835 -0.25611803 0.96834987
-1.9916601 7.7570019 -0.2552332 0.96845746
-1.4786524 7.7513375 -0.25148731 0.96891296
-1.2773046 7.7491112 -0.25029474 0.96905816
-1.1773242 7.7480273 -0.24976119 0.96912295
-1.0777344 7.7469139 -0.24926932 0.96918285
-0.87966794 7.7447262 -0.24840938 0.96928757
-0.78111327 7.7436328 -0.24803965 0.96933258
-0.48699218 7.7403903 -0.24717185 0.9694382
0 7.7350097 -0.24651337 0.96951848
0.29160157 7.7317967 -0.24658523 0.9695096
0.38888672 7.7307029 -0.24668717 0.96949726
0.48628905 7.7296286 -0.24682817 0.96948004
0.5838086 7.7285547 -0.2470084 0.9694581
0.68146485 7.7274704 -0.24722777 0.96943134
0.77933592 7.7263961 -0.2474868 0.96939981
0.87744141 7.7253122 -0.24778649 0.96936339
0.9757812 7.7242184 -0.24812528 0.96932214
1.0743945 7.7231345 -0.24850409 0.96927601
1.2726367 7.7209568 -0.24938457 0.96916884
1.5729296 7.717617 -0.25101453 0.96897054
1.8776367 7.7142477 -0.25302893 0.9687255
2.0836914 7.7119727 -0.25459275 0.96853536
2.1877148 7.7108297 -0.25544187 0.96843207
2.2924414 7.7096777 -0.2563377 0.96832311
2.3979101 7.7085056 -0.25728014 0.96820849
2.8282616 7.7037597 -0.26153919 0.96769071
2.9381835 7.702529 -0.26273155 0.96754599
3.0491016 7.7013083 -0.26397577 0.96739477
3.2742381 7.6988182 -0.26662713 0.96707273
3.3885546 7.6975489 -0.26803699 0.96690154
3.504082 7.6962891 -0.26950455 0.96672332
3.6209178 7.6950097 -0.27103129 0.96653795
3.7390819 7.6936913 -0.27261952 0.96634537
3.8586912 7.6923728 -0.27426925 0.96614516
3.9797461 7.6910253 -0.2759828 0.96593732
4.2265821 7.6882911 -0.27960905 0.96549755
4.3525195 7.686914 -0.28152546 0.96526515
4.6096873 7.6840625 -0.28557572 0.96477443
4.7411132 7.6826267 -0.28771296 0.96451539
4.8745508 7.6811423 -0.28992936 0.96424705
5.1477537 7.6781249 -0.29460648 0.96368086
5.287715 7.6765819 -0.29707301 0.96338242
5.4301171 7.6749997 -0.29962954 0.96307319
5.5749803 7.6733789 -0.30227897 0.962753
5.7224412 7.6717672 -0.30502361 0.96242118
6.025703 7.6684179 -0.31081587 0.96172154
6.1817384 7.6666989 -0.31386954 0.96135277
6.340879 7.6649508 -0.31703499 0.96097076
6.669199 7.6613278 -0.32371706 0.96016467
6.838613 7.6594434 -0.32724315 0.95973969
7.011816 7.6575193 -0.3309001 0.95929903
7.3702536 7.653574 -0.33862773 0.95836848
7.7460351 7.6494141 -0.3469497 0.9573676
7.9410152 7.6472559 -0.35135072 0.95683867
8.1410542 7.6450586 -0.35592151 0.95628947
9.7069721 7.6277537 -0.3934446 0.95179415
1.2655274 0.94397461 -0.050316658 0.99370146
1.2657031 0.89550781 -0.049413145 0.99381423
1.2657812 0.87189454 -0.048984792 0.9938677
1.2659374 0.82589841 -0.048172377 0.99396908
1.2661133 0.78135741 -0.047415692 0.99406344
1.2661523 0.75958008 -0.047057189 0.99410838
1.2662694 0.71701169 -0.046377677 0.99419326
1.2914063 0.70996094 -0.046966016 0.99411958
1.3307421 0.70995116 -0.048068542 0.99398202
1.3719531 0.70993161 -0.049231987 0.99383694
1.5087304 0.70993161 -0.053140335 0.99334919
1.5593164 0.70994139 -0.054602887 0.99316669
1.6126952 0.70995116 -0.056157071 0.99297303
1.6693164 0.70994139 -0.057811927 0.99276656
1.7931055 0.70994139 -0.061463088 0.99231166
1.8611132 0.70995116 -0.063482895 0.99205995
1.9337695 0.70995116 -0.065650709 0.99178982
2.0103905 0.70955074 -0.067944027 0.99150425
2.010293 0.68121094 -0.06764587 0.99154139
2.0101757 0.65313476 -0.067360952 0.99157691
12.580645 3.5694628 -0.41676965 0.94901049
15.19541 4.105742 -0.50164241 0.93894982
15.530762 2.5599706 -0.5016433 0.93894976
15.590176 2.1688573 -0.5016436 0.93894982
15.660839 1.579746 -0.50164407 0.93894982
15.709277 0.98834962 -0.50164461 0.93894976
15.720448 0.79085934 -0.50164479 0.93894976
15.73916 0.19779296 -0.50164539 0.93894953
15.73916 -0.19779296 -0.5016458 0.93894953
15.720566 -0.79085934 -0.50164646 0.93894935
15.709394 -0.98833984 -0.5016467 0.93894929
15.695723 -1.1856738 -0.501647 0.93894935
15.660995 -1.5797364 -0.50164741 0.93894929
15.639902 -1.7764257 -0.50164771 0.93894929
15.561874 -2.3646288 -0.50164849 0.93894911
15.497559 -2.754951 -0.50164902 0.93894905
15.461659 -2.9494824 -0.50164932 0.93894923
15.423418 -3.1435449 -0.50164962 0.93894911
15.195644 -4.1058106 -0.50165117 0.93894893
15.142871 -4.2964158 -0.50165147 0.93894887
14.558261 -4.5288281 -0.48590177 0.94080758
2.0101562 -0.65314454 -0.067360841 0.99157697
1.8611132 -0.70995116 -0.063482814 0.99205995
1.6692773 -0.70994139 -0.057811774 0.99276668
1.6127148 -0.70995116 -0.056157112 0.99297297
1.5592773 -0.70996094 -0.054602508 0.9931668
1.2662305 -0.73816407 -0.046711273 0.99415147
1.2661133 -0.78135741 -0.047415581 0.99406344
1.2660351 -0.80343747 -0.047787208 0.99401712
1.2657617 -0.87191403 -0.048984792 0.99386775
1.2656835 -0.89550781 -0.04941307 0.99381429
9.929863 -7.6029491 -0.39857626 0.95118135
9.8335743 -7.7271481 -0.39857659 0.95118123
9.5354099 -8.0923042 -0.39857763 0.95118099
9.4329882 -8.2115526 -0.39857799 0.95118082
9.3290424 -8.3294334 -0.39857832 0.95118082
8.998457 -8.4500971 -0.39340749 0.95179898
8.5519724 -8.4451752 -0.38304749 0.95303798
7.9240232 -8.4382229 -0.3689155 0.95473087
7.724824 -8.4360056 -0.3645454 0.95525479
7.5302148 -8.4338865 -0.36033502 0.95575988
7.3399997 -8.4317675 -0.35627645 0.95624727
7.1540036 -8.4297266 -0.35236338 0.95671731
6.9720116 -8.4277048 -0.34858927 0.95717084
6.7939062 -8.4257421 -0.34494931 0.95760834
5.796289 -8.4147072 -0.32564411 0.95993268
5.1888671 -8.4079981 -0.31488404 0.96123058
5.0431051 -8.4063864 -0.31242463 0.96152741
4.89957 -8.4047947 -0.3100532 0.96181387
4.7581835 -8.4032421 -0.30776569 0.96209025
4.6188865 -8.4016895 -0.30555955 0.96235687
4.2123632 -8.3972073 -0.29940468 0.96310079
4.0803709 -8.395752 -0.29750109 0.9633311
3.9500585 -8.3943167 -0.2956681 0.96355289
3.8213086 -8.39289 -0.2939035 0.96376652
3.694082 -8.3914938 -0.29220483 0.96397197
3.5682812 -8.3900976 -0.29057106 0.96416968
3.4439061 -8.38873 -0.289002 0.96435964
3.3207617 -8.3873634 -0.28749508 0.96454227
3.0783007 -8.3846874 -0.2846604 0.96488559
2.84041 -8.3820505 -0.28205842 0.96520096
2.6066797 -8.3794727 -0.27967757 0.96548951
2.4912696 -8.3782034 -0.27856824 0.96562397
2.3767579 -8.3769331 -0.27751148 0.96575218
2.1501758 -8.3744335 -0.27555138 0.96599001
1.7058203 -8.3695307 -0.27222174 0.96639395
1.5963281 -8.36831 -0.27150875 0.96648055
1.4873828 -8.3670998 -0.27084199 0.9665615
1.3789648 -8.3658981 -0.27021924 0.9666369
1.2710156 -8.3647165 -0.26964363 0.96670675
1.163496 -8.3635159 -0.26911297 0.96677125
1.0563867 -8.3623438 -0.26862678 0.96683025
0.7371875 -8.3588181 -0.26742947 0.96697551
0.63134766 -8.357646 -0.26711747 0.96701348
0.52574217 -8.3564749 -0.26684818 0.9670462
0.42031249 -8.3553219 -0.26662144 0.96707374
0.20996094 -8.3529978 -0.26629516 0.96711338
-0.31484374 -8.3471775 -0.26621547 0.96712315
-0.52501953 -8.3448534 -0.26647758 0.96709126
-1.3739648 -8.3354883 -0.26923621 0.96675611
-1.481582 -8.3342962 -0.2697781 0.96669036
-1.5896484 -8.333086 -0.27036494 0.96661919
-1.8072851 -8.3306932 -0.27167535 0.96646011
-1.9168944 -8.3294725 -0.27240035 0.96637225
-2.0271485 -8.3282518 -0.27317217 0.96627861
-2.3619139 -8.3245602 -0.27577734 0.96596259
-2.4749804 -8.3233099 -0.27674475 0.96584529
-2.5888672 -8.3220606 -0.27776164 0.96572179
-2.8192577 -8.3195114 -0.27995417 0.96545601
-2.9358788 -8.3182325 -0.28113037 0.96531343
-3.1721485 -8.3156147 -0.2836467 0.96500838
-3.5349414 -8.3116016 -0.2878536 0.96449882
-3.7831054 -8.308877 -0.29095948 0.96412253
-3.9092185 -8.3074703 -0.29260701 0.96392304
-4.0368161 -8.3060646 -0.29432085 0.96371561
-4.1659374 -8.3046284 -0.29610249 0.96350008
-4.4290037 -8.3017187 -0.29987407 0.96304393
-4.9766989 -8.2956734 -0.30831006 0.96202433
-5.4089451 -8.2908983 -0.31549063 0.96115726
-5.8624411 -8.2858791 -0.32348427 0.96019304
-6.1780663 -8.282402 -0.32930604 0.95949113
-6.5054684 -8.2787695 -0.33555847 0.95873821
-6.6739254 -8.2769337 -0.33885595 0.95834124
-6.8457618 -8.2750292 -0.34227347 0.95793009
-7.0210934 -8.2730951 -0.34581527 0.95750415
-7.3831053 -8.2691011 -0.35329509 0.9566052
-7.7612891 -8.2649021 -0.36133704 0.95563972
-8.5732613 -8.2559376 -0.37932196 0.95348382
-8.7891989 -8.2535448 -0.38425675 0.9528932
-1.0348243 -0.94755858 -0.04471634 0.99440044
-1.0350195 -0.90098631 -0.0437323 0.99452329
-1.0350976 -0.87843746 -0.043266334 0.99458158
-1.0352539 -0.83476561 -0.042383157 0.99469191
-1.035332 -0.81356442 -0.041964684 0.99474424
-1.0354491 -0.7927832 -0.041560896 0.99479455
-1.0355273 -0.77240235 -0.041170996 0.99484324
-1.0355859 -0.75239259 -0.04079479 0.99489027
-1.0357422 -0.71342772 -0.04008133 0.99497938
-1.0882617 -0.70995116 -0.041409604 0.99481338
-1.1187109 -0.70993161 -0.042226296 0.99471152
-1.1504102 -0.70995116 -0.043082885 0.99460453
-1.1834179 -0.70994139 -0.043981779 0.99449229
-1.2538086 -0.70996094 -0.045919951 0.99425024
-1.3307421 -0.70994139 -0.048068542 0.99398202
-1.3719727 -0.70996094 -0.049232025 0.99383682
-1.4608008 -0.70995116 -0.05176216 0.99352103
-1.5087304 -0.70996094 -0.053140335 0.99334913
-1.5593164 -0.70995116 -0.054602776 0.99316669
-1.6127148 -0.70995116 -0.056157149 0.99297297
-1.7293164 -0.70993161 -0.059576873 0.99254662
-1.7809374 -0.67935544 -0.060747564 0.99240071
-1.7808789 -0.65382808 -0.060460813 0.99243647
-11.900527 -4.2001562 -0.40219736 0.95074868
-12.366826 -4.190752 -0.41614369 0.949085
-12.866679 -4.1806345 -0.43116206 0.94729686
-13.403984 -4.1697364 -0.4473761 0.94537008
-13.995479 -4.1615915 -0.46533558 0.9432404
-14.637627 -4.1530566 -0.48491246 0.94092441
-15.295966 -3.7231054 -0.50171566 0.93894142
-15.384727 -3.3375194 -0.50171548 0.9389413
-15.425448 -3.143955 -0.50171536 0.9389413
-15.463759 -2.9498632 -0.50171524 0.93894124
-15.49959 -2.7553124 -0.50171512 0.9389413
-15.532978 -2.5603223 -0.50171494 0.93894136
-15.563926 -2.3649316 -0.50171483 0.93894136
-15.592422 -2.1691797 -0.50171465 0.9389413
-15.642001 -1.7766405 -0.50171435 0.93894136
-15.663105 -1.5799316 -0.50171417 0.9389413
-15.681669 -1.3829882 -0.50171399 0.93894148
-15.697803 -1.18583 -0.50171387 0.93894154
-15.731338 -0.59332031 -0.50171328 0.93894154
-15.737538 -0.39560547 -0.5017131 0.9389416
-15.741269 -0.19782226 -0.50171292 0.9389416
-14.482128 -0 -0.50171 0.94368464
-14.480986 0.18198241 -0.50170982 0.94368464
-14.477539 0.36394531 -0.50170958 0.9436847
-14.471846 0.54583985 -0.5017094 0.94368458
-14.453545 0.90934569 -0.50170898 0.94368464
-14.408964 1.4534374 -0.50170827 0.94368476
-14.317734 2.1755664 -0.50170732 0.94368482
-14.258534 2.5346875 -0.50170684 0.94368482
-14.152851 3.0703125 -0.50170606 0.94368488
-14.113173 3.24791 -0.50170577 0.94368482
-14.071259 3.425 -0.50170547 0.94368476
-14.027021 3.6015429 -0.50170517 0.94368505
-13.980683 3.7775292 -0.50170487 0.943685
-10.92623 3.8563182 -0.40140641 0.9546839
-1.7817383 0.65415037 -0.0657539 0.99243212
-1.7817968 0.67967772 -0.066065788 0.99239635
-1.7818359 0.70547849 -0.06639114 0.9923591
-1.7293164 0.70994139 -0.064761542 0.99254596
-1.5592773 0.70996094 -0.059354514 0.99316615
-1.4608008 0.70996094 -0.056266554 0.99352044
-1.3307226 0.70994139 -0.052251548 0.99398154
-1.1504102 0.70996094 -0.046831895 0.99460399
-1.1186913 0.70994139 -0.045900915 0.99471104
-1.0882226 0.70996094 -0.045013122 0.99481302
-1.0589257 0.70994139 -0.044165917 0.99491036
-1.0350586 0.71293944 -0.043540265 0.9949823
-1.0349804 0.73223633 -0.043920897 0.99493855
-1.0347852 0.77188474 -0.044723433 0.9948464
-1.0347265 0.7922461 -0.045146447 0.99479771
-1.0344336 0.85575193 -0.046509933 0.99464113
-1.034043 0.9468652 -0.048571698 0.99440408
-8.3349409 7.8270993 -0.39610824 0.9552682
-8.1254492 7.8247948 -0.39079234 0.95585489
-7.7226367 7.8203416 -0.38075519 0.95696408
-7.5288477 7.818193 -0.37601402 0.95748836
-6.4579492 7.8063669 -0.35098284 0.9602614
-5.2246289 7.7927341 -0.32502434 0.96314543
-5.082871 7.7911816 -0.3222701 0.96345192
-4.943418 7.7896285 -0.31961134 0.96374804
-4.8062696 7.788125 -0.3170456 0.96403366
-3.9017577 7.7781348 -0.30146056 0.96577102
-3.7795117 7.7767673 -0.29954445 0.965985
-3.5395899 7.7741113 -0.29592216 0.96638936
-3.4217381 7.7728124 -0.29421213 0.96658027
-3.1899414 7.7702637 -0.29098746 0.9669404
-2.630996 7.7640719 -0.28399563 0.96772182
-2.5223045 7.7628708 -0.28276953 0.96785885
-2.4145117 7.7616892 -0.28159845 0.96798974
-2.0961914 7.7581835 -0.27840459 0.96834695
-1.7846289 7.7547359 -0.27566996 0.96865296
-1.3777539 7.7502341 -0.27270135 0.96898526
-1.2773046 7.7491112 -0.27207589 0.96905535
-1.0777539 7.7469234 -0.27096197 0.96918005
-0.682832 7.7425485 -0.26926744 0.96936983
-0.58480465 7.7414746 -0.26895264 0.96940506
-0.19451171 7.7371483 -0.26812395 0.96949792
-0.097207032 7.736084 -0.26802307 0.96950918
0.097167969 7.7339354 -0.26794901 0.96951753
0.48628905 7.7296286 -0.26830849 0.9694773
0.5838086 7.7285547 -0.26850423 0.9694553
0.68146485 7.7274704 -0.26874295 0.9694286
0.9757812 7.7242184 -0.26971844 0.9693194
1.0743945 7.7231345 -0.27013022 0.96927321
2.1877148 7.7108297 -0.27767086 0.96842921
2.5042186 7.707334 -0.28074595 0.96808511
2.8282616 7.7037597 -0.28429982 0.96768779
3.6209178 7.6950097 -0.29461777 0.96653491
3.8587303 7.6923728 -0.29813662 0.966142
3.9797461 7.6910253 -0.30000043 0.96593422
4.1023631 7.6896677 -0.30193445 0.96571839
4.2265821 7.6882911 -0.30394185 0.96549445
4.3525195 7.686914 -0.30602521 0.965262
4.4801755 7.6854978 -0.30818617 0.96502107
4.6096873 7.6840625 -0.31042698 0.96477121
5.0100389 7.6796288 -0.31765702 0.96396583
5.1477537 7.6781249 -0.32024458 0.96367759
5.4301171 7.6749997 -0.32570463 0.96306986
5.5749803 7.6733789 -0.32858419 0.9627496
5.8726368 7.6701074 -0.33465889 0.96207416
6.1817384 7.6666989 -0.34118327 0.96134931
6.5033398 7.6631446 -0.34819025 0.96057129
7.011816 7.6575193 -0.35969537 0.95929539
7.1889648 7.6555762 -0.36381871 0.95883846
7.5558591 7.6515036 -0.37253454 0.95787346
7.9410348 7.6472363 -0.38192716 0.95683473
8.3463478 7.6427832 -0.39205796 0.95571548
8.6739254 7.5507908 -0.39840171 0.95501536
8.9524021 7.2184863 -0.39840147 0.95501524
1.264668 0.94333982 -0.054657936 0.99370515
1.2651367 0.82534176 -0.05233017 0.99397242
1.2652929 0.78084958 -0.05150871 0.99406672
1.2654883 0.71657223 -0.050381813 0.9941963
1.3307421 0.70995116 -0.052251585 0.99398142
1.3719531 0.70993161 -0.053516272 0.99383634
1.415293 0.70994139 -0.054852903 0.99368274
1.6693164 0.70994139 -0.062842749 0.9927659
1.7293164 0.70995116 -0.064761348 0.9925459
1.9337695 0.70995116 -0.071363829 0.99178904
2.0123632 0.68194336 -0.073609926 0.99153185
2.012285 0.65383786 -0.073299594 0.99156731
11.955312 3.5549512 -0.43209517 0.95130497
14.025352 3.6010938 -0.50164545 0.94369161
14.069511 3.4245703 -0.50164551 0.94369155
14.111425 3.2474902 -0.50164562 0.94369161
14.151093 3.069912 -0.50164574 0.94369167
14.223789 2.7133398 -0.50164598 0.94369161
14.256738 2.5343847 -0.50164604 0.94369167
14.28748 2.3550196 -0.50164616 0.94369161
14.315996 2.1753027 -0.50164634 0.94369143
14.342187 1.9952539 -0.50164646 0.94369149
14.387832 1.6341894 -0.50164676 0.94369137
14.424335 1.2721192 -0.50164706 0.94369143
14.439179 1.0907617 -0.50164723 0.94369143
14.451738 0.90923828 -0.50164735 0.94369149
14.470019 0.54577148 -0.50164777 0.94369149
14.475761 0.36387694 -0.50164789 0.94369137
14.47916 0.18194336 -0.50164807 0.94369149
14.480371 9.7656248e-06 -0.50164831 0.94369125
14.451777 -0.90923828 -0.50164932 0.94369131
14.38791 -1.6342089 -0.50165021 0.94369107
14.316113 -2.1753418 -0.50165093 0.94369096
14.287617 -2.3550487 -0.50165123 0.94369107
14.188769 -2.8919041 -0.501652 0.94369084
14.111621 -3.2475684 -0.50165254 0.94369078
14.069668 -3.424619 -0.50165284 0.94369096
13.826933 -4.3013086 -0.50165427 0.94369072
2.0122657 -0.65381837 -0.07329952 0.99156737
2.0123827 -0.68194336 -0.073609881 0.99153179
1.9337499 -0.70994139 -0.07136368 0.99178916
1.7931445 -0.70996094 -0.066811748 0.99231076
1.6692773 -0.70994139 -0.062842749 0.99276602
1.6127148 -0.70995116 -0.061043892 0.99297231
1.5087109 -0.70994139 -0.057764739 0.9933486
1.4607617 -0.70994139 -0.056266744 0.99352062
1.3307226 -0.70996094 -0.052251585 0.99398148
1.2913867 -0.70996094 -0.051053084 0.99411911
1.2655274 -0.71657223 -0.050381925 0.99419618
1.2654102 -0.7376855 -0.050743941 0.99415469
1.2653711 -0.75910157 -0.051119499 0.99411148
1.2652148 -0.80292964 -0.051912267 0.9940204
1.2651172 -0.82534176 -0.052330323 0.99397248
1.2650195 -0.84815431 -0.052763555 0.99392277
1.2649413 -0.87131834 -0.053212319 0.99387121
1.2647656 -0.91889644 -0.054158971 0.99376243
1.264668 -0.9433496 -0.054657783 0.99370509
9.0463867 -7.1085644 -0.39857763 0.95499587
8.8648634 -7.333662 -0.39857826 0.95499593
8.5822268 -7.6626072 -0.39857921 0.95499563
8.4852533 -7.7698531 -0.39857951 0.95499563
8.287344 -7.9806442 -0.39858016 0.95499557
8.1863861 -8.0841599 -0.39858049 0.95499557
7.9806638 -8.2873535 -0.39858115 0.95499545
7.8758788 -8.3869925 -0.3985815 0.95499545
7.724824 -8.4360056 -0.39626992 0.95525074
7.5301757 -8.4338675 -0.39169332 0.95575607
7.3399997 -8.4317675 -0.38728133 0.95624334
6.9720116 -8.4277048 -0.37892273 0.95716703
6.7939062 -8.4257421 -0.37496614 0.95760453
6.6193552 -8.4238081 -0.37114945 0.95802712
6.4483786 -8.4219046 -0.36746693 0.95843476
6.2807226 -8.4200487 -0.36391273 0.95882833
5.9547653 -8.4164648 -0.35717529 0.95957506
5.3369336 -8.4096384 -0.34505528 0.96091956
5.1888671 -8.4079981 -0.34228575 0.96122706
4.6188865 -8.4016895 -0.33215085 0.96235341
4.4815235 -8.4001856 -0.32983741 0.96261054
4.3460546 -8.3986912 -0.32760841 0.96285844
4.2123241 -8.3972073 -0.32546055 0.96309757
3.9500585 -8.3943167 -0.32139653 0.96354961
3.8213086 -8.39289 -0.31947845 0.96376324
3.0783007 -8.3846874 -0.30943283 0.96488237
2.84041 -8.3820505 -0.30660355 0.96519786
2.7230663 -8.3807516 -0.30528051 0.96534538
2.6066797 -8.3794727 -0.30401659 0.96548641
2.4912696 -8.3782034 -0.30281082 0.96562088
2.3767579 -8.3769331 -0.30166203 0.96574908
2.2630663 -8.3756638 -0.30056912 0.9658711
2.1501758 -8.3744335 -0.29953119 0.96598691
2.0380664 -8.3731833 -0.29854655 0.96609676
1.9266406 -8.3719625 -0.29761612 0.96620065
1.7058203 -8.3695307 -0.29591089 0.96639091
1.5963086 -8.36831 -0.29513583 0.96647751
1.4873828 -8.3670998 -0.29441008 0.96655846
1.2710156 -8.3647165 -0.29310963 0.96670371
1.163496 -8.3635159 -0.29253277 0.96676821
1.0563867 -8.3623438 -0.29200315 0.96682727
0.84328121 -8.3599901 -0.29108879 0.96692938
0.7371875 -8.3588181 -0.29070279 0.96697253
0.52574217 -8.3564749 -0.29007065 0.96704322
0.42031249 -8.3553219 -0.28982431 0.96707076
0.31507811 -8.3541498 -0.28962392 0.96709317
-0.10492187 -8.3495016 -0.28928003 0.96713161
-0.31484374 -8.3471775 -0.28938189 0.96712017
-0.7357617 -8.3425388 -0.29013592 0.96703577
-0.84142578 -8.3413668 -0.29044029 0.9670018
-1.053457 -8.3390236 -0.29118919 0.96691823
-1.3739648 -8.3354883 -0.29266667 0.96675313
-1.481582 -8.3342962 -0.29325563 0.96668732
-1.5896484 -8.333086 -0.29389361 0.96661615
-1.6982031 -8.3318939 -0.29458088 0.96653944
-1.8072851 -8.3306932 -0.29531813 0.96645707
-1.9168944 -8.3294725 -0.29610604 0.96636921
-2.1380663 -8.3270311 -0.2978361 0.96617609
-2.3619335 -8.3245602 -0.29977575 0.96595949
-3.1721094 -8.3156147 -0.30833024 0.96500522
-3.2918944 -8.3142967 -0.30979061 0.96484238
-3.5349414 -8.3116016 -0.31290302 0.9644956
-3.7831054 -8.308877 -0.31627935 0.96411932
-3.9092185 -8.3074703 -0.31807122 0.96391982
-4.0368161 -8.3060646 -0.31993455 0.96371233
-4.2966599 -8.3032026 -0.32388228 0.96327287
-4.4290037 -8.3017187 -0.32597077 0.96304059
-4.6991014 -8.2987499 -0.33038786 0.96254915
-4.8368945 -8.2972164 -0.33272105 0.96228987
-5.1186132 -8.2941208 -0.33764964 0.96174198
-5.2626367 -8.29251 -0.34025055 0.9614532
-5.4089451 -8.2908983 -0.34294638 0.96115381
-5.7087302 -8.2875881 -0.34863406 0.96052229
-5.8624411 -8.2858791 -0.35163423 0.96018946
-6.0188475 -8.2841597 -0.35474285 0.95984465
-6.1780663 -8.282402 -0.35796398 0.9594875
-6.3402147 -8.2806149 -0.36130175 0.95911759
-6.6739254 -8.2769337 -0.3683449 0.95833749
-7.0210934 -8.2730951 -0.375909 0.95750028
-7.3831053 -8.2691011 -0.38403931 0.95660126
-7.5700974 -8.2670212 -0.38833109 0.95612717
-8.187109 -8.0848532 -0.39861536 0.95499176
-1.0340234 -0.94683594 -0.048571624 0.9944042
-1.034121 -0.92333007 -0.048027914 0.99446666
-1.0342187 -0.90032226 -0.047503356 0.99452692
-1.0343554 -0.8778125 -0.046997603 0.99458492
-1.0346289 -0.81300777 -0.045584679 0.99474734
-1.034707 -0.7922461 -0.045146253 0.99479777
-1.0347852 -0.77186519 -0.044723168 0.9948464
-1.0348828 -0.75187498 -0.044314843 0.99489331
-1.0350195 -0.71294922 -0.043540265 0.99498236
-1.0882617 -0.70995116 -0.045013197 0.99481291
-1.1834179 -0.70994139 -0.047809295 0.99449176
-1.2178711 -0.70995116 -0.048835982 0.99437374
-1.2538086 -0.70996094 -0.049915999 0.9942497
-1.3307421 -0.70994139 -0.052251663 0.99398148
-1.3719727 -0.70996094 -0.053516235 0.99383622
-1.4608008 -0.70995116 -0.056266554 0.99352044
-1.5087304 -0.70996094 -0.057764661 0.99334854
-1.7818359 -0.70548826 -0.066391028 0.9923591
-12.345478 -4.1835055 -0.45157626 0.94916606
-13.403095 -4.1694627 -0.48627439 0.94536871
-13.881553 -4.1277146 -0.50171316 0.94368416
-13.932343 -3.9529686 -0.50171304 0.9436841
-14.113359 -3.2479491 -0.50171268 0.9436841
-14.225742 -2.7137108 -0.50171232 0.9436841
-14.289355 -2.3553319 -0.50171208 0.94368446
-14.367959 -1.8150684 -0.50171167 0.94368452
-14.441035 -1.0908788 -0.50171107 0.9436844
-14.463896 -0.72764647 -0.50171071 0.9436844
-14.471855 -0.5458203 -0.50171059 0.94368458
-13.404209 0.33696288 -0.50170732 0.94774359
-13.391503 0.67370117 -0.50170696 0.94774359
-13.370351 1.0100098 -0.50170654 0.94774354
-13.356602 1.1779296 -0.50170636 0.94774359
-13.201377 2.3467772 -0.50170475 0.94774395
-13.138232 2.6777833 -0.50170428 0.94774395
-12.987061 3.3345118 -0.50170326 0.94774407
-12.94414 3.4974413 -0.50170296 0.94774407
-12.899159 3.6598339 -0.50170273 0.94774407
-12.852148 3.8216307 -0.50170243 0.94774413
-11.361425 3.8500488 -0.44885957 0.95311689
-1.7826366 0.68000972 -0.071389958 0.992392
-1.7293164 0.70994139 -0.069947012 0.99254519
-1.5592773 0.70996094 -0.06410709 0.99316549
-1.5087109 0.70995116 -0.062390059 0.99334794
-1.4608008 0.70996094 -0.060771942 0.99351978
-1.4152734 0.70996094 -0.059244879 0.99368215
-1.3307226 0.70994139 -0.056435507 0.99398094
-1.2914063 0.70994139 -0.055140991 0.99411851
-1.253828 0.70995116 -0.053912885 0.99424905
-1.1834179 0.70994139 -0.051637497 0.99449122
-1.1504102 0.70996094 -0.050581891 0.99460346
-1.0343164 0.71248043 -0.046995543 0.99498528
-1.0341797 0.75136715 -0.047831077 0.99489623
-1.0340821 0.77134764 -0.048271485 0.99484938
-1.0339258 0.81242186 -0.049200553 0.99475044
-1.0337304 0.85513669 -0.050198287 0.99464428
-1.0335742 0.87717772 -0.050724488 0.99458838
-1.0332812 0.94614255 -0.052422103 0.99440771
-7.6701756 7.3863082 -0.39843673 0.95827204
-7.5767574 7.4821191 -0.39843643 0.95827204
-7.2893357 7.7623534 -0.3984355 0.95827216
-6.9749608 7.8120704 -0.39186126 0.95894617
-6.6265039 7.8082223 -0.38319084 0.95983601
-6.131289 7.8027439 -0.3713094 0.96105683
-5.9729295 7.8010058 -0.36762482 0.96143562
-5.8176365 7.7992773 -0.36406943 0.96180129
-5.6652536 7.7976074 -0.36063895 0.96215439
-5.368906 7.7943258 -0.3541328 0.96282417
-5.2246289 7.7927341 -0.35105029 0.96314186
-5.082871 7.7911816 -0.34807572 0.96344835
-4.943418 7.7896285 -0.34520388 0.96374446
-4.5383201 7.7851462 -0.33718029 0.96457207
-4.407402 7.7837009 -0.33469215 0.96482879
-4.2783203 7.7822657 -0.33229217 0.96507657
-4.1510935 7.7808785 -0.32997939 0.96531534
-3.7795117 7.7767673 -0.32352903 0.96598166
-3.658828 7.7754297 -0.32153496 0.96618772
-3.5395899 7.7741113 -0.31961563 0.96638608
-3.3052149 7.7715135 -0.31599396 0.96676069
-3.1899805 7.7702732 -0.31428692 0.96693707
-3.0759571 7.7689939 -0.31264752 0.9671067
-2.9631054 7.7677441 -0.31107399 0.96726948
-2.7406836 7.7652926 -0.30812076 0.96757525
-2.5223045 7.7628708 -0.30541199 0.96785569
-2.2015038 7.759326 -0.30179146 0.96823066
-1.9916601 7.7570019 -0.29965898 0.9684515
-1.7846289 7.7547359 -0.2977438 0.96864992
-1.4786524 7.7513375 -0.29526219 0.96890712
-1.3777539 7.7502341 -0.29453662 0.96898222
-1.2773046 7.7491112 -0.29386094 0.96905231
-1.1773242 7.7480273 -0.29323465 0.96911711
-0.87966794 7.7447262 -0.29164743 0.96928179
-0.48699218 7.7403903 -0.29019549 0.96943241
-0.291875 7.7382226 -0.28974852 0.96947891
-0.19451171 7.7371483 -0.28959361 0.96949494
-0.097207032 7.736084 -0.28948453 0.96950614
0.097167969 7.7339354 -0.28940386 0.96951449
0.19437499 7.7328415 -0.2894319 0.96951163
0.48628905 7.7296286 -0.28979108 0.96947432
0.68146485 7.7274704 -0.2902613 0.96942562
0.77937496 7.7263961 -0.2905654 0.96939397
0.87744141 7.7253122 -0.2909162 0.96935761
1.0743945 7.7231345 -0.2917597 0.96927023
1.1733203 7.7220407 -0.2922518 0.96921915
1.2726367 7.7209568 -0.29279223 0.969163
1.3723047 7.7198339 -0.29338223 0.96910203
1.4723828 7.7187204 -0.29401994 0.96903592
1.5729296 7.717617 -0.29470801 0.96896464
1.8776367 7.7142477 -0.29707205 0.9687196
2.1877148 7.7108297 -0.29990497 0.96842605
2.2924414 7.7096777 -0.30095649 0.96831709
2.5042186 7.707334 -0.30322656 0.96808195
2.9381835 7.702529 -0.30846262 0.96753985
3.0491016 7.7013278 -0.30992311 0.96738857
3.2742381 7.6988182 -0.3130374 0.96706653
3.504082 7.6962891 -0.31641561 0.966717
3.8586912 7.6923728 -0.32200843 0.96613872
5.0100389 7.6796288 -0.34309313 0.96396226
5.287715 7.6765819 -0.34878403 0.96337551
5.5749803 7.6733789 -0.35489526 0.96274596
6.025703 7.6684275 -0.36491624 0.96171433
6.3409181 7.6649508 -0.37221804 0.96096331
6.669199 7.6613278 -0.38006318 0.96015716
6.838613 7.6594434 -0.38420308 0.95973212
7.011816 7.6575193 -0.38849774 0.9592914
7.481504 7.5761328 -0.39840424 0.95827538
7.6695113 7.3857322 -0.39840403 0.95827544
7.7617383 7.2887597 -0.39840391 0.95827544
7.8527145 7.1906738 -0.39840385 0.95827538
7.9424801 7.0913963 -0.39840376 0.95827538
8.1181641 6.8895993 -0.39840361 0.95827532
8.4540424 6.472949 -0.39840332 0.95827556
1.264082 0.87075192 -0.057434883 0.99387467
1.2642773 0.82481444 -0.056483533 0.99397582
1.264375 0.80239254 -0.056032676 0.9940238
1.2645508 0.75861329 -0.055177648 0.9941147
1.2647265 0.71613282 -0.054381829 0.99419922
1.2914063 0.70996094 -0.055141144 0.99411845
1.415293 0.70994139 -0.059244994 0.99368215
1.5593164 0.70994139 -0.064107209 0.99316537
1.6126952 0.70995116 -0.06593208 0.99297166
1.6693164 0.70994139 -0.067874871 0.99276519
1.7931055 0.70994139 -0.072161555 0.99231017
1.8611132 0.70995116 -0.074532926 0.9920584
1.9337695 0.70995116 -0.077078246 0.99178827
2.0146289 0.71103513 -0.079939649 0.99148482
2.0145116 0.682666 -0.079588011 0.99152201
11.424706 3.554033 -0.44768977 0.95323628
11.955312 3.5549512 -0.4666945 0.95130026
12.985605 3.3341308 -0.50164795 0.94774979
13.065331 3.0067675 -0.50164807 0.94774961
13.10209 2.8423631 -0.50164819 0.94774961
13.136777 2.6774902 -0.50164831 0.94774956
13.199902 2.3464942 -0.50164849 0.94774961
13.301113 1.6803222 -0.50164902 0.94774967
13.321172 1.5130566 -0.50164914 0.94774973
13.33916 1.3455371 -0.50164926 0.94774961
13.35498 1.1778027 -0.50164944 0.94774973
13.389941 0.67361325 -0.50164986 0.9477495
13.397363 0.5053125 -0.50165009 0.9477495
13.402676 -0.33691406 -0.50165093 0.94774938
13.355098 -1.1778125 -0.50165194 0.94774932
13.339238 -1.3455566 -0.50165218 0.94774932
13.321269 -1.5130664 -0.50165236 0.94774932
13.30121 -1.6803515 -0.5016526 0.94774932
13.279101 -1.8473535 -0.50165284 0.94774908
13.200058 -2.3465428 -0.50165349 0.94774902
13.169551 -2.5122168 -0.50165379 0.94774896
13.136894 -2.6775293 -0.50165403 0.94774914
13.102245 -2.8423924 -0.50165427 0.94774902
12.897949 -3.659492 -0.50165558 0.94774884
12.801914 -3.9824705 -0.50165612 0.94774884
1.9337499 -0.70994139 -0.07707794 0.99178833
1.8611132 -0.70995116 -0.074533001 0.9920584
1.6127148 -0.70995116 -0.065931894 0.9929716
1.5087109 -0.70994139 -0.062390212 0.99334794
1.4607617 -0.70994139 -0.060772132 0.99351996
1.4152539 -0.70995116 -0.059244916 0.99368227
1.3719727 -0.70996094 -0.057801474 0.99383563
1.2913867 -0.70996094 -0.055141065 0.99411851
1.2644726 -0.78035152 -0.055597343 0.99406999
1.2642773 -0.82481444 -0.056483533 0.99397582
1.2641015 -0.87076169 -0.057434577 0.99387461
8.4577541 -6.4758201 -0.39857823 0.95825756
8.3757029 -6.5815916 -0.39857849 0.95825756
8.207695 -6.79 -0.39857909 0.95825744
7.9459176 -7.0945411 -0.39857998 0.9582575
7.8561912 -7.1938281 -0.39858022 0.95825738
7.7652144 -7.2920213 -0.39858055 0.95825714
7.3890429 -7.6729879 -0.39858177 0.95825702
7.0945897 -7.9460349 -0.39858267 0.95825702
6.9941993 -8.0345697 -0.39858299 0.95825696
6.8926754 -8.1218166 -0.39858329 0.95825696
6.6863866 -8.2924709 -0.39858389 0.95825702
6.4483786 -8.4219046 -0.39689144 0.95843071
6.1162109 -8.418252 -0.38935056 0.95920426
5.4874411 -8.4112988 -0.3757861 0.96059716
5.3369336 -8.4096384 -0.372684 0.96091574
5.0431051 -8.4063864 -0.36680648 0.9615202
4.6188865 -8.4016895 -0.35874504 0.96234977
4.3460546 -8.3986912 -0.3538402 0.9628548
4.2123632 -8.3972073 -0.35152018 0.96309388
3.4439061 -8.38873 -0.33930793 0.96435291
3.3207617 -8.3873634 -0.3375386 0.96453559
3.1989648 -8.3860159 -0.33583915 0.96471077
3.0783007 -8.3846874 -0.3342106 0.96487898
2.9588084 -8.3833685 -0.33264977 0.96504009
2.6066797 -8.3794727 -0.32835934 0.96548301
2.3767579 -8.3769331 -0.32581618 0.96574575
2.1501758 -8.3744335 -0.32351485 0.96598357
2.0380664 -8.3731833 -0.32245225 0.96609342
1.9266406 -8.3719625 -0.32144725 0.96619731
1.3789648 -8.3658981 -0.31725574 0.96663058
1.163496 -8.3635159 -0.31595695 0.96676499
1.0563867 -8.3623438 -0.31538612 0.966824
0.94964844 -8.3611622 -0.3148658 0.96687776
0.84328121 -8.3599901 -0.31439751 0.96692616
0.7371875 -8.3588181 -0.31397951 0.96696931
0.63134766 -8.357646 -0.31361309 0.96700722
0.52574217 -8.3564749 -0.31329674 0.96704
-0.20986328 -8.3483295 -0.31247368 0.9671253
-0.31484374 -8.3471775 -0.31255284 0.96711695
-0.63033199 -8.3437109 -0.31309053 0.96706134
-0.84142578 -8.3413668 -0.31369698 0.96699858
-1.053457 -8.3390236 -0.3145059 0.96691495
-1.1599414 -8.337842 -0.31498668 0.96686524
-1.2667773 -8.3366699 -0.31551763 0.96681023
-1.3739648 -8.3354883 -0.31610158 0.96674985
-1.481582 -8.3342962 -0.31673774 0.9666841
-1.5896484 -8.333086 -0.3174257 0.96661294
-1.6982031 -8.3318939 -0.31816807 0.96653616
-1.8072851 -8.3306932 -0.31896433 0.96645379
-1.9168944 -8.3294725 -0.31981528 0.96636593
-2.1380663 -8.3270311 -0.32168373 0.96617275
-2.4749804 -8.3233099 -0.32491484 0.96583885
-2.5888672 -8.3220606 -0.32611001 0.96571535
-2.7036133 -8.3208008 -0.32736599 0.96558559
-2.8192577 -8.3195114 -0.32868385 0.96544951
-3.053457 -8.3169336 -0.33150879 0.96515769
-3.2918944 -8.3142767 -0.33459678 0.96483904
-3.5349414 -8.3116016 -0.33795825 0.96449214
-3.7831054 -8.308877 -0.3416048 0.9641158
-3.9092185 -8.3074703 -0.34354061 0.96391624
-4.0368161 -8.3060646 -0.34555283 0.96370876
-4.2966599 -8.3032026 -0.34981665 0.96326923
-4.4290037 -8.3017187 -0.3520714 0.96303695
-4.5631251 -8.3002443 -0.35441267 0.96279579
-4.8368945 -8.2972164 -0.35936204 0.96228617
-4.9767184 -8.2956734 -0.36197558 0.96201712
-5.1186132 -8.2941208 -0.36468413 0.96173823
-5.7087302 -8.2875881 -0.37654933 0.96051842
-5.8624411 -8.2858791 -0.37978968 0.96018559
-6.0188475 -8.2841597 -0.38314718 0.95984071
-6.1780663 -8.282402 -0.38662627 0.95948356
-6.5054297 -8.2787695 -0.39396697 0.95873052
-6.6739254 -8.2769337 -0.39783844 0.95833337
-6.7906055 -8.2083979 -0.39861256 0.95825386
-7.0951757 -7.9466405 -0.39861289 0.9582538
-7.1944332 -7.8568554 -0.39861304 0.95825392
-7.2926168 -7.7658496 -0.39861313 0.9582538
-7.3896289 -7.6735644 -0.39861324 0.95825386
-7.4854684 -7.5801072 -0.39861336 0.95825386
-1.0335742 -0.87717772 -0.05072441 0.99458838
-1.0338086 -0.83359373 -0.049690589 0.99469829
-1.0339258 -0.81243163 -0.049200628 0.99475044
-1.0340821 -0.77134764 -0.048271444 0.99484938
-1.0341797 -0.7513867 -0.047830999 0.99489617
-1.0343554 -0.71248043 -0.046995468 0.9949851
-1.0882617 -0.70995116 -0.048617627 0.99481243
-1.1504102 -0.70995116 -0.050582044 0.99460346
-1.2178711 -0.70995116 -0.052746505 0.99437314
-1.2538086 -0.70996094 -0.053912964 0.99424911
-1.3307421 -0.70994139 -0.056435544 0.99398088
-1.3719727 -0.70996094 -0.057801511 0.99383563
-1.415293 -0.70995116 -0.059244879 0.99368209
-1.6692969 -0.70997071 -0.067874908 0.99276519
-1.7825977 -0.65446287 -0.071052857 0.99242771
-12.345478 -4.1835155 -0.48773617 0.94916111
-12.803329 -3.9828906 -0.50171065 0.94774324
-12.852353 -3.8216796 -0.50171059 0.9477433
-12.987266 -3.3345702 -0.50171036 0.9477433
-13.028154 -3.1710937 -0.5017103 0.94774324
-13.066962 -3.0071385 -0.50171018 0.9477433
-13.138408 -2.6778319 -0.50171 0.94774324
-13.171016 -2.5125 -0.50170988 0.9477433
-13.256328 -2.0142968 -0.50170952 0.94774342
-13.280605 -1.8475585 -0.5017094 0.94774336
-13.302763 -1.6805176 -0.50170928 0.94774342
-13.340781 -1.3456933 -0.50170898 0.94774342
-13.391533 -0.67368162 -0.50170839 0.94774348
-13.398915 -0.50537109 -0.50170821 0.94774359
-13.404199 -0.33694336 -0.50170803 0.94774359
-12.482744 9.7656248e-06 -0.50170571 0.95125675
-12.481777 0.15686522 -0.50170559 0.95125663
-12.478808 0.31368163 -0.50170541 0.95125669
-12.466982 0.62718749 -0.50170505 0.95125669
-12.447266 0.94028318 -0.50170463 0.95125681
-12.419697 1.2527832 -0.50170428 0.95125681
-12.402968 1.4087597 -0.50170404 0.95125681
-12.384287 1.5644921 -0.50170386 0.95125681
-12.363652 1.7199903 -0.50170362 0.95125681
-12.290019 2.1847656 -0.50170296 0.95125693
-12.23123 2.4929297 -0.50170255 0.95125693
-12.198945 2.6464257 -0.50170231 0.95125687
-12.164707 2.7994921 -0.50170207 0.95125699
-12.090508 3.104326 -0.50170159 0.95125699
-12.050566 3.2560155 -0.50170135 0.95125693
-12.008672 3.4071875 -0.50170112 0.95125699
-11.919257 3.7078905 -0.50170058 0.95125699
-10.8908 3.8437889 -0.46418345 0.95481837
-1.783457 0.65475583 -0.076358028 0.9924233
-1.5592773 0.70996094 -0.068860665 0.99316472
-1.5087109 0.70995116 -0.067016371 0.99334723
-1.4152734 0.70996094 -0.063638113 0.99368149
-1.3719727 0.70993161 -0.062087592 0.99383503
-1.3307226 0.70994139 -0.060620308 0.99398029
-1.2914063 0.70994139 -0.059229735 0.99411786
-1.253828 0.70995116 -0.057910688 0.99424845
-1.1834179 0.70994139 -0.055466384 0.99449062
-1.1504102 0.70996094 -0.05433258 0.99460286
-1.0882226 0.70996094 -0.052222516 0.99481195
-1.0336523 0.71201169 -0.0504467 0.99498796
-1.0334766 0.7508691 -0.051343039 0.99489915
-1.0331055 0.83298826 -0.053337745 0.99470145
-1.0328711 0.87654293 -0.054446943 0.99459159
-1.0327538 0.89901364 -0.055032004 0.99453366
-1.0326366 0.92196286 -0.055638578 0.99447358
-1.0324805 0.94544917 -0.056267697 0.99441129
-7.0537305 6.9655957 -0.39843586 0.9610917
-6.9656444 7.0536914 -0.39843559 0.9610917
-6.8764257 7.1406736 -0.39843526 0.96109176
-6.6948047 7.3112302 -0.3984347 0.96109176
-6.6024022 7.3947458 -0.39843443 0.96109182
-6.4144726 7.5583301 -0.39843386 0.96109188
-6.3190036 7.6383395 -0.39843357 0.96109182
-5.9729295 7.8010058 -0.39488357 0.9614315
-5.082871 7.7911816 -0.37388521 0.96344453
-4.8062696 7.788125 -0.36782378 0.96402633
-4.5383201 7.7851462 -0.36218092 0.96456832
-4.1510935 7.7808785 -0.3544462 0.96531171
-3.7795117 7.7767673 -0.34751859 0.96597809
-3.5395899 7.7741113 -0.34331593 0.96638256
-3.3052149 7.7715135 -0.33942562 0.96675718
-2.9631054 7.7677441 -0.33414206 0.96726602
-2.8513865 7.7665133 -0.33252105 0.96742213
-2.7406836 7.7652926 -0.33096766 0.96757185
-2.6310351 7.7640719 -0.32948059 0.96771514
-2.4145117 7.7616892 -0.32669953 0.96798319
-1.8877929 7.7558689 -0.32082182 0.96855015
-1.7846289 7.7547359 -0.31982154 0.96864659
-1.6820507 7.7535934 -0.31887749 0.96873766
-1.4786524 7.7513375 -0.31715658 0.96890384
-0.97853512 7.7458105 -0.31379107 0.96922868
-0.87966794 7.7447262 -0.31327403 0.96927851
-0.78111327 7.7436328 -0.31280774 0.96932352
-0.58480465 7.7414746 -0.31202835 0.9693988
-0.38935545 7.7393165 -0.31144789 0.96945477
-0.291875 7.7382226 -0.31123316 0.96947569
-0.19451171 7.7371483 -0.31106678 0.96949172
-0.097207032 7.736084 -0.31094974 0.96950293
0.19437499 7.7328415 -0.31089407 0.96950841
0.29160157 7.7317967 -0.3109735 0.9695006
0.38888672 7.7307029 -0.31110203 0.96948826
0.48628905 7.7296286 -0.31127989 0.96947104
0.5838086 7.7285547 -0.31150809 0.9694491
0.68146485 7.7274704 -0.31178492 0.96942234
0.77937496 7.7263961 -0.31211269 0.96939075
0.87744141 7.7253122 -0.3124893 0.96935433
0.9757812 7.7242184 -0.31291661 0.96931314
1.6739649 7.7165136 -0.31735241 0.96888489
1.980332 7.7131152 -0.32005697 0.96862394
2.0836914 7.7119727 -0.32107148 0.96852612
2.1877148 7.7108297 -0.32214263 0.96842271
2.2924414 7.7096777 -0.32327223 0.96831375
2.6113086 7.7061424 -0.32702234 0.96795225
2.7193162 7.7049608 -0.32839602 0.96781981
2.8282616 7.7037597 -0.32983315 0.96768117
3.1611328 7.700068 -0.33454216 0.9672274
3.3885546 7.6975489 -0.33802664 0.96689177
3.979785 7.6910448 -0.34804854 0.96592712
4.1024022 7.6896677 -0.35029247 0.96571136
4.2265821 7.6882911 -0.35262164 0.96548742
4.6096873 7.6840625 -0.36014521 0.96476406
4.7411132 7.6826267 -0.36284122 0.96450496
5.287715 7.6765819 -0.37464631 0.96337169
5.4301171 7.6749997 -0.37786981 0.96306235
5.5749803 7.6733789 -0.38121054 0.96274203
5.7224412 7.6717672 -0.38467136 0.96241015
6.6018944 7.3942285 -0.3984063 0.96109462
6.7856445 7.2259765 -0.39840609 0.96109462
6.9650974 7.0531735 -0.39840591 0.96109456
7.0531836 6.9650974 -0.39840579 0.96109456
7.5577536 6.4139938 -0.39840528 0.96109474
7.7941403 6.1245604 -0.3984051 0.9610948
1.2629492 0.94205076 -0.063325457 0.99371237
1.2630273 0.91766602 -0.062748104 0.99376965
1.2631445 0.89369136 -0.062190704 0.99382484
1.2632617 0.870166 -0.061652642 0.99387807
1.2635742 0.801875 -0.060148504 0.9940269
1.2636523 0.77985352 -0.059681699 0.99407315
1.2637695 0.75812501 -0.059231222 0.99411774
1.2638476 0.73674804 -0.058796652 0.99416077
1.2638867 0.71566403 -0.058377609 0.99420244
1.2914063 0.70996094 -0.059229735 0.99411786
1.3307421 0.70995116 -0.060620192 0.99398023
1.415293 0.70994139 -0.063638002 0.99368143
1.4608008 0.70994139 -0.065278284 0.99351913
1.5087304 0.70993161 -0.067016296 0.99334717
1.5593164 0.70994139 -0.068860702 0.99316466
1.6126952 0.70995116 -0.070820846 0.99297094
1.7293164 0.70995116 -0.075133666 0.99254441
1.7931055 0.70994139 -0.077512279 0.99230933
2.0167382 0.71179688 -0.085958175 0.99147499
2.0166211 0.68337888 -0.085579604 0.9915123
2.0165234 0.65520507 -0.085218161 0.99154788
11.424706 3.554033 -0.48088488 0.95323139
11.955274 3.5549414 -0.50129837 0.95129532
12.049277 3.2556639 -0.50164998 0.951262
12.089238 3.1039941 -0.50165009 0.951262
12.127285 2.9518554 -0.50165015 0.951262
12.163457 2.7992187 -0.50165027 0.95126188
12.229921 2.4926465 -0.50165039 0.951262
12.260293 2.3387694 -0.50165051 0.95126194
12.288692 2.1845312 -0.50165063 0.95126206
12.339766 1.8750194 -0.50165081 0.95126182
12.382988 1.5643359 -0.50165111 0.95126182
12.401679 1.4086132 -0.50165123 0.95126176
12.418398 1.2526464 -0.50165135 0.95126182
12.465683 0.6271289 -0.50165188 0.9512617
12.472519 0.47041991 -0.50165206 0.95126188
12.477519 0.31368163 -0.50165218 0.95126164
12.481445 -0 -0.50165254 0.9512617
12.4775 -0.31365234 -0.5016529 0.9512617
12.433203 -1.0965136 -0.50165379 0.95126164
12.383066 -1.5643457 -0.50165445 0.95126152
12.362441 -1.7198144 -0.50165462 0.95126146
12.339824 -1.8750292 -0.50165486 0.95126158
12.260449 -2.3388183 -0.50165552 0.95126134
12.197832 -2.6461816 -0.501656 0.95126122
12.127481 -2.9518847 -0.50165647 0.95126122
12.007617 -3.4068651 -0.50165719 0.95126122
11.963847 -3.5574901 -0.50165743 0.95126122
11.918222 -3.7075391 -0.50165772 0.95126116
2.0165038 -0.65520507 -0.085218161 0.99154794
2.0167382 -0.7118066 -0.085958213 0.99147499
1.9337499 -0.70994139 -0.082793348 0.99178743
1.8611132 -0.70995116 -0.080059506 0.99205756
1.7931445 -0.70996094 -0.077512361 0.99230921
1.7293164 -0.70994139 -0.075133704 0.99254441
1.6127148 -0.70995116 -0.070820734 0.99297088
1.5592773 -0.70996094 -0.068860628 0.99316472
1.4607617 -0.70994139 -0.065278359 0.99351925
1.4152539 -0.70995116 -0.063637845 0.99368155
1.3719727 -0.70996094 -0.062087517 0.99383497
1.2639258 -0.7156738 -0.058377683 0.99420226
1.2638476 -0.73675781 -0.058796842 0.99416071
1.26375 -0.7581445 -0.059231374 0.99411774
1.2636523 -0.77984375 -0.059681892 0.99407315
1.2634571 -0.82426757 -0.060632169 0.9939791
1.2629297 -0.94205076 -0.06332542 0.99371243
7.7975583 -6.1272559 -0.39857924 0.96107805
7.7199411 -6.2247458 -0.39857951 0.96107805
7.4798632 -6.5113378 -0.39858031 0.96107787
7.2291598 -6.7886424 -0.39858115 0.96107781
7.143281 -6.8789353 -0.39858145 0.96107781
6.968164 -7.0562692 -0.39858198 0.96107781
6.7886133 -7.2291794 -0.39858258 0.96107781
6.6048241 -7.3975 -0.39858314 0.96107775
6.5113864 -7.4799414 -0.39858344 0.96107757
6.4168553 -7.561152 -0.39858371 0.96107769
6.0288672 -7.8740625 -0.39858484 0.96107745
5.7278318 -8.0957222 -0.39858577 0.96107733
5.5225587 -8.2371092 -0.39858633 0.96107733
5.4186325 -8.30583 -0.39858666 0.96107739
4.89957 -8.4047947 -0.3910155 0.96180266
