# .PCD v0.7 - Point Cloud Data file format
VERSION 0.7
FIELDS x y z intensity
SIZE 4 4 4 4
TYPE F F F F
COUNT 1 1 1 1
WIDTH 1081
HEIGHT 1
VIEWPOINT 0 0 0 1 0 0 0
POINTS 1081
DATA ascii
7.7438083 7.6472263 -0.28649727 0.95738626
7.9387498 7.6450682 -0.2901319 0.9568575
8.3439846 7.6405859 -0.29782641 0.95573878
8.9945116 7.6333981 -0.31054902 0.95389235
9.7041597 7.6255565 -0.32489103 0.95181531
9.9556446 7.6227732 -0.33007568 0.9510653
1.2673047 0.92077148 -0.041237142 0.99375147
1.2674414 0.87305665 -0.040514715 0.99386066
1.2676367 0.80450195 -0.039523125 0.99401045
1.2677149 0.78235352 -0.039215393 0.99405688
1.267832 0.73907226 -0.038632087 0.9941451
1.2679101 0.71791011 -0.03835579 0.99418676
1.3719727 0.70995116 -0.040665548 0.99383783
1.5087304 0.70993161 -0.043893814 0.99335027
1.5592773 0.70994139 -0.045101851 0.99316794
1.7931445 0.70994139 -0.050768357 0.99231273
1.8611132 0.70996094 -0.052436635 0.9920612
2.0059569 0.65177733 -0.055523224 0.99159586
14.460722 4.4984961 -0.39866516 0.94120145
18.528183 4.5098534 -0.50198591 0.92653543
18.583477 4.2767091 -0.5019871 0.92653507
18.635761 4.0428419 -0.50198823 0.92653501
18.775097 3.3376074 -0.50199139 0.9265343
18.853027 2.8647265 -0.50199318 0.92653435
18.88752 2.6275976 -0.50199407 0.92653441
18.919081 2.3900585 -0.50199485 0.9265343
18.947792 2.1521485 -0.50199562 0.92653364
19.015409 1.436455 -0.50199753 0.92653376
19.056152 0.71875 -0.50199902 0.92653334
19.063671 0.47923827 -0.50199938 0.9265334
19.068184 0.23964843 -0.50199968 0.9265334
19.069687 1.953125e-05 -0.50199997 0.9265334
19.068262 -0.23961914 -0.50200021 0.9265331
19.05625 -0.71873045 -0.50200051 0.92653298
19.045683 -0.95814449 -0.50200063 0.9265331
19.032167 -1.1973926 -0.50200063 0.92653298
19.015606 -1.4364452 -0.50200063 0.92653304
18.996035 -1.6752734 -0.50200051 0.9265331
18.919315 -2.3900585 -0.50199997 0.9265334
18.8533 -2.8647363 -0.50199932 0.92653334
18.636112 -4.0428905 -0.50199687 0.9265337
18.583809 -4.2767482 -0.50199622 0.92653382
18.528534 -4.5099025 -0.5019955 0.92653412
16.884901 -4.5622263 -0.46042636 0.93240708
16.040174 -4.5509958 -0.43891546 0.93546057
14.601562 -4.5422654 -0.40254629 0.94064617
2.0059569 -0.65175778 -0.055523336 0.99159586
2.0060351 -0.67978513 -0.055757634 0.99156052
2.0061524 -0.70803708 -0.056003112 0.99152344
1.8611327 -0.70995116 -0.052436598 0.99206114
1.7293164 -0.70994139 -0.049210623 0.99254781
1.6692773 -0.70994139 -0.047752455 0.99276787
1.6127539 -0.70995116 -0.046385534 0.99297392
1.5592773 -0.70996094 -0.045101661 0.99316788
1.4607812 -0.70994139 -0.042755201 0.99352217
1.415293 -0.70993161 -0.041680906 0.99368435
1.3307226 -0.70994139 -0.039704513 0.99398303
1.2913867 -0.70996094 -0.038793754 0.9941206
1.2679101 -0.71791011 -0.038355712 0.99418676
1.267832 -0.73908204 -0.038632087 0.99414504
1.2677929 -0.76055664 -0.038918342 0.9941017
1.2677149 -0.78234375 -0.039215393 0.99405694
1.2676367 -0.8044824 -0.039523199 0.99401045
1.267539 -0.84981441 -0.040172387 0.99391228
1.2673827 -0.89669919 -0.040869825 0.99380702
1.267246 -0.94526362 -0.041617889 0.99369395
12.727031 -9.7446289 -0.42196009 0.93787462
10.503262 -8.468935 -0.35517836 0.94744366
10.233652 -8.4659567 -0.34963194 0.94824278
9.7188082 -8.4602728 -0.33920154 0.9497475
9.2334375 -8.4549122 -0.3295756 0.95113814
8.5542965 -8.447402 -0.31647962 0.95303309
8.1303511 -8.4427052 -0.30855173 0.95418257
7.9261718 -8.4404688 -0.30480415 0.95472616
7.7268748 -8.438262 -0.301193 0.95525014
7.3419528 -8.4340229 -0.29436234 0.95624274
6.7956834 -8.4279785 -0.28500333 0.95760411
6.4501171 -8.42416 -0.27930069 0.95843416
6.282402 -8.4223042 -0.27660191 0.95882773
6.1178708 -8.4204884 -0.27399504 0.95920765
5.9564061 -8.4187012 -0.27147931 0.95957446
5.6420507 -8.4152145 -0.26671097 0.96027046
5.488945 -8.4135256 -0.26444855 0.9606005
5.1902342 -8.4102345 -0.26016298 0.96122664
4.4827147 -8.402422 -0.25070041 0.96261007
4.0814648 -8.3979788 -0.24580063 0.96332735
3.9511132 -8.3965521 -0.24428633 0.96354914
3.5692382 -8.3923244 -0.24007647 0.96416599
3.4448242 -8.3909473 -0.23877914 0.96435601
3.0791407 -8.3868942 -0.23519209 0.96488202
2.6074023 -8.3816795 -0.23107563 0.96548599
2.1507616 -8.3766499 -0.22766586 0.96598649
2.0385938 -8.3754101 -0.22691716 0.96609634
1.9271874 -8.3741798 -0.22621 0.96620023
1.8164257 -8.3729591 -0.22554278 0.96629822
1.5967382 -8.3705177 -0.22432479 0.96647716
1.3793359 -8.3681154 -0.22326116 0.9666335
1.2713476 -8.3669338 -0.22278574 0.96670336
1.1638086 -8.3657417 -0.22234628 0.96676779
0.94992185 -8.363369 -0.22157918 0.96688062
0.42046875 -8.3575191 -0.22028755 0.9670704
0.31517577 -8.3563671 -0.22013441 0.96709281
0.21005858 -8.355195 -0.22001806 0.9671101
0.10498047 -8.354043 -0.21993457 0.96712226
-1.953125e-05 -8.3528709 -0.21988679 0.96712935
-0.31490234 -8.3493948 -0.21995211 0.96711981
-0.63046873 -8.3459177 -0.22032957 0.9670642
-0.8416211 -8.3435841 -0.22075616 0.96700144
-0.94753903 -8.342412 -0.22102298 0.96696222
-1.0537499 -8.3412209 -0.22132549 0.96691787
-1.1602734 -8.3400583 -0.22166483 0.9668681
-1.3743163 -8.3377047 -0.22244827 0.96675271
-1.6986523 -8.3341112 -0.22390226 0.96653903
-2.1386328 -8.3292379 -0.22637667 0.96617568
-2.5895507 -8.3242579 -0.22949174 0.96571833
-2.7043164 -8.322998 -0.23037572 0.96558863
-2.8200195 -8.3217287 -0.23130324 0.96545243
-3.2927539 -8.316494 -0.23546445 0.96484202
-3.4136913 -8.3151655 -0.23662208 0.96467221
-3.5358984 -8.313818 -0.23782848 0.96449512
-3.7840819 -8.3110743 -0.2403959 0.96411896
-3.9102538 -8.3096581 -0.24175699 0.96391946
-4.1670508 -8.3068457 -0.24464539 0.96349633
-4.4302149 -8.303916 -0.24776213 0.96304011
-4.5643554 -8.3024416 -0.24940893 0.96279895
-4.7002931 -8.3009472 -0.25111991 0.96254885
-5.1199412 -8.296299 -0.25663936 0.96174169
-5.2640429 -8.2947264 -0.2586154 0.96145266
-5.4103708 -8.2931051 -0.26066357 0.96115333
-5.559082 -8.2914553 -0.26278761 0.96084315
-5.7102537 -8.2897854 -0.26498848 0.96052182
-6.0204101 -8.2863569 -0.2696313 0.95984423
-6.1796875 -8.2846088 -0.27207887 0.95948702
-6.3418946 -8.2828026 -0.27461517 0.95911717
-6.8475585 -8.2771969 -0.28279105 0.95792592
-7.5720701 -8.2691994 -0.29515925 0.95612675
-7.7633786 -8.2670803 -0.29854482 0.95563513
-8.791543 -8.2557325 -0.31747973 0.95288837
-1.0363672 -0.94897461 -0.036990814 0.99439299
-1.0365235 -0.90228516 -0.036175612 0.99451625
-1.0366992 -0.83591795 -0.035057943 0.99468541
-1.0367968 -0.81469727 -0.034711342 0.99473768
-1.0369335 -0.77346677 -0.034053992 0.99483705
-1.0369922 -0.75341797 -0.033742368 0.99488419
-1.0370312 -0.73372066 -0.033441659 0.99492973
-1.0589257 -0.70993161 -0.033560369 0.99491167
-1.0882422 -0.70996094 -0.034204405 0.99481428
-1.1186913 -0.70994139 -0.034878884 0.99471241
-1.1504102 -0.70995116 -0.035586394 0.99460536
-1.253828 -0.70995116 -0.037929725 0.99425107
-1.2913867 -0.70995116 -0.038793754 0.9941206
-1.3307226 -0.70993161 -0.039704587 0.99398309
-1.3719727 -0.70996094 -0.040665589 0.99383777
-1.5087304 -0.70995116 -0.043893661 0.99335021
-1.7293164 -0.70993161 -0.049210396 0.99254787
-1.7792773 -0.70445311 -0.050376166 0.99237198
-1.7792382 -0.67870116 -0.050129317 0.99240917
-14.331513 -4.856504 -0.39834198 0.94124764
-14.391347 -4.6760058 -0.39834076 0.94124788
-15.369551 -4.1527634 -0.41910499 0.93828189
-17.871357 -4.1127734 -0.48275065 0.92924821
-18.661512 -3.8035057 -0.50135636 0.9266243
-18.707832 -3.5686815 -0.50135529 0.9266243
-18.863329 -2.6241992 -0.50135159 0.92662495
-18.92333 -2.1493359 -0.5013501 0.92662495
-18.948828 -1.911377 -0.50134939 0.92662501
-18.971357 -1.6731055 -0.50134873 0.92662495
-19.007324 -1.1958203 -0.50134766 0.92662531
-19.031397 -0.71779293 -0.50134671 0.92662519
-19.038897 -0.47857422 -0.50134629 0.92662525
-17.231249 9.7656248e-06 -0.50137681 0.93336946
-17.229824 0.2165332 -0.50137663 0.9333697
-17.218964 0.64946288 -0.50137639 0.93336964
-17.209423 0.86577147 -0.50137627 0.9333697
-17.197187 1.0819726 -0.50137627 0.9333697
-17.121094 1.9446679 -0.50137669 0.9333697
-17.09539 2.1596582 -0.50137687 0.9333694
-17.066885 2.3743067 -0.50137711 0.93336946
-17.035704 2.5885937 -0.50137746 0.93336946
-17.001835 2.8024609 -0.50137776 0.9333694
-16.965263 3.0158789 -0.50137818 0.93336952
-16.926035 3.2288084 -0.50137866 0.93336946
-16.839638 3.6531737 -0.50137967 0.9333691
-16.79245 3.8645215 -0.50138026 0.93336892
-16.063114 3.9098241 -0.48103413 0.93598449
-15.182178 3.8981249 -0.45608208 0.93920171
-14.402031 3.8913867 -0.4340826 0.94204783
-13.700175 3.8871093 -0.41436821 0.94460553
-13.117373 3.9004881 -0.39819241 0.94670933
-13.128183 4.0839548 -0.40004787 0.94646788
-13.015273 4.2289257 -0.39819381 0.94670904
-12.961074 4.3921385 -0.39819458 0.94670916
-12.904931 4.5546775 -0.39819533 0.94670892
-1.7800585 0.65350586 -0.055174254 0.99244058
-1.7800781 0.67904294 -0.055435598 0.992405
-1.7801367 0.70480466 -0.055708274 0.99236768
-1.6693164 0.70996094 -0.052781865 0.99276716
-1.5592773 0.70995116 -0.049851913 0.9931674
-1.5086914 0.70996094 -0.048516843 0.99334985
-1.3307226 0.70994139 -0.043886259 0.99398261
-1.2538086 0.70994139 -0.041924551 0.99425077
-1.2178711 0.70995116 -0.041017454 0.99437469
-1.1834375 0.70994139 -0.04015499 0.99449271
-1.0589257 0.70994139 -0.037095223 0.99491125
-1.0363476 0.73322266 -0.036938973 0.99493271
-1.0363085 0.75290036 -0.037270963 0.99488723
-1.0362304 0.77293944 -0.037614897 0.99484015
-1.0361524 0.79334956 -0.037971154 0.99479139
-1.0360742 0.81414062 -0.038340569 0.99474096
-1.0359765 0.83535153 -0.038722914 0.99468863
-1.0358398 0.8790918 -0.039530486 0.99457806
-1.0357617 0.90163082 -0.03995651 0.99451983
-1.0356445 0.92469722 -0.04039814 0.99445951
-1.0355859 0.94827145 -0.040856209 0.99439675
-8.3325977 7.8248434 -0.33259594 0.95528835
-7.7204099 7.8181052 -0.31970486 0.95698363
-7.52666 7.8159666 -0.31572321 0.95750761
-7.1531444 7.8118358 -0.30819595 0.95849949
-6.624609 7.8059859 -0.29789719 0.95985812
-6.4561133 7.804121 -0.29470581 0.96027941
-5.9711914 7.7987695 -0.28579527 0.96145695
-5.815918 7.7970505 -0.28303096 0.96182251
-5.6636133 7.795361 -0.28036448 0.96217531
-5.223125 7.7904978 -0.27291057 0.96316224
-4.9420118 7.7874022 -0.26836482 0.96376449
-4.804863 7.7858691 -0.26621023 0.96405011
-4.4061131 7.7814646 -0.26019266 0.96484828
-4.1499023 7.7786422 -0.25652787 0.96533459
-4.0244336 7.7772655 -0.25479472 0.96556473
-3.6577733 7.7732129 -0.24996503 0.96620637
-3.5385351 7.7718844 -0.24847277 0.96640474
-3.4207225 7.7706051 -0.24703786 0.96659547
-3.3042383 7.7692966 -0.24565691 0.96677905
-3.1890428 7.7680368 -0.24433075 0.96695542
-3.0750585 7.7667675 -0.24305616 0.96712494
-2.9622071 7.7655368 -0.24183269 0.9672876
-2.7398632 7.7630758 -0.23953499 0.96759325
-2.6302538 7.7618551 -0.23845956 0.96773642
-2.5215623 7.760654 -0.237431 0.96787345
-2.0956054 7.7559471 -0.2337648 0.96836144
-1.9910938 7.7547946 -0.23295808 0.96846896
-1.681582 7.7513571 -0.23078518 0.96875834
-1.5795898 7.7502441 -0.23014416 0.968844
-1.3773632 7.7480173 -0.22897665 0.96899939
-1.2769336 7.7468944 -0.22845046 0.96906942
-0.87943357 7.7425094 -0.22672974 0.96929878
-0.58462888 7.7392383 -0.22582929 0.96941906
-0.48681641 7.7381735 -0.22560026 0.9694494
-0.29177734 7.7360058 -0.22525306 0.96949583
-0.19443358 7.734941 -0.22513169 0.96951181
1.953125e-05 7.7327929 -0.22499864 0.96952963
0.097167969 7.7317185 -0.22498508 0.96953142
0.48615232 7.7274117 -0.22528696 0.96949124
0.58363283 7.7263379 -0.22545148 0.96946925
0.87720704 7.723115 -0.22616179 0.96937454
0.97546875 7.7220211 -0.22647062 0.96933335
1.074082 7.7209082 -0.22681639 0.96928728
1.1729883 7.7198238 -0.22720017 0.9692362
1.3718945 7.7176266 -0.22807811 0.96911913
1.5724804 7.7154198 -0.22910812 0.9689818
1.7750195 7.7131834 -0.23029445 0.96882379
2.2917774 7.7074509 -0.23396648 0.96833473
2.3972461 7.7063084 -0.23482674 0.96822006
2.5034959 7.7051172 -0.23573093 0.96809971
2.6106055 7.7039547 -0.23668039 0.96797329
2.937324 7.7003222 -0.23980294 0.96755785
3.0482616 7.699111 -0.24093738 0.96740663
3.2733397 7.6966209 -0.24335913 0.96708465
3.5030663 7.6940918 -0.245985 0.96673542
3.6199024 7.6927829 -0.24737939 0.96655017
3.8575976 7.690166 -0.25033358 0.96615744
4.4789062 7.6833005 -0.25877166 0.96503693
5.1462693 7.6759276 -0.26889548 0.9636941
5.4285545 7.6728024 -0.27348143 0.96308666
5.5733786 7.6712108 -0.27589756 0.96276647
5.72082 7.6695895 -0.27840441 0.96243477
5.8709569 7.6679101 -0.28099975 0.96209133
6.3390818 7.662744 -0.28936672 0.96098495
6.6672459 7.659111 -0.29546428 0.96017927
7.0098243 7.6553321 -0.30202192 0.95931381
7.186914 7.653379 -0.30548334 0.95885712
7.368125 7.6513672 -0.30907521 0.95838368
8.3439846 7.6406054 -0.32919577 0.95573545
8.554863 7.6382613 -0.33369988 0.95514339
8.9945116 7.6333981 -0.34325659 0.95388889
9.4604292 7.6282516 -0.35360861 0.95253187
1.2663672 0.94459957 -0.045969732 0.99369782
1.2664453 0.92013669 -0.045549277 0.99375528
1.2666992 0.84926754 -0.044374425 0.9939158
1.266914 0.78185546 -0.043317564 0.99406022
1.2670116 0.73861325 -0.042673759 0.99414837
1.2670898 0.71747071 -0.042368621 0.99418998
1.3307421 0.70995116 -0.043886259 0.99398249
1.4607617 0.70994139 -0.047258262 0.99352175
1.5087304 0.70993161 -0.048516463 0.99334973
1.6127148 0.70996094 -0.05127098 0.99297351
1.7931445 0.70994139 -0.056115035 0.99231213
1.8611132 0.70996094 -0.057959251 0.9920606
1.9337695 0.70995116 -0.059938658 0.99179047
2.0082617 0.70878905 -0.061966665 0.99151391
2.0080664 0.65245116 -0.061435279 0.99158639
13.180293 3.7395995 -0.39864397 0.94665045
16.761738 4.0798926 -0.50195599 0.93329519
16.903769 3.4452636 -0.50195915 0.93329459
16.98502 3.0193944 -0.50196099 0.93329453
17.02162 2.8057323 -0.50196183 0.93329453
17.055546 2.5915918 -0.50196266 0.93329448
17.086855 2.37708 -0.50196344 0.93329418
17.11537 2.1621873 -0.50196415 0.93329418
17.141151 1.9469335 -0.50196481 0.9332943
17.20244 1.2995117 -0.50196654 0.933294
17.229706 0.86679685 -0.50196749 0.93329382
17.250175 0.21679688 -0.5019685 0.9332937
17.251581 9.7656248e-06 -0.5019688 0.93329352
17.246229 -0.43350586 -0.50196916 0.93329316
17.229883 -0.86678708 -0.50196934 0.93329316
17.202675 -1.2995019 -0.50196934 0.9332931
17.115488 -2.1621971 -0.50196874 0.9332937
16.985233 -3.0193944 -0.50196743 0.93329376
16.945879 -3.2325976 -0.50196695 0.933294
16.903925 -3.4452832 -0.50196648 0.933294
16.859316 -3.6574316 -0.50196594 0.93329394
16.812012 -3.8689842 -0.50196534 0.933294
16.709394 -4.2902341 -0.50196403 0.9332943
16.6542 -4.4998631 -0.50196332 0.93329418
16.040136 -4.5509958 -0.48514301 0.93545592
15.270722 -4.5407615 -0.46355891 0.93823665
14.566679 -4.531445 -0.44388095 0.94077927
2.0081444 -0.68050778 -0.061694562 0.99155104
2.0082617 -0.70879883 -0.061966665 0.99151391
1.9337499 -0.70994139 -0.059938431 0.99179059
1.7931445 -0.70996094 -0.056115262 0.99231213
1.4607812 -0.70994139 -0.047258299 0.99352169
1.415293 -0.70993161 -0.046070863 0.99368387
1.3719921 -0.70994139 -0.044948462 0.9938373
1.2913867 -0.70996094 -0.042879369 0.99412012
1.2670507 -0.73860347 -0.042673834 0.99414825
1.2669531 -0.76005858 -0.042989995 0.99410516
1.2668164 -0.80396485 -0.04365715 0.99401385
10.776152 -8.4677734 -0.39877686 0.94663334
9.7188082 -8.4602728 -0.37492678 0.94974375
9.4725971 -8.4575682 -0.3694998 0.95045269
9.0008783 -8.4523239 -0.35927275 0.95179045
8.7745895 -8.4498434 -0.35445267 0.95242172
8.3396091 -8.4450388 -0.34534767 0.95361507
7.532207 -8.4361134 -0.32907104 0.95575213
7.3419528 -8.4340229 -0.32536364 0.95623946
7.1559176 -8.4319525 -0.32179075 0.95670962
6.6211329 -8.4260349 -0.31181288 0.95802343
6.282402 -8.4223042 -0.30573297 0.95882463
6.1178708 -8.4204884 -0.30285144 0.95920461
5.0444531 -8.4086227 -0.28531814 0.96152055
4.7594724 -8.4054689 -0.28106272 0.96208346
4.3471875 -8.400918 -0.27523246 0.96285528
3.8223436 -8.3951168 -0.26840168 0.96376002
3.6950977 -8.3937111 -0.26685145 0.96396554
3.4448242 -8.3909473 -0.26392677 0.96435332
3.1998241 -8.3882322 -0.26122871 0.96471119
2.2636719 -8.3779001 -0.2525149 0.96586806
1.8164257 -8.3729591 -0.24929641 0.96629572
1.3793359 -8.3681154 -0.24677448 0.96663094
1.2713476 -8.3669338 -0.2462489 0.96670079
1.1638086 -8.3657417 -0.2457643 0.96676528
1.0566796 -8.3645601 -0.24531926 0.96682435
0.9499023 -8.3633785 -0.24491544 0.96687812
0.84349608 -8.3622065 -0.24455149 0.96692652
0.42046875 -8.3575191 -0.24348773 0.96706796
0.31517577 -8.3563671 -0.24331944 0.96709031
0.21005858 -8.355195 -0.24318983 0.96710765
-0.41998047 -8.3482227 -0.24321675 0.96710396
-0.52513671 -8.3470802 -0.24335715 0.96708536
-0.73591793 -8.3447561 -0.24374999 0.96703291
-0.8416211 -8.3435841 -0.24400674 0.96699893
-0.94753903 -8.342412 -0.24430066 0.96695971
-1.0537499 -8.3412209 -0.24463598 0.96691537
-1.1602734 -8.3400583 -0.24500991 0.9668656
-1.2671094 -8.3388672 -0.24542184 0.96681064
-1.4819726 -8.3365135 -0.24637191 0.9666844
-1.5900586 -8.3353119 -0.24690686 0.96661323
-1.8077539 -8.3329096 -0.24810378 0.96645415
-2.0276756 -8.3304682 -0.24946968 0.96627259
-2.1386328 -8.3292379 -0.25021824 0.96617317
-2.2502148 -8.3280172 -0.25101212 0.96606779
-2.3625391 -8.326787 -0.25184882 0.96595651
-2.4756446 -8.3255272 -0.25273231 0.96583921
-2.5895312 -8.3242674 -0.25366232 0.96571577
-2.7043164 -8.322998 -0.25463837 0.96558601
-3.1729686 -8.317812 -0.25903705 0.96500218
-3.2927539 -8.316494 -0.26026323 0.9648394
-3.6593359 -8.3124514 -0.26426744 0.96430808
-3.9102538 -8.3096771 -0.26722056 0.96391666
-4.0378904 -8.3082619 -0.26878518 0.96370918
-4.4302149 -8.3039255 -0.27385589 0.96303731
-4.7002931 -8.3009472 -0.27756718 0.96254605
-5.1199412 -8.296299 -0.28366792 0.96173882
-5.2640429 -8.2947264 -0.28585204 0.96144974
-5.4103708 -8.2931051 -0.28811726 0.96115041
-5.559082 -8.2914553 -0.29046381 0.96084023
-5.7102537 -8.2897854 -0.29289511 0.96051884
-5.8639646 -8.2880659 -0.295416 0.96018612
-6.0204101 -8.2863569 -0.29802817 0.95984125
-6.1796875 -8.2846088 -0.30073348 0.95948398
-6.3418946 -8.2828026 -0.30353945 0.95911407
-6.5071678 -8.2809763 -0.3064445 0.95873094
-6.6756835 -8.2791109 -0.30945498 0.95833391
-7.0229492 -8.2752733 -0.31581041 0.9574967
-7.2020898 -8.2732906 -0.31916353 0.95705509
-7.385078 -8.2712793 -0.32263973 0.95659757
-7.5720701 -8.2691994 -0.32624763 0.95612347
-7.7633786 -8.2670803 -0.3299852 0.95563185
-1.0355859 -0.9482519 -0.040856399 0.99439681
-1.0358398 -0.87906247 -0.039530411 0.99457818
-1.035918 -0.85698241 -0.03911953 0.99463439
-1.0363672 -0.73323238 -0.03693882 0.99493265
-1.1504102 -0.70995116 -0.039334182 0.99460495
-1.1834179 -0.70993161 -0.040155221 0.99449277
-1.2178515 -0.70994139 -0.041017417 0.99437481
-1.2538086 -0.70995116 -0.041924324 0.99425071
-1.3307226 -0.70993161 -0.043886106 0.99398261
-1.4152539 -0.70995116 -0.046070822 0.99368399
-1.4607617 -0.70995116 -0.047258377 0.99352175
-1.6127148 -0.70996094 -0.051271055 0.99297351
-1.6692773 -0.70995116 -0.052781828 0.99276727
-1.7801172 -0.70479488 -0.05570839 0.9923678
-1.7800195 -0.65350586 -0.055174027 0.99244076
-12.910527 -4.5566406 -0.39836603 0.94668645
-13.439023 -4.1806345 -0.40951866 0.94523573
-14.021015 -4.1691895 -0.42562369 0.9431445
-15.345674 -4.146328 -0.46252462 0.93837017
-16.109385 -4.1361814 -0.48393726 0.93561071
-16.839912 -3.6532128 -0.50138748 0.93336809
-16.884413 -3.4413085 -0.50138646 0.93336838
-16.926329 -3.2288573 -0.50138551 0.93336838
-17.00205 -2.8024707 -0.50138378 0.93336862
-17.067089 -2.3743165 -0.50138223 0.93336868
-17.095585 -2.159668 -0.50138146 0.93336868
-17.144403 -1.7293652 -0.50138021 0.93336886
-17.164698 -1.5137793 -0.50137961 0.93336922
-17.197235 -1.0819434 -0.5013786 0.93336952
-17.219004 -0.64944333 -0.50137776 0.93336946
-17.229883 -0.21651366 -0.50137711 0.93336946
-15.727802 0.39538085 -0.50140226 0.9389782
-15.721591 0.59298825 -0.50140214 0.9389782
-15.7129 0.79048824 -0.50140208 0.9389782
-15.701718 0.98787105 -0.50140202 0.9389782
-15.688056 1.1851171 -0.50140208 0.93897825
-15.671943 1.3821582 -0.50140214 0.9389782
-15.653339 1.5789746 -0.50140226 0.93897814
-15.632275 1.7755468 -0.50140238 0.93897814
-15.608721 1.9718456 -0.50140256 0.93897814
-15.554287 2.3634863 -0.50140309 0.93897796
-15.49 2.7536328 -0.50140381 0.9389779
-15.454169 2.9480565 -0.50140423 0.9389779
-15.415889 3.1420214 -0.5014047 0.93897796
-15.375195 3.3354883 -0.50140512 0.93897796
-15.332109 3.5284374 -0.50140566 0.93897778
-15.182178 3.8981249 -0.49954775 0.93919671
-14.387998 3.887578 -0.47498751 0.9420979
-13.668135 3.8780272 -0.45279679 0.94472688
-12.440918 3.870156 -0.41523314 0.94919366
-11.902012 3.8671973 -0.39883587 0.95115
-11.782656 4.1585937 -0.39821506 0.95122433
-1.7808789 0.65382808 -0.060461424 0.99243647
-1.780957 0.67936522 -0.060747948 0.99240065
-1.7809961 0.70515621 -0.061046906 0.99236339
-1.7293164 0.70994139 -0.059576605 0.99254662
-1.6693164 0.70996094 -0.057811849 0.99276656
-1.5592773 0.70995116 -0.05460266 0.9931668
-1.5086914 0.70996094 -0.053140257 0.99334925
-1.4152734 0.70996094 -0.050461311 0.99368334
-1.3719727 0.70994139 -0.049232025 0.99383682
-1.1834375 0.70994139 -0.043981895 0.99449223
-1.1186913 0.70995116 -0.042226333 0.99471152
-1.0882226 0.70996094 -0.041409682 0.9948135
-1.0589257 0.70994139 -0.040630378 0.99491084
-1.0357226 0.7134375 -0.040081788 0.99497944
-1.0355663 0.75239259 -0.040795095 0.99489033
-1.0355273 0.77240235 -0.041171491 0.99484324
-1.0354491 0.79281247 -0.041561238 0.99479449
-1.0352539 0.83477539 -0.042383347 0.99469191
-1.035 0.90098631 -0.04373268 0.99452335
-1.0349023 0.92401367 -0.044215772 0.99446303
-1.0348243 0.94754881 -0.044716757 0.99440044
-8.123086 7.8225389 -0.35940441 0.95587134
-7.9191403 7.8202829 -0.3546997 0.9564361
-7.52666 7.8159666 -0.34581244 0.95750409
-7.3376365 7.8138671 -0.34161341 0.95800924
-6.4561133 7.804121 -0.32279068 0.96027613
-6.2911134 7.8023143 -0.3194215 0.96068269
-6.1295505 7.8005271 -0.31616929 0.96107501
-5.367363 7.7920995 -0.30154446 0.96284163
-5.2231054 7.7905078 -0.29891831 0.9631592
-5.0813866 7.7889256 -0.29638502 0.96346569
-4.804863 7.7858691 -0.29158059 0.96404713
-4.6699023 7.7843943 -0.2893033 0.96432275
-4.4061131 7.7814646 -0.28498867 0.96484536
-4.2771287 7.7800388 -0.28294623 0.9650929
-4.0244336 7.7772655 -0.27907708 0.96556187
-3.9006445 7.7758985 -0.27724665 0.96578377
-3.7784569 7.7745504 -0.27548543 0.96599758
-3.5385351 7.7718844 -0.27215257 0.96640193
-3.3042383 7.7692966 -0.26906767 0.96677631
-3.1890428 7.7680368 -0.26761496 0.96695268
-2.7398632 7.7630758 -0.2623632 0.96759057
-2.6302538 7.7618651 -0.26118419 0.96773374
-2.4138477 7.7594528 -0.25897953 0.96800166
-2.3069336 7.7582812 -0.25795278 0.9681266
-2.0956054 7.7559471 -0.25604212 0.96835881
-1.887246 7.7536325 -0.2543211 0.96856833
-1.5795898 7.7502441 -0.25207621 0.96884137
-1.4782031 7.7491207 -0.25141546 0.96892178
-1.3773632 7.7480173 -0.25079763 0.96899682
-1.1769726 7.7458005 -0.24968906 0.96913171
-1.0774024 7.7446775 -0.24919727 0.96919161
-0.7808789 7.741416 -0.24796806 0.96934122
-0.68263668 7.7403316 -0.2476387 0.96938127
-0.58462888 7.7392383 -0.24734937 0.9694165
-0.48681641 7.7381735 -0.24710052 0.96944684
-0.38923827 7.7370996 -0.24689017 0.96947241
-0.19443358 7.7349315 -0.24658725 0.9695093
-1.953125e-05 7.7327929 -0.24644236 0.96952707
0.1943164 7.7306442 -0.24645057 0.96952593
0.58367187 7.7263379 -0.24693654 0.96946669
0.68128908 7.7252536 -0.24715698 0.96943998
0.87720704 7.723115 -0.24771452 0.96937197
1.1729883 7.7198238 -0.24885191 0.96923363
1.2722656 7.71874 -0.24931303 0.96917754
1.3718945 7.7176266 -0.24981353 0.96911657
1.4719336 7.7165232 -0.2503576 0.96905047
1.5724804 7.7154198 -0.25094262 0.96897918
1.8770899 7.7120409 -0.25295544 0.96873432
2.1870897 7.7086325 -0.25536746 0.96844089
2.5034959 7.7051172 -0.25819647 0.96809703
2.6106055 7.7039547 -0.25923559 0.96797061
2.8274803 7.7015429 -0.26146445 0.96769983
2.937324 7.7003222 -0.26265571 0.96755517
3.8576367 7.6901464 -0.27418992 0.96615463
3.9786522 7.688828 -0.27590477 0.96594679
4.1012111 7.6874704 -0.27768227 0.96573108
4.22541 7.6860838 -0.27952835 0.96550721
4.4789062 7.6833005 -0.28343117 0.96503401
4.7397461 7.6804295 -0.28763014 0.9645254
5.0086131 7.6774511 -0.29214254 0.96397913
5.286211 7.6743846 -0.29698762 0.96339267
5.72082 7.6695895 -0.3049345 0.96243167
5.8709569 7.6679101 -0.30777967 0.96208823
6.1799803 7.6644921 -0.31377783 0.96136361
6.8366599 7.6572361 -0.32714874 0.95975095
7.0098243 7.6553321 -0.33080521 0.95931041
7.186914 7.653379 -0.33459541 0.95885372
7.5536914 7.6493163 -0.342612 0.95788908
7.7438278 7.6472263 -0.34684989 0.95737946
7.9387498 7.6450682 -0.35124892 0.95685071
8.13873 7.6428614 -0.35581893 0.95630175
8.3439846 7.6405859 -0.36056721 0.95573181
8.5548239 7.6382613 -0.36550212 0.95513982
8.9945116 7.6333981 -0.37597033 0.95388508
9.2240229 7.6308689 -0.38152456 0.95321989
1.2655274 0.94396484 -0.0503162 0.99370146
1.2656835 0.89550781 -0.049412537 0.99381429
1.2657617 0.87189454 -0.048984338 0.99386775
1.2659179 0.82588863 -0.04817215 0.9939692
1.2660937 0.78135741 -0.047415312 0.9940635
1.2913867 0.70996094 -0.046965826 0.99411964
1.3719727 0.70995116 -0.049231987 0.99383682
1.5087304 0.70993161 -0.053140182 0.99334919
1.5592773 0.70994139 -0.05460266 0.9931668
1.6127148 0.70996094 -0.056157149 0.99297297
1.6692773 0.70994139 -0.057811737 0.99276668
1.7293164 0.70996094 -0.0595771 0.99254662
1.7931445 0.70994139 -0.061462861 0.99231154
2.0102735 0.68122071 -0.067645684 0.99154145
2.0101757 0.65314454 -0.06736061 0.99157691
11.943261 3.7153614 -0.39862281 0.95117551
12.031621 3.5776465 -0.40003979 0.95100629
12.733339 3.6127734 -0.42182723 0.94840789
15.302519 3.7247264 -0.50193137 0.93891603
15.391406 3.338994 -0.50193328 0.93891561
15.470488 2.9511621 -0.50193506 0.93891549
15.506465 2.7565429 -0.5019359 0.93891507
15.539883 2.5614843 -0.50193667 0.93891501
15.599414 2.1701562 -0.5019381 0.93891478
15.649004 1.7774512 -0.50193936 0.93891484
15.670097 1.5806836 -0.50193995 0.9389149
15.68871 1.383623 -0.50194049 0.9389149
15.704941 1.1863769 -0.50194097 0.9389146
15.718613 0.98895508 -0.50194138 0.9389146
15.729785 0.79133785 -0.5019418 0.93891466
15.738496 0.59363282 -0.50194216 0.9389146
15.748496 0.19791014 -0.50194275 0.93891442
15.748496 -0.19790038 -0.50194317 0.93891442
15.744746 -0.3957617 -0.50194335 0.93891448
15.738535 -0.59359372 -0.50194341 0.93891448
15.729843 -0.79132813 -0.50194353 0.93891442
15.718652 -0.98892576 -0.50194353 0.93891448
15.705 -1.1863769 -0.50194353 0.93891442
15.670234 -1.580664 -0.50194329 0.93891436
15.64912 -1.7774512 -0.50194317 0.93891442
15.539961 -2.5614746 -0.5019421 0.93891472
15.506542 -2.7565527 -0.50194174 0.93891478
15.470722 -2.9511817 -0.50194138 0.9389146
15.348417 -3.5321581 -0.50193989 0.9389149
15.09627 -4.4889064 -0.50193655 0.93891519
14.566699 -4.5314255 -0.48618227 0.94077432
2.0101562 -0.65314454 -0.067360759 0.99157697
2.010293 -0.68122071 -0.067645565 0.99154133
2.010371 -0.70953125 -0.067943953 0.99150431
1.9337499 -0.70994139 -0.065650709 0.99178988
1.8611327 -0.70995116 -0.063482895 0.99205989
1.7293164 -0.70994139 -0.059576835 0.99254662
1.6692773 -0.70994139 -0.057811659 0.99276668
1.6127539 -0.70995116 -0.056156881 0.99297279
1.5592773 -0.70996094 -0.05460285 0.9931668
1.4607812 -0.70994139 -0.051762085 0.99352115
1.415293 -0.70993161 -0.050461274 0.99368334
1.3307226 -0.70994139 -0.048068389 0.99398208
1.266289 -0.71702147 -0.046377372 0.9941932
1.2662305 -0.73813474 -0.046710853 0.99415153
1.2661523 -0.75958985 -0.047056809 0.99410832
1.2659961 -0.80343747 -0.047786865 0.99401724
1.2658398 -0.84872067 -0.04857105 0.99391931
1.2657812 -0.87190425 -0.048984259 0.9938677
1.265625 -0.91952145 -0.049856376 0.9937588
1.2654883 -0.94396484 -0.0503162 0.99370164
9.7401752 -7.8537107 -0.39875838 0.95115936
9.4371481 -8.2151365 -0.39875358 0.95115989
9.3331251 -8.3330564 -0.39875188 0.95116007
8.7745895 -8.4498434 -0.38823128 0.95241779
8.5543165 -8.4474115 -0.38314989 0.95302558
8.3396482 -8.4450388 -0.37825847 0.95361114
8.1303511 -8.4427052 -0.37354994 0.95417535
7.532207 -8.4361134 -0.3604306 0.9557485
7.3419528 -8.4340229 -0.35637179 0.95623583
7.1559176 -8.4319525 -0.35245663 0.95670605
6.9738865 -8.4299412 -0.34868109 0.9571597
6.7956834 -8.4279785 -0.34503922 0.95759743
6.282402 -8.4223042 -0.33486968 0.95882124
5.9564061 -8.4186916 -0.32866988 0.95956808
5.797832 -8.4169436 -0.32573065 0.95992225
5.6420507 -8.4152145 -0.32289404 0.96026421
5.488945 -8.4135256 -0.3201578 0.96059424
5.1902342 -8.4102345 -0.31496683 0.9612205
5.0444531 -8.4086227 -0.31250957 0.96151739
4.7594919 -8.4054689 -0.30784735 0.9620803
4.3471875 -8.400918 -0.30146039 0.96285218
4.2134767 -8.3994436 -0.29948515 0.96309119
3.9511132 -8.3965521 -0.29574564 0.96354336
3.8223436 -8.3951168 -0.29398096 0.96375704
3.6950781 -8.3937111 -0.29228285 0.96396261
3.5692382 -8.3923244 -0.29064888 0.96416032
3.4448242 -8.3909473 -0.2890797 0.96435034
3.1998241 -8.3882322 -0.28612456 0.96470827
2.9596288 -8.3855858 -0.28340638 0.96503758
2.723789 -8.382988 -0.28091615 0.96533948
2.6074023 -8.3816795 -0.27975225 0.96548057
2.491914 -8.3804197 -0.27864274 0.96561509
2.3773632 -8.3791504 -0.27758563 0.9657433
2.0385938 -8.3754101 -0.27471894 0.96609098
1.7063086 -8.3717384 -0.27229363 0.96638519
1.3793359 -8.3681154 -0.27029261 0.96662819
1.2713476 -8.3669338 -0.26971585 0.96669805
0.94992185 -8.363369 -0.26825541 0.96687537
0.84349608 -8.3622065 -0.26785773 0.96692377
0.73740232 -8.3610353 -0.26750106 0.96696693
0.31517577 -8.3563671 -0.26650822 0.96708757
0.21005858 -8.355195 -0.26636529 0.96710491
-0.10494141 -8.3517189 -0.26619074 0.96712601
-0.20992187 -8.3505659 -0.26621807 0.96712279
-0.31490234 -8.3493948 -0.26628536 0.96711457
-0.52515626 -8.3470697 -0.26654851 0.96708268
-0.63044918 -8.3459272 -0.26674345 0.96705896
-0.73591793 -8.3447561 -0.26698187 0.96703017
-0.8416211 -8.3435841 -0.26726004 0.96699619
-1.0537499 -8.3412209 -0.26795012 0.96691263
-1.4819726 -8.3365135 -0.26985064 0.96668166
-1.5900586 -8.3353119 -0.27043867 0.96661043
-1.9174414 -8.3316889 -0.27247241 0.96636343
-2.0276756 -8.3304682 -0.27324474 0.96626979
-2.5895507 -8.3242579 -0.27783552 0.9657129
-2.7043164 -8.322998 -0.27890578 0.96558315
-2.9366405 -8.3204298 -0.28120524 0.96530443
-3.0542967 -8.3191214 -0.28243437 0.96515524
-3.4136913 -8.3151655 -0.28646791 0.9646666
-3.5358984 -8.313818 -0.28793001 0.96448952
-4.0378904 -8.3082619 -0.29439974 0.9637062
-4.1670508 -8.3068457 -0.29618284 0.96349055
-4.2978125 -8.3053904 -0.2980327 0.96326661
-4.5643554 -8.3024416 -0.30194992 0.96279305
-4.7002931 -8.3009472 -0.30401877 0.96254289
-4.8381834 -8.2994232 -0.30616605 0.96228343
-4.9780273 -8.2978811 -0.30839303 0.96201444
-5.1199412 -8.296299 -0.3107008 0.96173561
-5.2640429 -8.2947264 -0.31309319 0.96144658
-5.559082 -8.2914553 -0.31814426 0.96083695
-6.3418946 -8.2828217 -0.33246592 0.95911068
-7.0229492 -8.2752733 -0.345907 0.95749319
-7.385078 -8.2712793 -0.35338816 0.95659393
-7.5720701 -8.2691994 -0.35733688 0.95611984
-7.9591403 -8.2649412 -0.36568382 0.9551183
-8.1595898 -8.2627144 -0.37009308 0.95458961
-8.3649807 -8.2604389 -0.37466967 0.95404106
-8.5755272 -8.2581053 -0.37942341 0.9534719
-1.0348047 -0.94756836 -0.044716757 0.99440044
-1.0349023 -0.9240039 -0.044215925 0.99446309
-1.0350195 -0.90097654 -0.043732602 0.99452335
-1.0350976 -0.87844723 -0.043266524 0.99458152
-1.0351952 -0.85637695 -0.042817228 0.99463767
-1.0352539 -0.83475584 -0.042383611 0.99469191
-1.035332 -0.81355464 -0.041964911 0.99474424
-1.0355273 -0.77241212 -0.041171379 0.99484324
-1.0356054 -0.75238281 -0.040795248 0.99489027
-1.0882422 -0.70996094 -0.041409757 0.99481344
-1.1504102 -0.70995116 -0.043082733 0.99460453
-1.2913867 -0.70995116 -0.046965826 0.9941197
-1.3719727 -0.70996094 -0.049232099 0.99383682
-1.5592773 -0.70994139 -0.05460266 0.9931668
-1.6127148 -0.70996094 -0.056157224 0.99297297
-1.7293164 -0.70993161 -0.05957691 0.99254662
-1.7809961 -0.70513672 -0.061046828 0.99236339
-1.7809179 -0.67935544 -0.060747869 0.99240077
-12.874218 -4.1830759 -0.43141571 0.94726682
-13.411855 -4.1721678 -0.44763801 0.9453389
-15.188564 -4.1038771 -0.50141627 0.93897647
-15.286748 -3.7208397 -0.50141418 0.93897706
-15.416122 -3.1420507 -0.50141138 0.93897706
-15.523535 -2.5587597 -0.50140887 0.9389773
-15.554404 -2.3634765 -0.50140816 0.93897754
-15.582881 -2.1678417 -0.50140744 0.93897748
-15.632363 -1.775537 -0.50140613 0.93897778
-15.653457 -1.5789453 -0.5014056 0.93897772
-15.671992 -1.3821288 -0.50140512 0.93897802
-15.688134 -1.1850976 -0.50140458 0.93897796
-15.701787 -0.98784178 -0.50140417 0.93897796
-15.72165 -0.59293944 -0.50140339 0.93897796
-15.727861 -0.39533201 -0.50140309 0.93897796
-15.731543 -0.19768554 -0.5014028 0.93897814
-14.473906 1.953125e-05 -0.50142419 0.94371569
-14.472783 0.18190429 -0.50142401 0.94371557
-14.445283 0.90883785 -0.50142372 0.94371587
-14.432744 1.0902832 -0.50142372 0.94371581
-14.417891 1.2715625 -0.50142378 0.94371587
-14.400791 1.4526367 -0.5014239 0.94371581
-14.381435 1.633496 -0.50142401 0.94371569
-14.335898 1.9943848 -0.50142443 0.94371545
-14.182363 2.8906152 -0.5014261 0.94371551
-14.144932 3.0686035 -0.50142658 0.94371545
-14.105234 3.2461035 -0.50142705 0.94371557
-14.063408 3.4231055 -0.50142759 0.94371527
-14.019277 3.5995605 -0.50142813 0.94371527
-13.972959 3.7754393 -0.50142872 0.94371521
-13.01249 3.8693066 -0.4703036 0.94711488
-1.7818164 0.67969728 -0.066066019 0.99239624
-1.7818555 0.70548826 -0.066391297 0.99235898
-1.6127343 0.70995116 -0.061044004 0.99297225
-1.5086914 0.70996094 -0.057764661 0.99334866
-1.4608008 0.70996094 -0.056266632 0.99352044
-1.4152734 0.70996094 -0.054852638 0.9936828
-1.3307226 0.70994139 -0.052251663 0.99398154
-1.2538086 0.70994139 -0.049916189 0.99424976
-1.2178711 0.70995116 -0.04883606 0.99437374
-1.1504102 0.70996094 -0.046832196 0.99460399
-1.1186913 0.70995116 -0.045900956 0.99471104
-1.0882226 0.70996094 -0.04501335 0.99481302
-1.0350391 0.71295899 -0.043540802 0.9949823
-1.0347852 0.77188474 -0.044723891 0.9948464
-1.034707 0.79225582 -0.045146752 0.99479771
-1.0342382 0.90034175 -0.047503851 0.9945268
-1.0341406 0.92334956 -0.048028182 0.99446654
-1.034043 0.94685543 -0.048572198 0.99440408
-8.3325586 7.824863 -0.39599562 0.95528066
-7.7204099 7.8181052 -0.38064542 0.95697618
-7.52666 7.8159666 -0.37590671 0.95750028
-7.3376365 7.8138671 -0.37134105 0.95800543
-6.972949 7.809834 -0.36270553 0.95896173
-6.4560742 7.8041406 -0.35088164 0.96027255
-6.1295505 7.8005271 -0.34368381 0.96107149
-5.6636133 7.795361 -0.33380789 0.96216881
-5.367363 7.7920995 -0.32778534 0.96283823
-5.223125 7.7904978 -0.32493195 0.96315587
-5.0813866 7.7889256 -0.32217711 0.96346235
-4.9420118 7.7874022 -0.3195197 0.96375817
-4.6699023 7.7843943 -0.31448025 0.96431947
-4.5370116 7.7829099 -0.31209332 0.96458554
-4.2771287 7.7800388 -0.30756962 0.96508974
-4.0244336 7.7772655 -0.30336279 0.96555877
-3.9006445 7.7758985 -0.30137423 0.96578068
-3.7784569 7.7745504 -0.29945743 0.96599454
-3.5385351 7.771904 -0.29583582 0.96639884
-3.1890428 7.7680368 -0.29090425 0.9669497
-3.0750585 7.7667675 -0.28938571 0.96711922
-2.9622459 7.7655368 -0.28792915 0.96728188
-2.7398632 7.7630758 -0.28519455 0.96758759
-2.5215623 7.760654 -0.28268921 0.96786791
-2.4138477 7.7594528 -0.28151736 0.9679988
-1.784121 7.7525001 -0.27559027 0.96866184
-1.6815624 7.7513766 -0.27477771 0.96875286
-1.4782031 7.7491207 -0.27329496 0.96891892
-1.3773632 7.7480173 -0.27262247 0.96899402
-1.2769336 7.7468944 -0.27199715 0.96906406
-1.1769726 7.7458005 -0.27141836 0.96912891
-0.68263668 7.7403316 -0.26918972 0.96937847
-0.58462888 7.7392383 -0.26887506 0.96941376
-0.48681641 7.7381735 -0.2686035 0.9694441
-0.19443358 7.7349315 -0.26804671 0.96950656
-0.097167969 7.7338572 -0.26794589 0.96951783
0.097167969 7.7317185 -0.26787201 0.96952611
0.1943164 7.7306442 -0.26789787 0.96952319
0.38880858 7.7285056 -0.26807716 0.96950305
0.68128908 7.7252536 -0.26866579 0.96943724
0.97548825 7.7220211 -0.26964065 0.96932799
1.3718945 7.7176266 -0.27155352 0.96911377
1.4719336 7.7165232 -0.27214494 0.96904767
1.5724804 7.7154198 -0.27277994 0.96897638
1.673496 7.7142968 -0.27346322 0.96890002
1.7750195 7.7131834 -0.27419248 0.96881837
1.8770899 7.7120409 -0.27496916 0.96873146
1.9798242 7.7109179 -0.27579367 0.96863908
2.1870897 7.7086325 -0.27759108 0.96843803
2.8274803 7.7015429 -0.28421763 0.96769691
3.1602147 7.6978707 -0.28827599 0.96724331
3.2733397 7.6966209 -0.2897464 0.96707892
3.3875585 7.6953516 -0.29127917 0.96690786
3.6199024 7.6927829 -0.29453278 0.96654439
3.8575976 7.690166 -0.29805136 0.9661516
4.1012111 7.6874704 -0.30184689 0.96572798
4.22541 7.6860838 -0.30385455 0.96550411
4.3512692 7.6847167 -0.30593669 0.96527177
4.4789062 7.6833005 -0.3080968 0.96503085
4.6083789 7.6818652 -0.31033805 0.96478111
4.8731251 7.6789355 -0.31506988 0.96425396
5.0086131 7.6774511 -0.3175661 0.96397585
5.5733786 7.6712108 -0.32848936 0.96276003
5.8709569 7.6679101 -0.33456284 0.96208477
6.0239649 7.6662207 -0.33776391 0.96172887
6.1799803 7.6644921 -0.34108451 0.96136016
6.5014453 7.6609569 -0.34808916 0.96058244
7.7438278 7.6472263 -0.3770335 0.95737565
7.9387498 7.6450682 -0.3818163 0.95684683
8.13873 7.6428614 -0.38678443 0.95629781
8.3439846 7.6405859 -0.39194405 0.95572782
8.5548239 7.6382613 -0.3973085 0.95513576
8.6774416 7.5538473 -0.39856264 0.95499754
8.8646288 7.333447 -0.3985661 0.95499712
8.9561129 7.2215428 -0.3985678 0.95499688
9.1348629 6.9942479 -0.39857107 0.95499647
1.2646484 0.94333005 -0.054657705 0.99370521
1.2649413 0.87132812 -0.053211745 0.99387115
1.2650195 0.84812498 -0.052763022 0.99392283
1.2651757 0.80291015 -0.051911697 0.99402058
1.2655078 0.71657223 -0.050381429 0.99419624
1.3719727 0.70995116 -0.053516347 0.99383628
1.4152734 0.70994139 -0.054852791 0.9936828
1.4607617 0.70994139 -0.056266516 0.99352062
1.5087304 0.70993161 -0.057764586 0.99334854
1.5592773 0.70994139 -0.059354398 0.99316621
1.6127148 0.70996094 -0.061044309 0.99297231
1.6692773 0.70994139 -0.062842943 0.99276602
1.7293164 0.70996094 -0.064761505 0.9925459
1.8611132 0.70996094 -0.069007374 0.99205917
1.9337695 0.70995116 -0.071363978 0.99178904
2.0124805 0.71029294 -0.073934592 0.99149466
2.012285 0.65383786 -0.073299408 0.99156731
14.032754 3.6030078 -0.50190967 0.94366276
14.158632 3.0715528 -0.50191242 0.94366252
14.19623 2.8934178 -0.50191325 0.94366211
14.295176 2.3563085 -0.50191551 0.94366217
14.323691 2.1764941 -0.50191617 0.94366205
14.373867 1.8158398 -0.50191742 0.94366199
14.395586 1.6350878 -0.50191802 0.94366187
14.469902 0.72793943 -0.50192028 0.94366169
14.48705 0.18206054 -0.50192112 0.94366169
14.478027 -0.54604489 -0.50192177 0.94366121
14.470019 -0.72795898 -0.50192177 0.94366121
14.447128 -1.0913379 -0.50192177 0.94366133
14.395761 -1.6350878 -0.50192147 0.94366121
14.350019 -1.9963379 -0.50192112 0.94366163
14.231602 -2.7147949 -0.50191981 0.94366157
14.119121 -3.2492578 -0.50191849 0.94366175
14.032948 -3.6030371 -0.50191736 0.94366199
13.887129 -4.129375 -0.5019154 0.94366217
13.83416 -4.3035645 -0.50191468 0.94366211
2.0124805 -0.71029294 -0.073934592 0.99149466
1.8611327 -0.70995116 -0.069007263 0.99205911
1.7931445 -0.70996094 -0.066811524 0.99231076
1.6127539 -0.70995116 -0.061043739 0.9929722
1.5592773 -0.70996094 -0.059354361 0.99316615
1.4607812 -0.70994139 -0.056266632 0.99352056
1.3719921 -0.70994139 -0.053516347 0.99383622
1.2654492 -0.73767579 -0.050743751 0.99415457
1.2651953 -0.80291015 -0.05191185 0.99402052
1.2648633 -0.89489257 -0.053676832 0.99381781
1.2647461 -0.91888672 -0.054158323 0.99376255
9.1388865 -6.9972849 -0.39874718 0.95497721
9.0502148 -7.1115527 -0.39874575 0.95497733
8.8685741 -7.3367286 -0.39874288 0.95497751
8.7756643 -7.4475489 -0.39874136 0.95497769
8.3902149 -7.8789353 -0.39873526 0.95497853
8.2905073 -7.9836912 -0.39873362 0.95497876
8.1895504 -8.0872259 -0.39873204 0.95497876
8.0872259 -8.1894922 -0.3987304 0.95497888
7.9836521 -8.2904005 -0.3987287 0.95497912
7.7268748 -8.438262 -0.3963764 0.95523906
7.532207 -8.4361134 -0.39179748 0.9557445
7.1559176 -8.4319525 -0.38312945 0.95670217
6.7956834 -8.4279785 -0.37506714 0.95759362
6.6211329 -8.4260349 -0.37124857 0.95801616
6.4500976 -8.42416 -0.36756554 0.95842391
6.282402 -8.4223042 -0.36401042 0.95881754
5.6420507 -8.4152145 -0.35099417 0.96026063
5.0444531 -8.4086227 -0.33970341 0.96151388
4.3471875 -8.400918 -0.3276951 0.96284884
3.9511132 -8.3965521 -0.32148308 0.96354008
3.5692382 -8.3923244 -0.31594175 0.9641571
3.4448242 -8.3909473 -0.3142359 0.96434712
2.8411913 -8.3842869 -0.3066853 0.96518868
2.6074023 -8.3816795 -0.3040978 0.96547741
2.4919531 -8.3804197 -0.30289164 0.96561193
2.2636719 -8.3779001 -0.30064842 0.96586215
2.1507616 -8.3766499 -0.29961041 0.96597803
2.0385742 -8.3754196 -0.29862642 0.96608788
1.2713476 -8.3669338 -0.2931881 0.96669501
0.63150388 -8.3598633 -0.29043996 0.96700186
0.31517577 -8.3563671 -0.2896992 0.96708459
0.21005858 -8.355195 -0.28954583 0.96710193
-0.10494141 -8.3517189 -0.28935608 0.96712303
-0.20992187 -8.3505659 -0.28938472 0.96711981
-0.31490234 -8.3493948 -0.28945893 0.96711159
-0.41998047 -8.3482227 -0.28957802 0.96709824
-0.52515626 -8.3470697 -0.289745 0.9670797
-0.63044918 -8.3459272 -0.28995594 0.96705598
-0.8416211 -8.3435841 -0.29051852 0.96699321
-0.94753903 -8.342412 -0.29086956 0.96695399
-1.0537499 -8.3412209 -0.29126751 0.96690965
-1.1602734 -8.3400583 -0.29171178 0.96685988
-1.4819726 -8.3365135 -0.29333448 0.96667862
-1.5900586 -8.3353119 -0.29397267 0.96660745
-1.8077539 -8.3329096 -0.29539651 0.96644831
-2.1386328 -8.3292379 -0.29791516 0.96616727
-2.4756446 -8.3255367 -0.30090636 0.96583325
-2.8200195 -8.3217087 -0.30439726 0.96544391
-2.9366405 -8.3204298 -0.30567619 0.96530128
-3.0542967 -8.3191214 -0.30701345 0.96515208
-3.1729686 -8.317812 -0.30841261 0.9649961
-3.2927539 -8.316494 -0.30987474 0.96483326
-3.4136913 -8.3151655 -0.31139684 0.96466339
-3.6593359 -8.3124514 -0.3146413 0.96430188
-3.9102538 -8.3096581 -0.31815726 0.96391046
-4.0378904 -8.3082619 -0.3200199 0.96370286
-4.1670508 -8.3068256 -0.32195622 0.96348727
-4.2978125 -8.3053904 -0.32396933 0.96326333
-4.7003317 -8.3009472 -0.33047619 0.96253943
-4.9780273 -8.2978811 -0.33522981 0.96201098
-5.1199412 -8.296299 -0.33773848 0.96173221
-5.2640429 -8.2947264 -0.34034032 0.96144307
-5.559082 -8.2914553 -0.34583104 0.96083343
-5.7102537 -8.2897854 -0.34872726 0.96051198
-5.8639646 -8.2880659 -0.35172728 0.96017921
-6.5071678 -8.2809763 -0.36485657 0.95872378
-6.6756835 -8.2791109 -0.3684423 0.95832676
-7.2020898 -8.2732906 -0.38000152 0.9570477
-7.7633786 -8.2670803 -0.39288744 0.95562416
-7.9591599 -8.2649412 -0.39750633 0.95511419
-8.0815821 -8.1837597 -0.39845282 0.95500964
-8.2846088 -7.9779882 -0.39844912 0.95501012
-8.3841791 -7.8732419 -0.3984473 0.95501024
-1.0342578 -0.90033203 -0.047504082 0.9945268
-1.0344532 -0.85576171 -0.04651016 0.99464101
-1.0348632 -0.75188476 -0.04431545 0.99489331
-1.0350195 -0.71293944 -0.043540649 0.99498242
-1.0882422 -0.70996094 -0.045013275 0.99481297
-1.1186913 -0.70994139 -0.045900915 0.99471104
-1.1834179 -0.70993161 -0.047809258 0.99449182
-1.2913867 -0.70995116 -0.051052969 0.99411911
-1.3307226 -0.70993161 -0.052251585 0.99398154
-1.3719727 -0.70996094 -0.05351631 0.99383622
-1.4607617 -0.70995116 -0.056266554 0.99352062
-1.5592773 -0.70994139 -0.059354629 0.99316621
-1.6692773 -0.70995116 -0.062842786 0.99276602
-1.7293164 -0.70993161 -0.064761616 0.99254596
-1.7818164 -0.67967772 -0.066065975 0.9923963
-1.7817383 -0.65413082 -0.065753937 0.99243218
-12.353066 -4.1860642 -0.45185596 0.94913566
-13.411338 -4.1720119 -0.48657531 0.94533604
-13.973173 -3.7754686 -0.50143677 0.94371438
-14.063583 -3.4231055 -0.50143486 0.94371462
-14.250634 -2.5332909 -0.50143069 0.9437151
-14.281338 -2.3540137 -0.50142998 0.94371516
-14.359873 -1.8140527 -0.50142807 0.94371533
-14.400879 -1.4526269 -0.50142699 0.94371545
-14.455684 -0.72722656 -0.50142527 0.94371545
-14.463662 -0.54549801 -0.50142491 0.94371551
-14.472754 -0.18184569 -0.50142437 0.94371569
-13.401357 9.7656248e-06 -0.50144261 0.94777048
-13.400283 0.16841796 -0.50144243 0.94777054
-13.397109 0.33677733 -0.50144231 0.94777054
-13.384423 0.67335933 -0.50144219 0.94777048
-13.363261 1.0094922 -0.50144219 0.94777054
-13.349531 1.177334 -0.50144219 0.94777048
-13.315732 1.5124316 -0.50144243 0.94777048
-13.295664 1.6796484 -0.50144261 0.94777054
-13.273525 1.8465819 -0.50144285 0.94777048
-13.249307 2.0132422 -0.50144303 0.9477703
-13.164003 2.5111718 -0.50144398 0.94777036
-13.096797 2.8412011 -0.50144482 0.94777018
-13.060039 3.0055664 -0.50144523 0.94777024
-12.98043 3.3328221 -0.50144625 0.94777006
-12.937539 3.4956834 -0.50144684 0.94777
-12.845634 3.8197069 -0.50144804 0.94776988
-11.861425 3.8540235 -0.46666214 0.95130336
-11.353184 3.8472655 -0.44853449 0.95315009
-1.7826562 0.68000972 -0.071390532 0.99239194
-1.7827148 0.70583981 -0.071742207 0.99235457
-1.6127343 0.70995116 -0.065931931 0.99297154
-1.5592773 0.70995116 -0.064107284 0.99316549
-1.4608008 0.70996094 -0.060771942 0.99351978
-1.4152734 0.70996094 -0.059244957 0.99368215
-1.3307226 0.70994139 -0.056435544 0.99398094
-1.2913867 0.70996094 -0.055140801 0.99411851
-1.2178711 0.70995116 -0.052746579 0.99437314
-1.1834375 0.70994139 -0.051637534 0.99449116
-1.1504102 0.70996094 -0.050582044 0.99460346
-1.1186913 0.70995116 -0.049576417 0.99471051
-1.0882226 0.70996094 -0.048617627 0.99481255
-1.0589257 0.70994139 -0.047702447 0.99490988
-1.0341992 0.7513867 -0.047831535 0.99489611
-1.0339258 0.81242186 -0.049201202 0.99475044
-1.0338477 0.83359373 -0.049691122 0.99469817
-1.033711 0.85514647 -0.050198667 0.99464434
-1.033496 0.89967769 -0.051270638 0.99453026
-1.0332617 0.94617188 -0.052422408 0.99440765
-7.7593746 7.2865524 -0.39828077 0.95828784
-7.6671872 7.3834958 -0.39828223 0.95828784
-7.5738473 7.479248 -0.39828375 0.95828772
-7.4793162 7.5738864 -0.3982853 0.95828742
-6.972949 7.809834 -0.39174759 0.95895773
-6.4560742 7.8041406 -0.3789781 0.96026868
-6.1295505 7.8005271 -0.37120238 0.96106768
-5.9711914 7.798779 -0.36751854 0.96144646
-5.6636133 7.795361 -0.36053622 0.96216506
-5.5141211 7.7937207 -0.35722563 0.96250576
-5.367363 7.7920995 -0.35403237 0.9628346
-4.9420118 7.7874022 -0.34510368 0.96375465
-4.5370116 7.7829099 -0.33708289 0.96458209
-4.1499023 7.7786422 -0.32988319 0.96532518
-4.0244336 7.7772655 -0.32765433 0.96555537
-3.9006445 7.7758985 -0.32550526 0.96577734
-3.6577733 7.7732129 -0.32144248 0.96619719
-3.5385351 7.771904 -0.31952342 0.96639556
-3.3042383 7.7692966 -0.31590262 0.96677005
-3.1890428 7.7680368 -0.31419605 0.96694642
-3.0750585 7.7667675 -0.31255883 0.967116
-2.9622459 7.7655368 -0.31098479 0.96727866
-2.8505273 7.7642965 -0.30947697 0.96743482
-2.7398632 7.7630758 -0.30803224 0.96758443
-2.6302538 7.7618551 -0.30664694 0.96772766
-2.5215623 7.760654 -0.30532414 0.96786475
-2.4138477 7.7594528 -0.30406046 0.96799564
-1.7840819 7.7525191 -0.29765788 0.96865875
-1.5795898 7.7502441 -0.29595253 0.96883547
-1.4782031 7.7491207 -0.2951768 0.96891588
-1.2769336 7.7468944 -0.29377699 0.96906102
-1.1769726 7.7458005 -0.2931509 0.96912587
-0.97824216 7.7435937 -0.29204533 0.96924061
-0.87939453 7.7425094 -0.29156414 0.96929044
-0.7808789 7.741416 -0.29113042 0.96933544
-0.68263668 7.7403316 -0.29074469 0.96937549
-0.58462888 7.7392383 -0.29040501 0.96941072
-0.48681641 7.7381735 -0.29011175 0.96944106
-0.38923827 7.7370996 -0.28986397 0.96946663
-0.19443358 7.7349315 -0.28951022 0.96950352
-0.097167969 7.7338572 -0.28940025 0.96951485
0.38880858 7.7284861 -0.28954232 0.96950012
0.48615232 7.7274117 -0.28970867 0.9694829
0.7791211 7.7241697 -0.290483 0.96940267
0.97546875 7.7220211 -0.2912308 0.96932501
1.2722656 7.71874 -0.29270828 0.9691717
1.3718945 7.7176266 -0.29329699 0.96911073
1.7750195 7.7131834 -0.29614729 0.96881527
1.8770899 7.7120409 -0.29698583 0.96872842
2.0831053 7.7097654 -0.29882073 0.96853828
2.3972461 7.7063084 -0.30197653 0.96821141
