# .PCD v0.7 - Point Cloud Data file format
VERSION 0.7
FIELDS x y z intensity
SIZE 4 4 4 4
TYPE F F F F
COUNT 1 1 1 1
WIDTH 1065
HEIGHT 1
VIEWPOINT 0 0 0 1 0 0 0
POINTS 1065
DATA ascii
1.2751172 -0.72201169 -0.0020296478 0.99415576
1.2751172 -0.74333006 -0.0020443725 0.99411356
1.2751172 -0.83186519 -0.0021088792 0.99392861
1.2751172 -0.85489255 -0.0021263885 0.99387813
1.2750976 -0.9021582 -0.0021638107 0.99377155
1.2750781 -0.95111328 -0.0022034454 0.99365723
11.48502 -8.7936621 -0.020036964 0.94378227
9.7325001 -8.4722261 -0.017874412 0.94969535
9.0135546 -8.4642677 -0.017127074 0.95174396
8.786953 -8.4617672 -0.016897278 0.95237589
8.566328 -8.4593258 -0.016675796 0.95298433
7.7377734 -8.4501657 -0.015870932 0.95520359
7.5428123 -8.4480171 -0.015686797 0.95570946
7.3523045 -8.4459076 -0.015511817 0.95619726
6.8052731 -8.4398632 -0.01501915 0.95755994
6.4591794 -8.4360256 -0.014717178 0.95839101
6.2912107 -8.4341888 -0.014574928 0.95878494
5.8059764 -8.4288082 -0.014177131 0.95988691
5.649961 -8.4271088 -0.014054107 0.96022904
5.4966407 -8.4253998 -0.013934212 0.96055943
5.1975193 -8.4221096 -0.01371025 0.96118617
4.9078126 -8.4188862 -0.013497848 0.96177006
4.7661719 -8.4173431 -0.013398323 0.96204668
4.4890428 -8.4142771 -0.013209686 0.96257102
4.2193942 -8.4112787 -0.013035049 0.96305853
3.7002733 -8.4055471 -0.01272129 0.96393067
3.5742579 -8.40417 -0.012649726 0.96412855
3.4496288 -8.4027834 -0.01258194 0.96431881
3.3263476 -8.4014254 -0.012516746 0.9645015
3.0834765 -8.3987494 -0.012393036 0.96484524
2.963789 -8.3974218 -0.012335357 0.96500653
2.3807225 -8.3909864 -0.012081833 0.96571285
2.1537695 -8.3884859 -0.011996497 0.96595085
1.9298828 -8.3859959 -0.011919746 0.96616483
1.7086914 -8.3835545 -0.011851196 0.96635532
1.5990039 -8.3823338 -0.011819954 0.96644205
1.4898633 -8.3811331 -0.011790809 0.96652305
1.2731054 -8.3787403 -0.011739273 0.96666849
1.1654297 -8.3775387 -0.011715889 0.96673304
1.058125 -8.3763571 -0.011694412 0.96679217
0.95124996 -8.3751955 -0.011675949 0.96684587
0.42101562 -8.3693256 -0.011607246 0.96703589
0.2103125 -8.3670015 -0.011593399 0.96707559
0.10507812 -8.36584 -0.011589622 0.96708775
-3.9062499e-05 -8.3646774 -0.011586799 0.96709478
-0.10511719 -8.3635054 -0.011585617 0.96709681
-0.21023437 -8.3623533 -0.011587486 0.96709359
-0.31541014 -8.3612013 -0.01159008 0.96708524
-0.42060545 -8.3600292 -0.011595421 0.96707189
-0.52591795 -8.3588572 -0.011601791 0.96705341
-0.63136715 -8.3576956 -0.011609878 0.96702969
-0.73699218 -8.3565331 -0.011620826 0.96700084
-0.84283203 -8.3553705 -0.01163269 0.96696681
-0.94888669 -8.3541794 -0.011646462 0.96692765
-1.1618946 -8.3518457 -0.011680603 0.96683335
-1.2688867 -8.3506536 -0.011700019 0.96677834
-1.376289 -8.349472 -0.011721458 0.96671784
-1.4840624 -8.3482513 -0.011745796 0.96665215
-1.5923047 -8.3470802 -0.011770096 0.96658075
-1.7010547 -8.3458786 -0.011798477 0.96650392
-1.9201562 -8.3434572 -0.011859168 0.96633351
-2.030586 -8.3422365 -0.011892661 0.96623975
-2.3659179 -8.3385248 -0.012006912 0.96592343
-2.708164 -8.3347559 -0.012139015 0.96555251
-2.9408007 -8.3321676 -0.012239265 0.96527362
-3.1774609 -8.3295507 -0.01234829 0.9649682
-3.2974412 -8.3282423 -0.012405967 0.96480513
-3.5408788 -8.3255463 -0.012532501 0.96445799
-3.789453 -8.3228025 -0.01266777 0.96408135
-3.9157813 -8.3213959 -0.012739029 0.96388167
-4.043613 -8.3199902 -0.012814331 0.96367389
-4.1729298 -8.3185549 -0.012891502 0.96345818
-4.303906 -8.3171091 -0.012971763 0.96323401
-4.5708203 -8.3141699 -0.013142776 0.96275997
-4.706953 -8.3126564 -0.013232841 0.96250969
-4.8450389 -8.3111324 -0.01332611 0.96224993
-4.9850779 -8.3095894 -0.013422012 0.9619807
-5.1271873 -8.3080072 -0.013522567 0.96170169
-5.5669532 -8.303154 -0.013847427 0.9608022
-5.7183204 -8.3014746 -0.013963852 0.96048063
-5.8723044 -8.2997952 -0.014083328 0.96014732
-6.028945 -8.2980566 -0.014208412 0.95980227
-6.1884375 -8.296279 -0.014335747 0.95944476
-6.6851172 -8.2908106 -0.01475296 0.95829356
-6.8572459 -8.2888861 -0.014900322 0.95788199
-7.0328903 -8.286953 -0.015054474 0.95745552
-7.3954687 -8.282939 -0.015381698 0.95655566
-7.774375 -8.2787695 -0.01573124 0.95558876
-8.3767967 -8.2720995 -0.016308136 0.95400041
-8.8039846 -8.2673731 -0.016728897 0.95283931
-1.0433203 -0.93149412 -0.0019372939 0.99442106
-1.0433203 -0.90821284 -0.0019158173 0.99448228
-1.0433203 -0.88540035 -0.0018954086 0.99454147
-1.0433398 -0.84122068 -0.0018565368 0.9946534
-1.0433594 -0.73816407 -0.0017702865 0.9949007
-1.0433594 -0.71865231 -0.0017549514 0.99494517
-1.0589453 -0.70994139 -0.001765976 0.99491334
-1.1187109 -0.70994139 -0.0018352127 0.99471414
-1.2178711 -0.70993161 -0.0019526291 0.99437714
-1.253828 -0.70996094 -0.0019957733 0.99425304
-1.2914063 -0.70995116 -0.0020412062 0.99412256
-1.3307421 -0.70994139 -0.0020890809 0.99398506
-1.4608008 -0.70994139 -0.0022497559 0.99352431
-1.5087304 -0.70994139 -0.0023095321 0.99335253
-1.7293555 -0.70994139 -0.0025892258 0.99255025
-1.7715625 -0.70140624 -0.0026394271 0.9924075
-1.7716016 -0.67578125 -0.0026265716 0.99244422
-22.980732 -8.1107416 -0.03375759 0.90712029
-15.071357 4.2761521 -0.065101467 0.93925756
-23.552343 7.9812403 -0.10334163 0.9053148
-22.583115 7.9705272 -0.099518351 0.90865076
-1.7293359 0.70994139 -0.0077681732 0.99255025
-1.5592968 0.70996094 -0.0071195601 0.99317008
-1.4607812 0.70997071 -0.0067492295 0.99352431
-1.3307226 0.70995116 -0.0062676999 0.99398506
-1.2914063 0.70995116 -0.006123886 0.99412251
-1.253828 0.70997071 -0.0059874724 0.99425298
-1.0882422 0.70995116 -0.0053995894 0.99481606
-1.0589453 0.70995116 -0.0052976608 0.99491328
-1.0426757 0.71820313 -0.0052610398 0.99494839
-1.0426368 0.73767579 -0.0053074262 0.99490416
-1.0426368 0.75750977 -0.0053554536 0.99485815
-1.0426172 0.79827148 -0.0054565431 0.99476123
-1.0426172 0.8192578 -0.0055101393 0.99471009
-1.0425977 0.84065425 -0.005565376 0.9946571
-1.0425781 0.8847754 -0.005682373 0.99454528
-1.042539 0.90755856 -0.0057437513 0.99448633
-1.042539 0.93083984 -0.0058079148 0.99442506
-1.042539 0.95462888 -0.0058739469 0.99436158
-8.3199024 7.8129296 -0.047428932 0.95537299
-8.1107416 7.8106246 -0.046791151 0.95595849
-7.7086716 7.8061914 -0.045589332 0.95706505
-7.5152144 7.8040428 -0.045023575 0.9575882
-7.3264842 7.8019629 -0.044474829 0.95809227
-7.1422849 7.799912 -0.043947563 0.95857817
-6.9623241 7.7979293 -0.043441884 0.95904672
-6.614531 7.7940817 -0.042478904 0.95993435
-6.1201954 7.7886329 -0.041161917 0.9611522
-5.9621091 7.7868848 -0.040754698 0.96153015
-5.6549997 7.7834864 -0.039979398 0.96224719
-5.3591795 7.7802243 -0.039259221 0.96291536
-5.2151952 7.7786326 -0.038916852 0.96323222
-5.0736523 7.77707 -0.03858757 0.96353811
-4.6628122 7.7725196 -0.037664793 0.96439356
-4.270586 7.7681832 -0.036837921 0.96516228
-3.1842186 7.7561913 -0.034841575 0.96701837
-2.62625 7.7500196 -0.03400379 0.96779799
-2.4101562 7.7476268 -0.033716466 0.96806532
-2.3034375 7.7464647 -0.033583678 0.96818995
-1.8844141 7.7418356 -0.033110466 0.96863079
-1.6790234 7.7395411 -0.032910079 0.96881795
-1.3752735 7.7362108 -0.032652471 0.96905851
-1.2749804 7.7350879 -0.032576825 0.96912843
-1.1751953 7.7340035 -0.032507591 0.9691931
-1.0758008 7.7328906 -0.032442857 0.96925288
-0.97675776 7.7317772 -0.032385483 0.96930766
-0.29136717 7.7242184 -0.032119751 0.96955401
-0.09710937 7.7220702 -0.032092169 0.96958125
-3.9062499e-05 7.7209959 -0.032084618 0.9695878
0.096953124 7.7199216 -0.032083016 0.96958959
0.2910547 7.7178025 -0.032094076 0.96957892
0.38816404 7.7167087 -0.032107733 0.96956658
0.58269531 7.7145605 -0.032148324 0.96952754
0.68023437 7.7134957 -0.032178231 0.96950078
0.87582028 7.711328 -0.032250442 0.96943301
1.0724219 7.7091503 -0.032343596 0.96934587
1.1712109 7.7080564 -0.032398488 0.96929491
1.2702734 7.7069626 -0.032458685 0.969239
1.7723047 7.701416 -0.032839965 0.96888328
1.8742187 7.700273 -0.032932129 0.96879661
2.0799217 7.6980176 -0.033136673 0.96860683
2.2882812 7.695703 -0.033362847 0.96839511
2.3935742 7.6945701 -0.03348545 0.96828061
2.9328516 7.6885934 -0.034196164 0.96761966
3.1553905 7.6861324 -0.034527473 0.96731144
3.2682812 7.6849022 -0.034703139 0.96714741
3.3823826 7.6836329 -0.034887314 0.96697664
3.4977343 7.6823435 -0.035077859 0.9667989
3.8516991 7.6784372 -0.035697021 0.96622199
3.9725585 7.6770992 -0.035920601 0.96601456
4.6013279 7.670156 -0.037169531 0.9648543
4.865664 7.6672263 -0.037735976 0.96432823
5.0009375 7.6657419 -0.038034745 0.96405077
5.1384373 7.6642184 -0.038344268 0.96376318
5.2781248 7.6626754 -0.038664855 0.96346545
5.71207 7.6578612 -0.039700124 0.96250635
6.0147653 7.6545506 -0.04045349 0.9618082
6.1705465 7.652822 -0.040852316 0.96144027
6.6571093 7.6474414 -0.042131271 0.96025485
6.9991016 7.643662 -0.043068238 0.95939112
7.1759372 7.6417089 -0.043560561 0.95893526
7.3568749 7.6397071 -0.044074744 0.95846266
8.7581444 7.6242285 -0.04825367 0.95461458
9.6893749 7.613945 -0.051208496 0.95190275
1.2742187 0.95048827 -0.0066060256 0.9936614
1.2742382 0.92578125 -0.006545105 0.99371958
1.2742382 0.87774414 -0.0064299009 0.99382991
1.2742382 0.8543359 -0.0063752746 0.99388218
1.2742773 0.83134764 -0.0063225552 0.99393249
1.2742773 0.80869138 -0.0062716673 0.99398124
1.2743164 0.76447266 -0.0061753844 0.99407345
1.2742969 0.74288082 -0.0061295698 0.9941172
1.2743164 0.7215625 -0.006085434 0.9941594
1.2914063 0.70996094 -0.0061237332 0.99412251
1.3307226 0.70995116 -0.0062675858 0.99398506
1.3719531 0.70995116 -0.0064193723 0.99383998
1.4607812 0.70994139 -0.0067492295 0.99352437
1.5087109 0.70995116 -0.0069288635 0.99335253
1.5592968 0.70996094 -0.0071195601 0.99317008
1.6126952 0.70995116 -0.0073221587 0.99297655
1.7292968 0.70995116 -0.0077682114 0.99255037
1.7931249 0.70996094 -0.0080142971 0.99231535
1.989375 0.70213866 -0.008766708 0.99159682
1.9893359 0.67414063 -0.0087284083 0.9916333
1.989375 -0.70213866 -0.0087666698 0.99159682
1.7931249 -0.70994139 -0.0080142971 0.99231541
1.6692578 -0.70994139 -0.0075382232 0.99277037
1.5086719 -0.70994139 -0.0069289398 0.99335265
1.4607421 -0.70994139 -0.0067492295 0.99352449
1.3719531 -0.70994139 -0.0064193723 0.99383998
1.3307226 -0.70995116 -0.0062676617 0.99398506
1.2913672 -0.70994139 -0.0061238478 0.99412268
1.2742969 -0.74286133 -0.0061295698 0.99411726
1.2742969 -0.76447266 -0.0061753462 0.99407351
1.2742578 -0.8543359 -0.006375351 0.99388212
1.2742578 -0.87773436 -0.0064297486 0.99382985
1.2742382 -0.90154296 -0.0064863586 0.99377573
1.2742187 -0.92577147 -0.0065449905 0.9937197
11.676289 -8.9401264 -0.061111525 0.94287282
11.356211 -8.9236031 -0.0599773 0.94386542
8.5663671 -8.4593067 -0.050030097 0.95298392
8.3513479 -8.4569435 -0.049390905 0.95357007
7.7377734 -8.4501657 -0.047612648 0.95520324
7.5428123 -8.4480171 -0.047063291 0.9557091
6.9837108 -8.4418259 -0.045530051 0.95712155
6.8052731 -8.4398632 -0.045054395 0.95755965
6.6305075 -8.4379396 -0.044594422 0.95798236
6.4591794 -8.4360256 -0.044153366 0.95839065
6.2912498 -8.4341698 -0.043725889 0.95878458
6.1264844 -8.432353 -0.043313749 0.95916492
5.6500001 -8.4270897 -0.042162932 0.96022874
5.3458591 -8.4237499 -0.04146019 0.96087801
5.1975193 -8.4221096 -0.041127775 0.96118593
4.4890428 -8.4142771 -0.039630011 0.96257073
4.0872264 -8.4098339 -0.038855895 0.96328872
3.9566796 -8.4083881 -0.038617246 0.96351081
3.8276951 -8.4069624 -0.038386308 0.96372467
3.7002733 -8.4055471 -0.038164176 0.96393043
3.5742579 -8.40417 -0.037951432 0.96412826
3.4496288 -8.4027834 -0.037745893 0.96431857
3.0834765 -8.3987398 -0.037178956 0.964845
2.8451757 -8.3961029 -0.036839675 0.96516073
2.727617 -8.394805 -0.036680907 0.96530849
2.6110742 -8.3935061 -0.036529198 0.96544963
2.3807225 -8.390976 -0.036245268 0.96571261
2.2668359 -8.3897066 -0.036114004 0.96583474
2.0414648 -8.3872166 -0.035871085 0.96606064
1.9298828 -8.3859863 -0.035759088 0.96616465
1.4898633 -8.3811226 -0.035374641 0.96652281
1.3812695 -8.3799219 -0.035293121 0.96659827
1.2731249 -8.3787403 -0.035217818 0.96666825
1.1654297 -8.3775387 -0.035149153 0.9667328
0.95123047 -8.375185 -0.035027236 0.96684563
0.84464842 -8.3739939 -0.034975927 0.96689415
0.73837888 -8.3728418 -0.034928206 0.9669373
0.63238281 -8.3716497 -0.034888078 0.96697533
0.52660155 -8.3704882 -0.034853593 0.96700805
0.42101562 -8.3693161 -0.03482357 0.96703565
0.2103125 -8.366992 -0.034781151 0.96707541
0.10505859 -8.36584 -0.034767762 0.96708751
-5.8593749e-05 -8.3646679 -0.034759749 0.9670946
-0.10513671 -8.3634958 -0.034758378 0.96709657
-0.63136715 -8.3576956 -0.034829482 0.96702945
-0.84285152 -8.355361 -0.034897421 0.96696657
-0.94890624 -8.3541698 -0.034940261 0.96692741
-1.0552539 -8.3529978 -0.034986686 0.96688294
-1.2689062 -8.3506441 -0.035099793 0.9667781
-1.376289 -8.3494625 -0.035165519 0.96671766
-1.4840624 -8.3482513 -0.035235938 0.96665192
-1.5923241 -8.3470697 -0.03531231 0.96658051
-1.7010741 -8.3458691 -0.035394743 0.96650368
-2.030586 -8.342226 -0.035679244 0.96623951
-2.1416211 -8.3409958 -0.035785291 0.96614003
-2.2533984 -8.3397751 -0.035898551 0.96603453
-2.3658788 -8.3385248 -0.036018334 0.96592319
-2.708164 -8.3347559 -0.036418457 0.96555221
-2.9408007 -8.3321676 -0.0367181 0.96527338
-3.2974412 -8.3282423 -0.037221793 0.96480489
-3.5408788 -8.3255463 -0.03759655 0.96445775
-3.6645312 -8.3241796 -0.037794683 0.96427315
-3.789453 -8.3228025 -0.038002126 0.96408111
-4.043613 -8.3199902 -0.038441505 0.96367365
-4.4364452 -8.3156443 -0.039166868 0.96300119
-4.5708203 -8.3141699 -0.039427221 0.96275973
-4.706953 -8.3126564 -0.039697304 0.96250939
-5.4180079 -8.3047943 -0.041206624 0.9611125
-5.5669532 -8.303154 -0.041541558 0.9608019
-5.7183204 -8.3014746 -0.041888695 0.96048033
-5.8723044 -8.2997952 -0.042249642 0.96014702
-6.028945 -8.2980566 -0.042623825 0.95980191
-6.1884375 -8.296279 -0.043010291 0.95944446
-6.516367 -8.2926559 -0.043826103 0.95869064
-6.8572459 -8.2888861 -0.044703864 0.95788163
-7.0328903 -8.286953 -0.045166548 0.95745516
-7.2122655 -8.2849903 -0.04564495 0.95701319
-7.5827928 -8.280879 -0.046659697 0.95608062
-7.9703903 -8.2766113 -0.047749024 0.95507824
-8.8039455 -8.2673922 -0.050186995 0.95283902
-1.042539 -0.95460933 -0.0058740615 0.99436164
-1.042539 -0.93080074 -0.0058076857 0.99442518
-1.042539 -0.90753907 -0.0057439422 0.99448633
-1.0425781 -0.88475585 -0.0056820298 0.99454534
-1.0425781 -0.86248046 -0.005622902 0.9946022
-1.0425781 -0.84063476 -0.0055653378 0.99465722
-1.0426172 -0.81923825 -0.0055100247 0.99471009
-1.0426172 -0.79828125 -0.0054565431 0.99476123
-1.0426368 -0.77770507 -0.0054050824 0.99481052
-1.0426562 -0.73765624 -0.0053075789 0.99490416
-1.0589453 -0.70994139 -0.005297699 0.99491334
-1.0882422 -0.70994139 -0.0053995131 0.99481606
-1.1187109 -0.70994139 -0.0055058668 0.99471414
-1.2178711 -0.70993161 -0.0058579636 0.99437708
-1.253828 -0.70996094 -0.005987396 0.99425304
-1.2914063 -0.70995116 -0.0061240769 0.99412251
-1.3719727 -0.70993161 -0.0064194105 0.99383992
-1.415293 -0.70995116 -0.0065797041 0.99368644
-1.6127148 -0.70994139 -0.0073224637 0.99297649
-1.6693164 -0.70994139 -0.007538185 0.99277014
-1.7293164 -0.70994139 -0.0077682114 0.99255031
-1.7724218 -0.70172852 -0.007921638 0.99240381
-22.980751 -8.1107521 -0.10127048 0.90711957
-15.0633 4.2738571 -0.10844681 0.93928814
-14.81206 4.4043946 -0.10702576 0.94005811
-23.552382 7.9812403 -0.17223296 0.90531331
-22.583134 7.9705367 -0.16586755 0.90864933
-1.7732812 0.65103513 -0.013082962 0.99247223
-1.7732812 0.70210934 -0.013209267 0.99239999
-1.7293359 0.70994139 -0.012947387 0.99255013
-1.50875 0.70995116 -0.011548576 0.99335229
-1.4607812 0.70997071 -0.011248817 0.99352419
-1.4152734 0.70995116 -0.01096611 0.99368644
-1.3719921 0.70996094 -0.010698967 0.99383968
-1.3307226 0.70995116 -0.01044609 0.993985
-1.2914063 0.70995116 -0.01020668 0.99412245
-1.253828 0.70997071 -0.0099794008 0.99425292
-1.1834375 0.70997071 -0.0095582195 0.9944948
-1.1187109 0.70996094 -0.0091766734 0.99471402
-1.0882422 0.70995116 -0.0089990618 0.99481595
-1.0589453 0.70995116 -0.0088298414 0.99491322
-1.0419335 0.77717769 -0.0090024183 0.99481392
-1.0418946 0.79773438 -0.0090882108 0.99476475
-1.041875 0.8186816 -0.0091771698 0.99471372
-1.0418359 0.86188477 -0.0093646618 0.99460596
-1.0417968 0.93012691 -0.0096726604 0.99442905
-1.0417578 0.95390624 -0.0097828675 0.99436575
-8.3198824 7.8129296 -0.07904762 0.95537239
-8.1107416 7.8106055 -0.077986792 0.95595783
-7.9071093 7.8083591 -0.076966509 0.95652151
-7.7086716 7.8061914 -0.075982854 0.95706439
-7.5152144 7.8040428 -0.075038567 0.95758754
-6.7865038 7.7959762 -0.07158573 0.95949787
-6.614531 7.7940817 -0.070801698 0.95993376
-6.1201954 7.7886329 -0.068604998 0.96115166
-5.8070898 7.7851758 -0.067268826 0.96189433
-5.5057421 7.7818456 -0.066021957 0.96258658
-5.3591795 7.7802243 -0.065432012 0.96291476
-5.0736523 7.77707 -0.064312555 0.96353757
-4.9344921 7.775527 -0.063782692 0.96383286
-4.7975779 7.7740135 -0.063269347 0.96411788
-4.3994141 7.769609 -0.061839789 0.96491462
-4.270586 7.7681832 -0.061396483 0.96516174
-4.0183201 7.7654099 -0.060557134 0.96562976
-3.7726953 7.7626953 -0.059776992 0.96606469
-3.6521873 7.7613573 -0.059409063 0.96627027
-3.5331836 7.7600389 -0.05905468 0.96646816
-3.4155469 7.7587399 -0.058712766 0.96665865
-3.2992187 7.7574606 -0.058385048 0.96684182
-2.5177538 7.7488184 -0.056429595 0.96793419
-2.4101562 7.7476268 -0.056195829 0.96806484
-2.3034375 7.7464647 -0.055972822 0.96818948
-2.0924218 7.7441211 -0.055559158 0.96842128
-1.5772265 7.7384372 -0.054697607 0.96890289
-0.87808591 7.7307224 -0.053886984 0.96935683
-0.77970701 7.7296286 -0.053806227 0.96940172
-0.5837695 7.7274508 -0.053672712 0.96947688
-0.29136717 7.7242184 -0.053535804 0.96955353
-0.19416015 7.7231445 -0.053506736 0.96956956
-0.09710937 7.7220702 -0.053486861 0.96958083
-3.9062499e-05 7.7209959 -0.053474538 0.96958733
0.19398437 7.7188473 -0.053477362 0.96958619
0.38816404 7.7167087 -0.053512838 0.96956611
0.58273435 7.71457 -0.053583257 0.96952701
0.77792966 7.7124023 -0.053685836 0.96946889
0.87582028 7.711328 -0.053751066 0.96943259
0.97398436 7.7102442 -0.053825758 0.96939141
1.0724219 7.7091503 -0.053907432 0.96934539
1.1712109 7.7080564 -0.053998679 0.96929443
1.2702734 7.7069626 -0.054097824 0.96923852
1.3698046 7.7058396 -0.05420677 0.96917766
1.4696875 7.7047653 -0.054324951 0.96911162
1.570039 7.7036424 -0.05445217 0.96904057
1.670918 7.702529 -0.054587707 0.96896434
1.7723047 7.701416 -0.054734342 0.9688828
1.8742187 7.700273 -0.054888494 0.96879613
1.9767578 7.6991601 -0.055053327 0.96870393
2.0799217 7.6980176 -0.055227738 0.96860635
2.1837499 7.6968746 -0.055411872 0.96850324
2.4996874 7.6933885 -0.056026723 0.96815997
2.6066015 7.6922069 -0.056250989 0.96803391
2.7143946 7.6910057 -0.056487158 0.96790189
2.8231249 7.6897945 -0.056734312 0.96776366
2.9328516 7.6885934 -0.056992568 0.96761918
3.0435936 7.6873531 -0.057263143 0.96746838
3.1553905 7.6861324 -0.05754444 0.96731097
3.2682812 7.6849022 -0.05783863 0.96714693
3.4977343 7.6823435 -0.058462903 0.96679837
3.6143749 7.6810641 -0.058794592 0.96661341
4.0949607 7.6757517 -0.06025482 0.96579868
4.218945 7.6743751 -0.06065464 0.96557528
4.3446093 7.6730075 -0.061070442 0.96534342
4.6013279 7.670156 -0.061949003 0.96485376
4.8657031 7.6672263 -0.062891997 0.96432763
5.000957 7.6657419 -0.06339138 0.96405017
5.2781639 7.6626754 -0.06444332 0.9634648
5.4202342 7.6611133 -0.064997368 0.9631564
5.8619919 7.65624 -0.06678459 0.96216285
6.3294139 7.6510739 -0.068773344 0.96105844
6.8262501 7.645576 -0.070987582 0.95983005
7.1759372 7.6417089 -0.072603106 0.95893466
7.5421481 7.6376657 -0.07434421 0.95797187
8.3312502 7.6289549 -0.078240201 0.95581871
8.5417576 7.6266012 -0.079309732 0.95522791
8.7581835 7.6242285 -0.080424532 0.9546138
8.9807806 7.621748 -0.081581153 0.95397556
9.2099218 7.6192088 -0.08278732 0.9533118
9.4459963 7.616611 -0.084040217 0.95262104
9.6893549 7.6139255 -0.085349537 0.95190215
1.2733593 0.94982421 -0.011002273 0.99366564
1.2733984 0.87715816 -0.010709343 0.99383384
1.2734179 0.85377926 -0.010618667 0.99388605
1.2734375 0.830791 -0.010530891 0.99393642
1.2734375 0.80817384 -0.010446205 0.99398506
1.2734765 0.76398438 -0.010285682 0.99407721
1.2914063 0.70996094 -0.010206603 0.99412245
1.3719531 0.70995116 -0.010699081 0.99383986
1.4152734 0.70994139 -0.010966263 0.99368644
1.4607812 0.70994139 -0.011248893 0.99352425
1.5087109 0.70995116 -0.011548385 0.99335241
1.5592577 0.70994139 -0.011866111 0.9931702
1.6126952 0.70995116 -0.012203979 0.99297643
1.7931249 0.70997071 -0.01335701 0.99231523
1.9914258 -0.64703125 -0.014502182 0.99165916
1.9914453 -0.67481446 -0.014563026 0.99162436
1.9914453 -0.70285153 -0.014626846 0.99158806
1.9337109 -0.70993161 -0.014267082 0.99179399
1.8610938 -0.70993161 -0.013796234 0.99206388
1.7931249 -0.70993161 -0.013357239 0.99231529
1.7292968 -0.70993161 -0.012947235 0.99255031
1.6692578 -0.70993161 -0.012563705 0.99277025
1.5592577 -0.70994139 -0.011866226 0.9931702
1.5087109 -0.70994139 -0.011548385 0.99335241
1.4607421 -0.70994139 -0.011249046 0.99352437
1.4152734 -0.70994139 -0.010966225 0.99368644
1.3719531 -0.70994139 -0.010699234 0.99383986
1.3307421 -0.70994139 -0.010446128 0.99398494
1.2913672 -0.70994139 -0.010206565 0.99412262
1.2735156 -0.72110349 -0.010136146 0.99416298
1.2734765 -0.7858789 -0.010364303 0.99403197
1.2734375 -0.83078122 -0.010530776 0.99393642
1.2733984 -0.85376954 -0.010618553 0.99388611
1.2733984 -0.87713867 -0.010709457 0.9938339
1.2733984 -0.90092772 -0.010803565 0.99377978
1.2733593 -0.92513669 -0.010901222 0.99372381
1.2733593 -0.94981444 -0.011002502 0.9936657
11.356191 -8.9236231 -0.10001297 0.94386464
8.7869329 -8.4617872 -0.084489591 0.95237482
8.5663471 -8.4593258 -0.083384968 0.9529832
7.7377734 -8.4501657 -0.079356536 0.95520258
7.5428319 -8.447998 -0.078440398 0.95570844
7.3523045 -8.4459076 -0.077555843 0.95619625
7.1659961 -8.4438572 -0.076704212 0.95666683
6.9837108 -8.4418459 -0.075882837 0.95712084
6.8052731 -8.4398632 -0.075090446 0.95755899
6.4591794 -8.4360256 -0.073588446 0.95839006
5.9647655 -8.4305859 -0.071527861 0.95953143
5.3458982 -8.4237299 -0.069100417 0.96087742
5.1975193 -8.4221096 -0.068546027 0.96118534
5.0515623 -8.4204979 -0.068011053 0.96148241
4.6266208 -8.415781 -0.066516533 0.96231282
4.4890428 -8.4142771 -0.066053391 0.96257013
4.3533006 -8.4127827 -0.065606728 0.96281838
4.0872264 -8.4098339 -0.064761616 0.96328819
3.9566796 -8.4083881 -0.06436222 0.96351027
3.5742579 -8.40417 -0.063253745 0.96412772
3.4496679 -8.4027834 -0.062912673 0.96431798
3.0834765 -8.3987398 -0.061966665 0.96484447
2.9637694 -8.3974018 -0.061677549 0.96500582
2.727617 -8.3948145 -0.061134797 0.96530789
2.6110742 -8.3935061 -0.060881842 0.96544909
2.4954295 -8.3922358 -0.060640447 0.9655838
2.0414648 -8.3872166 -0.059786491 0.96606016
1.8189453 -8.3847656 -0.059424169 0.96626228
1.7086718 -8.3835449 -0.059258573 0.96635461
1.4898828 -8.3811331 -0.058957785 0.96652228
1.3812305 -8.3799219 -0.058823392 0.9665978
1.2731249 -8.3787403 -0.058697853 0.96666771
1.1654297 -8.3775387 -0.058582991 0.96673232
1.058164 -8.3763666 -0.0584758 0.96679133
0.95123047 -8.375185 -0.058379248 0.96684515
0.84464842 -8.3739939 -0.058293149 0.96689367
0.52660155 -8.3704882 -0.058088109 0.96700758
0.42101562 -8.3693161 -0.05803936 0.96703517
0.10509765 -8.3658199 -0.057946432 0.96708709
-0.10513671 -8.3634958 -0.057930488 0.96709609
-0.84285152 -8.355361 -0.058162648 0.96696609
-1.161914 -8.3518362 -0.058402747 0.96683264
-1.2689062 -8.3506441 -0.05850105 0.96677756
-2.030586 -8.342226 -0.059466552 0.96623904
-2.1416211 -8.3409958 -0.059643857 0.96613955
-2.2533984 -8.3397751 -0.059832763 0.96603405
-2.3658788 -8.3385248 -0.060032386 0.96592271
-2.4791601 -8.3372755 -0.060243871 0.96580523
-2.708164 -8.3347559 -0.060698468 0.96555173
-3.0585938 -8.3308687 -0.061464995 0.96512347
-3.1774609 -8.3295507 -0.061745491 0.96496743
-3.6645312 -8.3241796 -0.06299293 0.96427262
-3.9157813 -8.3213959 -0.063696824 0.96388084
-4.043613 -8.3199902 -0.064069286 0.96367306
-4.1729298 -8.3185549 -0.064456634 0.96345735
-4.4364452 -8.3156443 -0.065278128 0.96300066
-4.5708203 -8.3141699 -0.065712012 0.96275914
-4.706953 -8.3126564 -0.066162378 0.9625088
-4.8449998 -8.3111324 -0.066629678 0.96224916
-4.9850779 -8.3095894 -0.067114107 0.96197981
-5.4180079 -8.3047943 -0.068677522 0.9611119
-5.8722653 -8.2997751 -0.070416681 0.96014655
-6.1884375 -8.296279 -0.07168556 0.95944387
-6.3508592 -8.2944918 -0.072354697 0.95907354
-6.8572459 -8.2888861 -0.074508287 0.95788103
-7.0328903 -8.286953 -0.075279422 0.95745456
-7.3954687 -8.282939 -0.076906472 0.95655471
-7.5827928 -8.280879 -0.077767558 0.95607996
-7.774375 -8.2787886 -0.078656651 0.95558774
-7.9704099 -8.2766113 -0.079583392 0.95507753
-8.1711521 -8.274394 -0.080541231 0.9545483
-8.3768158 -8.2721186 -0.081537895 0.95399928
-8.587656 -8.2697849 -0.082574613 0.95342964
-1.0418359 -0.88412106 -0.0094636148 0.9945491
-1.0418555 -0.84004879 -0.0092691034 0.99466085
-1.041875 -0.81867188 -0.0091770552 0.99471372
-1.0418946 -0.79771483 -0.0090882489 0.9947648
-1.041914 -0.7771582 -0.0090025328 0.99481404
-1.041914 -0.75699216 -0.0089197159 0.9948616
-1.0589453 -0.70994139 -0.0088297268 0.99491322
-1.0882422 -0.70994139 -0.0089992136 0.99481601
-1.1504296 -0.70995116 -0.009362678 0.99460703
-1.253828 -0.70996094 -0.0099793244 0.99425292
-1.2914063 -0.70995116 -0.010206413 0.99412245
-1.3307421 -0.70994139 -0.010446167 0.99398494
-1.3719727 -0.70993161 -0.010699043 0.9938398
-1.415293 -0.70995116 -0.010966225 0.99368638
-1.5087304 -0.70994139 -0.011548576 0.99335235
-1.6127343 -0.70993161 -0.012204056 0.99297631
-1.7293359 -0.70993161 -0.012947044 0.99255013
-1.7733008 -0.7020703 -0.013209381 0.99239993
-1.7732421 -0.65099609 -0.013083 0.99247241
-14.807617 4.4030762 -0.14979702 0.94007421
-1.7741406 0.70244139 -0.018502006 0.99239612
-1.6127343 0.70997071 -0.017086105 0.99297607
-1.2178906 0.70996094 -0.013669167 0.99437672
-1.0882422 0.70996094 -0.012599068 0.99481583
-1.0589453 0.70996094 -0.012361946 0.9949131
-1.0412891 0.71724606 -0.012259902 0.99495488
-1.04125 0.73668945 -0.012367515 0.99491072
-1.0412109 0.77666014 -0.012595062 0.99481738
-1.0411328 0.81812501 -0.012839126 0.9947173
-1.0411328 0.83948243 -0.012968025 0.99466437
-1.0410546 0.90622067 -0.013383064 0.99449402
-1.0409765 0.92946285 -0.013531989 0.9944331
-8.3198824 7.8129296 -0.11066929 0.95537138
-8.1107416 7.8106055 -0.10918418 0.95595688
-6.9623437 7.7979293 -0.10136486 0.95904511
-6.7864842 7.7959762 -0.10022392 0.95949697
-6.4462695 7.7922068 -0.098059654 0.96035343
-6.2815623 7.7903805 -0.09703815 0.96075916
-6.120234 7.7886133 -0.096048012 0.96115071
-5.8070898 7.7851562 -0.094177209 0.96189356
-5.6549997 7.7834668 -0.093289904 0.96224582
-5.0736718 7.7770505 -0.090038411 0.96353674
-4.6628122 7.7725196 -0.087887496 0.96439219
-4.530117 7.7710252 -0.087220192 0.96465778
-4.3994141 7.7695899 -0.086576536 0.9649139
-4.2706056 7.7681832 -0.085955963 0.96516091
-3.894707 7.7640133 -0.084225118 0.96585059
-3.7726953 7.7626953 -0.083689652 0.96606392
-3.6521873 7.7613378 -0.083174132 0.96626961
-3.2992578 7.757441 -0.081740953 0.9668411
-3.1842186 7.7561717 -0.081298217 0.96701717
-3.0703905 7.7549024 -0.080874667 0.96718639
-2.9577539 7.7536716 -0.080467299 0.96734875
-2.846211 7.7524414 -0.080076791 0.9675045
-2.6262889 7.75 -0.079344936 0.9677968
-2.0924218 7.7441211 -0.077783391 0.96842057
-1.884375 7.7418356 -0.077260092 0.9686296
-1.7814062 7.7406735 -0.077019386 0.96872592
-1.6790234 7.7395411 -0.076792181 0.96881676
-1.3752735 7.7362108 -0.076190569 0.96905732
-1.1751953 7.7340035 -0.075853191 0.96919197
-0.97675776 7.7317772 -0.075566515 0.96930653
-0.87808591 7.7307224 -0.075443305 0.96935618
-0.5837695 7.7274508 -0.075142324 0.96947622
-0.29134765 7.7242184 -0.074950747 0.96955281
-0.09710937 7.7220702 -0.074883193 0.96958011
0.19398437 7.7188473 -0.074869879 0.96958554
0.58273435 7.7145605 -0.075017124 0.96952635
0.87582028 7.711328 -0.075253367 0.96943188
1.0724219 7.7091503 -0.075471915 0.96934468
1.1712109 7.7080564 -0.075599745 0.96929371
1.3698046 7.7058396 -0.075890578 0.96917701
1.570039 7.7036424 -0.076233707 0.96903992
1.9767578 7.6991601 -0.077076413 0.96870321
2.0799217 7.6980176 -0.077320673 0.96860564
2.3935742 7.6945701 -0.078137018 0.96827942
2.4996874 7.6933885 -0.078437805 0.96815926
2.6066015 7.6922069 -0.078752443 0.96803319
2.9328125 7.6885738 -0.079791717 0.96761853
3.1553514 7.6861324 -0.080564231 0.96731025
3.3823826 7.6836133 -0.081403695 0.96697545
3.7323046 7.6797361 -0.082795523 0.96642053
4.0949607 7.6757517 -0.084357373 0.9657979
4.3446093 7.6729879 -0.085500486 0.9653427
4.6013279 7.670156 -0.086730689 0.96485299
4.7325001 7.6686912 -0.087378651 0.96459466
4.865664 7.6672068 -0.088052593 0.96432698
5.000957 7.6657419 -0.088750109 0.96404934
5.1383982 7.6641989 -0.089472771 0.96376199
5.2781248 7.6626563 -0.090221554 0.96346414
5.5648437 7.6595016 -0.091802366 0.96283603
6.0147653 7.654531 -0.094394721 0.96180683
6.1705465 7.6528025 -0.095322266 0.96143883
6.3293943 7.6510544 -0.096285135 0.96105766
6.826211 7.6455564 -0.099382974 0.95982933
6.9991016 7.6436424 -0.10049561 0.95938963
7.1759372 7.6416893 -0.10164604 0.95893377
7.5421481 7.6376462 -0.1040826 0.95797098
7.7319922 7.6355567 -0.10536899 0.95746231
8.1262884 7.6311913 -0.10809456 0.95638669
8.5417576 7.6265817 -0.11103614 0.95522696
8.7581835 7.6242285 -0.11259475 0.95461273
9.2099218 7.6192088 -0.11590324 0.95331073
9.4459963 7.616611 -0.11766121 0.95261997
9.6893549 7.6139255 -0.1194907 0.95190108
1.2724609 0.94918942 -0.015393066 0.99366987
1.2724999 0.92455077 -0.015251655 0.9937278
1.2726953 0.72068357 -0.014181862 0.99416649
1.2913867 0.70997071 -0.014289398 0.99412233
1.4152539 0.70995116 -0.015353088 0.99368632
1.5592773 0.70997071 -0.016612967 0.9931699
1.6126952 0.70996094 -0.017086029 0.99297625
1.6692969 0.70997071 -0.01758934 0.9927699
1.7293359 0.70996094 -0.018126259 0.99254996
1.8610938 0.70998043 -0.019314803 0.99206358
1.9337499 0.70996094 -0.019974517 0.99179363
1.9934961 0.6755566 -0.020409737 0.99161553
1.9934765 0.64773434 -0.020324631 0.9916504
1.9934765 -0.6476953 -0.020324478 0.9916504
1.9934961 -0.67552733 -0.020409966 0.99161559
1.8610938 -0.70993161 -0.019314803 0.9920637
1.7292968 -0.70993161 -0.018126525 0.99255013
1.5087109 -0.70993161 -0.016167983 0.99335229
1.4607421 -0.70993161 -0.015748596 0.99352425
1.4152539 -0.70993161 -0.015352974 0.99368638
1.3307226 -0.70994139 -0.014624977 0.99398488
1.2727344 -0.72063476 -0.014181823 0.99416643
1.2726953 -0.76348633 -0.014390831 0.99408078
1.2725977 -0.80761719 -0.014615325 0.99398893
1.2725977 -0.8302148 -0.014733657 0.99394029
1.2725781 -0.85318357 -0.014856453 0.99388999
1.2724999 -0.90033203 -0.015115318 0.99378389
1.2724609 -0.92451167 -0.015251579 0.99372804
11.356191 -8.9236231 -0.13998668 0.94386339
9.2464447 -8.466855 -0.12157001 0.95108521
9.0135546 -8.4642677 -0.119897 0.95174181
8.7869329 -8.4617872 -0.11828811 0.95237374
8.5663471 -8.4593258 -0.11673973 0.95298219
8.3513479 -8.456953 -0.11524917 0.95356828
8.141758 -8.454648 -0.11381508 0.95413291
7.937324 -8.4523926 -0.1124311 0.95467705
7.5428123 -8.4480171 -0.10981742 0.95570743
6.9837108 -8.4418459 -0.10623875 0.95711988
6.8052344 -8.4398823 -0.10512786 0.9575581
6.4591794 -8.4360447 -0.10302605 0.95838904
6.1264844 -8.432373 -0.10106803 0.95916331
5.6500001 -8.4271088 -0.098381653 0.96022719
5.0515232 -8.4204979 -0.095216289 0.96148157
4.9077735 -8.4189062 -0.094493404 0.96176833
4.7661719 -8.4173431 -0.093796231 0.96204501
4.4890037 -8.4142971 -0.092475429 0.9625693
4.353281 -8.4127827 -0.091850244 0.96281761
4.0871873 -8.4098434 -0.090668298 0.96328741
3.8276951 -8.4069824 -0.089570999 0.96372324
3.4496484 -8.4027834 -0.088078305 0.96431714
3.326328 -8.4014349 -0.087619357 0.96449989
2.9637694 -8.3974314 -0.086349219 0.96500492
2.8451562 -8.3961229 -0.085961565 0.96515942
2.727617 -8.3948336 -0.085589714 0.96530706
2.6110742 -8.3935251 -0.085235558 0.96544826
2.2668359 -8.3897266 -0.084268913 0.96583343
2.1537499 -8.3884954 -0.083978958 0.9659493
1.8189453 -8.3847847 -0.083195686 0.96626139
1.7086718 -8.383564 -0.082963906 0.96635377
1.5990039 -8.3823433 -0.082745284 0.9664405
1.2731249 -8.3787403 -0.082177773 0.96666694
0.31558594 -8.3681641 -0.081201516 0.96705681
0.21027343 -8.3670111 -0.081156768 0.9670741
0.10509765 -8.36584 -0.081126936 0.96708626
-5.8593749e-05 -8.364687 -0.081108853 0.96709329
-0.42060545 -8.3600197 -0.081166841 0.9670704
-0.5259375 -8.3588667 -0.081212878 0.96705186
-0.84285152 -8.355381 -0.081429787 0.96696526
-1.161914 -8.3518553 -0.081764489 0.9668318
-1.2689453 -8.3506641 -0.081903152 0.96677673
-1.4841015 -8.3482714 -0.082218394 0.96665055
-1.7010741 -8.3458881 -0.082590446 0.96650237
-1.8103125 -8.3446875 -0.082796894 0.96641999
-1.9201562 -8.3434668 -0.083018571 0.96633196
-2.030586 -8.3422461 -0.083253555 0.9662382
-2.1416602 -8.3410158 -0.083503343 0.96613866
-2.2534375 -8.3397751 -0.083767772 0.96603322
-2.3658984 -8.3385448 -0.08404728 0.96592182
-2.4791601 -8.3372946 -0.084342003 0.96580434
-2.7081835 -8.3347559 -0.084977299 0.9655509
-2.9408007 -8.3321877 -0.085677944 0.96527195
-3.2974412 -8.3282423 -0.086855426 0.96480352
-3.6645312 -8.3241987 -0.088190995 0.96427172
-4.1729689 -8.318574 -0.090241775 0.96345639
-4.303906 -8.3171291 -0.09080524 0.96323228
-4.5708008 -8.3141699 -0.091999091 0.96275836
-4.8450389 -8.3111525 -0.093283728 0.96224815
-5.1271873 -8.3080273 -0.094665371 0.9616999
-5.2714844 -8.3064356 -0.095394664 0.96141064
-5.4180274 -8.3048143 -0.096149862 0.96111095
-5.5669727 -8.303174 -0.096933402 0.96080035
-5.7183399 -8.3015041 -0.097745471 0.96047866
-5.8722849 -8.2997952 -0.098585926 0.96014553
-6.1884375 -8.296299 -0.1003619 0.95944285
-6.3508592 -8.2945118 -0.10129608 0.95907259
-6.6851559 -8.2908297 -0.10327248 0.95829153
-6.8572459 -8.2889061 -0.10431389 0.95788002
-7.0329294 -8.286972 -0.10539199 0.95745343
-7.5827928 -8.2808981 -0.10887398 0.95607889
-8.5876951 -8.269805 -0.11560348 0.95342839
-1.0409765 -0.95317382 -0.01368618 0.99436986
-1.0410156 -0.92943358 -0.013532028 0.9944331
-1.0411328 -0.83944333 -0.012967987 0.99466443
-1.0411719 -0.79713863 -0.012714881 0.99476832
-1.0411719 -0.7766211 -0.012595062 0.99481755
-1.0412695 -0.71721679 -0.012259902 0.99495506
-1.0589453 -0.70994139 -0.012361831 0.9949131
-1.0882422 -0.70993161 -0.012599068 0.99481589
-1.1187304 -0.70993161 -0.012847557 0.99471384
-1.1504296 -0.70994139 -0.013108024 0.99460691
-1.1834375 -0.70993161 -0.013381767 0.99449474
-1.2178711 -0.70992184 -0.013669167 0.9943769
-1.253828 -0.70995116 -0.013971329 0.9942528
-1.3307421 -0.70993161 -0.014624862 0.99398482
-1.3719921 -0.70993161 -0.014978828 0.99383962
-1.415293 -0.70994139 -0.015352897 0.9936862
-1.50875 -0.70993161 -0.016168023 0.99335217
-1.6127343 -0.70993161 -0.017085876 0.99297613
-1.6693358 -0.70994139 -0.017589301 0.99276984
-1.7293359 -0.70993161 -0.018126411 0.99255002
-1.774121 -0.70240235 -0.018502196 0.9923963
-1.7741406 -0.6513086 -0.018325157 0.99246848
-14.803164 4.4017773 -0.19254129 0.94008988
-23.552353 7.9812598 -0.31003571 0.90530854
-1.7749609 0.65166014 -0.023572769 0.99246472
-1.775 0.70278317 -0.023800468 0.99239224
-1.7293359 0.70994139 -0.023305893 0.99254978
-1.6127343 0.70997071 -0.021968001 0.99297589
-1.5592968 0.70996094 -0.021360129 0.99316967
-1.50875 0.70996094 -0.020788001 0.99335188
-1.2178906 0.70996094 -0.017574653 0.99437654
-1.1834375 0.70997071 -0.017205238 0.9944945
-1.0589453 0.70996094 -0.015894126 0.99491292
-1.0405859 0.71675777 -0.015752524 0.99495816
-1.0405469 0.73619139 -0.015891075 0.994914
-1.0405273 0.75598633 -0.016034316 0.99486816
-1.0404882 0.77611327 -0.01618286 0.99482077
-1.0404102 0.83887696 -0.016661605 0.99466795
-1.040332 0.88288087 -0.01701065 0.99455661
-1.0402734 0.90557617 -0.017194824 0.9944979
-1.0401953 0.95249021 -0.017583771 0.9943738
-8.3198824 7.8129296 -0.14229137 0.95537001
-7.9070702 7.8083591 -0.13854313 0.95651931
-7.1422849 7.799912 -0.1318533 0.95857537
-6.9623437 7.7979293 -0.13032974 0.95904386
-6.614531 7.7940817 -0.12744586 0.95993161
-6.1201954 7.7886133 -0.12349392 0.96114963
-5.5057812 7.781826 -0.11884411 0.96258456
-5.3591795 7.7802048 -0.11778087 0.96291292
-5.2151952 7.7786131 -0.11675701 0.96322978
-4.9344921 7.7755075 -0.11481147 0.96383101
-4.6628122 7.7725196 -0.11300121 0.96439111
-4.530117 7.7710252 -0.11214226 0.96465671
-4.3994141 7.7695899 -0.11131454 0.96491283
-4.2706056 7.7681832 -0.11051765 0.96515989
-4.0183201 7.7653904 -0.1090068 0.96562803
-3.6521873 7.7613378 -0.10693981 0.9662686
-3.4155858 7.7587204 -0.10568729 0.96665686
-3.2992578 7.757441 -0.10509709 0.96684009
-3.0703905 7.7549024 -0.10398456 0.96718544
-2.846211 7.7524414 -0.10295872 0.96750355
-2.735703 7.7512207 -0.10247852 0.96765286
-2.62625 7.7500196 -0.10201778 0.96779579
-2.5177538 7.7488184 -0.10157631 0.96793252
-2.4101562 7.7476268 -0.1011565 0.96806318
-2.1975586 7.7452731 -0.10037269 0.9683066
-2.0924218 7.7441211 -0.10000885 0.96841961
-1.9880859 7.7429686 -0.099663466 0.96852696
-1.7814062 7.7406735 -0.099027477 0.96872497
-1.6790234 7.7395215 -0.098734394 0.96881592
-1.1751953 7.733984 -0.097528115 0.96919107
-1.0758008 7.7328711 -0.097335435 0.96925086
-0.97679687 7.7317772 -0.097158775 0.96930557
-0.87810546 7.7307029 -0.096999928 0.96935529
-0.77972656 7.729609 -0.09685497 0.96940017
-0.68164062 7.7285156 -0.096726723 0.96944022
-0.38867188 7.7252927 -0.096434213 0.96953118
-0.29134765 7.7242184 -0.096366957 0.96955192
-0.19417968 7.7231445 -0.096315838 0.96956795
0.19398437 7.7188277 -0.096262626 0.9695847
0.29101562 7.717783 -0.096287571 0.9695769
0.38816404 7.7167087 -0.09632694 0.9695645
0.48535156 7.7156153 -0.096381411 0.96954745
0.68019527 7.7134762 -0.096538313 0.96949881
0.77789062 7.7124023 -0.096638866 0.96946728
0.97394532 7.7102246 -0.096888423 0.96938986
1.0723828 7.7091308 -0.097035937 0.96934384
1.2702734 7.706943 -0.097380027 0.96923697
1.3698046 7.7058396 -0.097577095 0.96917605
1.4696875 7.7047458 -0.09778858 0.96911007
1.570039 7.7036228 -0.098016508 0.96903902
1.670918 7.7025094 -0.098261833 0.96896273
1.7723047 7.7013965 -0.098523974 0.96888125
1.9767187 7.6991405 -0.099099733 0.96870238
2.1837304 7.6968746 -0.099744529 0.96850163
2.2882812 7.6957226 -0.10009518 0.96839291
2.7143946 7.6909862 -0.10168117 0.96790022
2.8231249 7.689775 -0.10212612 0.96776205
2.9328125 7.6885738 -0.10259213 0.96761757
3.0435545 7.6873531 -0.10307872 0.96746671
3.2682812 7.6848826 -0.1041135 0.96714526
3.4976952 7.6823435 -0.10523701 0.9667967
3.6143749 7.6810641 -0.10583389 0.96661162
3.7323046 7.6797361 -0.10645317 0.96641952
3.8516991 7.6784177 -0.10709777 0.96621978
4.0949607 7.6757517 -0.10846119 0.96579689
4.3446093 7.6729879 -0.10993103 0.96534163
4.4720507 7.6715722 -0.11070747 0.96510124
4.6013279 7.670156 -0.1115123 0.96485192
4.865664 7.6672068 -0.11321235 0.9643259
5.1383982 7.6641989 -0.11503837 0.96376085
5.71207 7.6578612 -0.11910599 0.96250385
5.8619919 7.6562204 -0.12021572 0.96216089
6.4915428 7.6492672 -0.12507801 0.96066147
6.9991016 7.6436424 -0.12921067 0.95938843
7.1759372 7.6416893 -0.13069145 0.95893258
7.5421481 7.6376462 -0.13382255 0.95796973
7.926621 7.6334081 -0.13719718 0.95693326
8.5417576 7.6266012 -0.14276299 0.95522553
8.7581835 7.6242285 -0.14476822 0.95461142
8.9807806 7.621748 -0.14685169 0.95397311
9.2099218 7.6192088 -0.1490221 0.9533093
9.4459963 7.616611 -0.1512793 0.95261854
9.6893549 7.6139255 -0.15363449 0.95189965
1.2716992 0.87598634 -0.019252053 0.99384177
1.2717187 0.85267574 -0.019089011 0.99389374
1.2717578 0.8297168 -0.018931426 0.99394399
1.2718359 0.76301754 -0.018491134 0.99408448
1.271875 0.74145508 -0.018354682 0.99412799
1.2913867 0.70997071 -0.018372649 0.99412215
1.3307031 0.70996094 -0.018803902 0.9939847
1.4607812 0.70995116 -0.020248756 0.9935239
1.6692969 0.70997071 -0.022615585 0.99276966
1.7931249 0.70997071 -0.024043808 0.99231482
1.8610938 0.70998043 -0.024833756 0.99206334
1.9956249 0.70435548 -0.026384048 0.99156994
1.9956055 0.67626953 -0.026269149 0.99160647
1.9955468 -0.64837891 -0.026159324 0.99164152
1.9956249 -0.70432615 -0.026384391 0.99157
1.9337109 -0.70993161 -0.025681725 0.99179357
1.7931249 -0.70993161 -0.024043884 0.99231488
1.7292968 -0.70993161 -0.023306275 0.9925499
1.6692578 -0.70993161 -0.022615585 0.9927699
1.6126952 -0.70992184 -0.021968154 0.99297607
1.5087109 -0.70993161 -0.02078804 0.99335212
1.4607421 -0.70995116 -0.020248756 0.99352401
1.4152539 -0.70993161 -0.019740105 0.9936862
1.3307226 -0.70994139 -0.018803902 0.99398464
1.2717968 -0.78487301 -0.018632468 0.99403942
1.2717968 -0.80708003 -0.018779183 0.99399257
1.2717187 -0.87596679 -0.019252013 0.99384171
1.2716601 -0.89971679 -0.019421006 0.99378788
1.2716405 -0.92387694 -0.019596405 0.99373198
1.2716016 -0.94848633 -0.019778023 0.9936741
11.356191 -8.9236135 -0.18009172 0.94386172
9.7325001 -8.4722166 -0.16087097 0.94969159
9.4859571 -8.469492 -0.15854496 0.95040131
9.0135546 -8.4642677 -0.15415618 0.95174038
7.937324 -8.4523926 -0.14455837 0.95467567
7.7377343 -8.4501858 -0.14284694 0.95520025
7.1659961 -8.4438667 -0.13807304 0.9566645
6.2912498 -8.4341993 -0.13118294 0.95878172
5.4966602 -8.4254198 -0.12541935 0.96055639
5.1975193 -8.4221096 -0.12338604 0.96118325
4.9077735 -8.4189062 -0.12149478 0.9617672
4.7661719 -8.4173431 -0.12059715 0.96204388
4.6266208 -8.415801 -0.11973255 0.96231073
4.4890037 -8.4142971 -0.11889881 0.96256816
4.353281 -8.4127827 -0.11809616 0.96281648
4.2193942 -8.4112988 -0.11732166 0.96305573
4.0872068 -8.4098339 -0.11657532 0.96328628
3.95666 -8.4084082 -0.11585655 0.96350831
3.4496484 -8.4027834 -0.11324413 0.96431607
3.2042968 -8.4000874 -0.11208747 0.96467429
3.0834765 -8.3987398 -0.11154411 0.96484262
2.9637694 -8.3974218 -0.11102234 0.96500391
2.8451562 -8.3961229 -0.11052387 0.96515834
2.4954295 -8.3922558 -0.10915683 0.96558189
2.3807225 -8.390976 -0.10874275 0.96571028
2.2668359 -8.3897266 -0.10834865 0.96583235
2.0414648 -8.3872366 -0.10761974 0.96605825
1.9298828 -8.3860054 -0.10728302 0.96616226
1.7086718 -8.383564 -0.10666957 0.96635276
1.4898633 -8.3811426 -0.10612823 0.96652049
1.2731249 -8.3787403 -0.10565986 0.96666598
1.058125 -8.3763666 -0.1052618 0.9667896
0.95123047 -8.375205 -0.10508709 0.96684331
0.84464842 -8.3740139 -0.10493153 0.96689183
0.73837888 -8.3728418 -0.10479195 0.96693504
0.63234371 -8.3716698 -0.10466927 0.96697301
0.52660155 -8.3705072 -0.10456432 0.96700573
0.31558594 -8.3681641 -0.10440338 0.9670558
0.21027343 -8.3670111 -0.10434727 0.96707308
0.10509765 -8.36584 -0.10430675 0.9670853
-5.8593749e-05 -8.364687 -0.10428562 0.96709228
-0.10513671 -8.3635159 -0.10427902 0.96709424
-0.21025389 -8.3623438 -0.1042889 0.96709114
-0.31541014 -8.3611908 -0.10431526 0.9670828
-0.63140625 -8.3576956 -0.10449523 0.96702719
-0.73699218 -8.3565521 -0.1045879 0.96699828
-0.94892573 -8.3541889 -0.10482433 0.96692508
-1.376289 -8.3494625 -0.1055003 0.9667154
-1.4841015 -8.3482714 -0.10571129 0.96664953
-1.5923241 -8.3470898 -0.10594192 0.96657819
-1.7010547 -8.3458881 -0.10619045 0.96650136
-1.8103125 -8.3446875 -0.10645603 0.96641898
-1.9201562 -8.3434668 -0.1067398 0.96633095
-2.3658984 -8.3385448 -0.10806248 0.96592081
-2.4791796 -8.3372946 -0.10844139 0.96580333
-2.5932422 -8.3360252 -0.10884037 0.96567976
-2.7081835 -8.3347559 -0.10925961 0.96554989
-2.8240235 -8.3334761 -0.10969952 0.96541363
-3.2974412 -8.3282423 -0.1116719 0.9648025
-3.4185741 -8.3269138 -0.11222149 0.96463239
-3.6645312 -8.3241987 -0.11339027 0.96427065
-3.7894726 -8.3228121 -0.11401161 0.96407861
-3.9158008 -8.3213959 -0.11465736 0.96387887
-4.1729298 -8.318574 -0.11602695 0.96345538
-4.5708203 -8.314189 -0.11828666 0.96275711
-4.706953 -8.3126564 -0.11909714 0.96250683
-5.4180274 -8.3048143 -0.12362453 0.96110976
-5.5669727 -8.303174 -0.12463077 0.96079916
-5.7183399 -8.3014936 -0.12567356 0.96047753
-5.8722849 -8.2997952 -0.12675552 0.96014434
-6.8572459 -8.2889061 -0.13411964 0.95787871
-7.0329294 -8.286972 -0.13550632 0.95745212
-7.2122459 -8.2849903 -0.13694519 0.95701033
-7.3954687 -8.282959 -0.13843727 0.95655239
-7.5827928 -8.2808981 -0.13998459 0.95607758
-7.9704099 -8.2766113 -0.14325489 0.95507514
-8.171113 -8.274394 -0.14498134 0.95454597
-1.0402343 -0.92874998 -0.017385636 0.99443704
-1.0404102 -0.83886719 -0.016661681 0.99466795
-1.0404687 -0.77609372 -0.016182976 0.99482089
-1.0405469 -0.73618162 -0.01589096 0.99491405
-1.0405859 -0.71672851 -0.015752563 0.99495822
-1.0589257 -0.70994139 -0.015894089 0.99491304
-1.0882422 -0.70993161 -0.016198996 0.99481571
-1.1504296 -0.70994139 -0.016853675 0.99460679
-1.1834375 -0.70993161 -0.017205315 0.99449462
-1.2178711 -0.70992184 -0.017574653 0.99437672
-1.253828 -0.70995116 -0.017963562 0.99425262
-1.2914257 -0.70994139 -0.018372688 0.99412209
-1.50875 -0.70993161 -0.020788001 0.99335194
-1.7293359 -0.70993161 -0.023306083 0.99254978
-14.798739 4.4004588 -0.2352629 0.94010502
-14.787685 4.6001759 -0.23598947 0.93992621
-1.7758203 0.67742187 -0.028962249 0.99242538
-1.7293359 0.70994139 -0.028485717 0.99254948
-1.6127343 0.70997071 -0.026850509 0.99297559
-1.5592968 0.70996094 -0.026107443 0.99316937
-1.4607812 0.70998043 -0.024749259 0.9935236
-1.3719921 0.70996094 -0.023539467 0.99383914
-1.3307226 0.70996094 -0.022983475 0.9939844
-1.2914063 0.70996094 -0.022456206 0.99412191
-1.1834375 0.70997071 -0.021029167 0.99449432
-1.1503906 0.70996094 -0.020599326 0.99460667
-1.1187109 0.70997071 -0.020189933 0.99471349
-1.0882422 0.70996094 -0.019799385 0.99481547
-1.0398437 0.73570311 -0.019409638 0.99491721
-1.0397071 0.81698239 -0.020148583 0.99472421
-1.0396875 0.83829099 -0.020350609 0.99467146
-1.0396093 0.86003906 -0.02055954 0.99461693
-1.0395703 0.88222653 -0.020776214 0.99456036
-1.0395117 0.90490234 -0.021001244 0.99450171
-1.0394726 0.9280957 -0.021234054 0.99444085
-1.0394336 0.95179683 -0.021475868 0.99437773
-8.3198824 7.8129392 -0.17391519 0.95536834
-8.1107616 7.8106055 -0.17158291 0.95595384
-7.9070897 7.8083692 -0.16933593 0.95651764
-7.7086716 7.8061814 -0.16717467 0.95706058
-6.7864842 7.7959862 -0.1575008 0.95949423
-6.614531 7.7940917 -0.15577167 0.95993006
-6.4462891 7.7922068 -0.15410328 0.96035069
-6.2815623 7.7903905 -0.15249401 0.96075648
-5.9621091 7.7868652 -0.14944378 0.96152616
-5.8070898 7.7851562 -0.14799903 0.961891
-5.2151952 7.7786131 -0.14270489 0.9632284
-4.9344921 7.7755075 -0.14032932 0.96382964
-4.530117 7.7710252 -0.13706699 0.9646554
-3.894707 7.7640133 -0.13235988 0.96584827
-3.7726953 7.7626953 -0.13151829 0.96606159
-3.533164 7.7600293 -0.1299274 0.96646518
-3.1842186 7.7561717 -0.1277615 0.96701497
-2.846211 7.7524414 -0.12584205 0.9675023
-2.735703 7.7512207 -0.12525405 0.96765167
-2.62625 7.7500196 -0.12469108 0.9677946
-2.5177538 7.7488184 -0.12415268 0.96793133
-2.1975586 7.7452731 -0.12268043 0.96830541
-2.0924218 7.7441211 -0.12223586 0.96841842
-1.8844141 7.741816 -0.1214146 0.96862751
-1.7814062 7.7406735 -0.12103614 0.96872383
-1.6790234 7.7395215 -0.12067806 0.96881473
-1.3752735 7.7361913 -0.11973232 0.96905529
-1.1751953 7.733984 -0.11920353 0.96918994
-0.68164062 7.7285156 -0.11822513 0.96943903
-0.5837695 7.7274313 -0.11808738 0.9694742
-0.4861328 7.7263575 -0.11796669 0.96950454
-0.38867188 7.7252927 -0.11786667 0.96952999
-0.19417968 7.7231445 -0.11772297 0.96956676
-0.09710937 7.7220507 -0.11767795 0.96957815
0.096953124 7.719902 -0.11764595 0.96958643
0.29101562 7.717783 -0.11768737 0.96957576
0.97394532 7.7102246 -0.11842193 0.96938872
1.1711719 7.7080369 -0.11880364 0.96929175
1.2702734 7.706943 -0.11902363 0.96923584
1.4696875 7.7047458 -0.11952297 0.96910888
1.570039 7.7036228 -0.11980244 0.96903783
1.670918 7.7025094 -0.12010051 0.9689616
1.7723047 7.701406 -0.12042102 0.96888006
1.9767187 7.6991405 -0.1211256 0.96870118
2.0799024 7.697998 -0.12150932 0.96860361
2.1837304 7.6968746 -0.12191398 0.96850044
