# .PCD v0.7 - Point Cloud Data file format
VERSION 0.7
FIELDS x y z intensity
SIZE 4 4 4 4
TYPE F F F F
COUNT 1 1 1 1
WIDTH 1079
HEIGHT 1
VIEWPOINT 0 0 0 1 0 0 0
POINTS 1079
DATA ascii
1.2646484 0.73721677 -0.054772224 0.99415767
1.2647265 0.71613282 -0.054381676 0.99419922
1.2914063 0.70994139 -0.055141065 0.99411851
1.3307617 0.70995116 -0.056435585 0.99398077
1.5087109 0.70995116 -0.062390175 0.99334794
1.6127343 0.70996094 -0.06593208 0.99297154
1.7293359 0.70994139 -0.069946863 0.99254513
1.793164 0.70994139 -0.072161555 0.99230999
1.9337499 0.70995116 -0.077078246 0.99178833
2.0146289 0.71106446 -0.079939574 0.99148476
2.0144141 0.65451169 -0.079252012 0.9915576
12.754453 3.9676757 -0.49979565 0.94793749
12.977558 3.1587889 -0.49976274 0.94794083
13.016054 2.9954197 -0.49975711 0.94794148
13.052578 2.8316112 -0.49975178 0.94794184
13.177832 2.1721387 -0.49973351 0.94794387
13.250078 1.6738671 -0.49972311 0.94794488
13.27002 1.5072266 -0.49972025 0.94794506
13.303574 1.1732812 -0.49971557 0.94794554
13.35078 0.3355957 -0.49970931 0.94794637
13.353945 0.1678125 -0.49970901 0.94794637
13.355039 -9.7656248e-06 -0.49970901 0.94794619
13.35084 -0.33560547 -0.49970999 0.94794613
13.317226 -1.0060059 -0.49971581 0.94794571
13.303613 -1.1732812 -0.49971804 0.94794536
13.270117 -1.5072362 -0.49972346 0.94794464
13.250156 -1.6738867 -0.49972665 0.94794458
13.204102 -2.006377 -0.49973398 0.94794381
13.177968 -2.1721582 -0.4997381 0.94794333
13.119452 -2.5026855 -0.49974731 0.94794244
13.052675 -2.8316307 -0.49975777 0.94794142
12.894629 -3.4840722 -0.49978235 0.94793862
12.754628 -3.9677441 -0.49980408 0.94793677
2.0144141 -0.65450191 -0.079251818 0.9915576
2.0145116 -0.68265623 -0.079587512 0.99152207
2.0146484 -0.71104491 -0.079939306 0.9914847
1.8611327 -0.70995116 -0.074532621 0.99205834
1.7293164 -0.70994139 -0.069946818 0.99254519
1.6692773 -0.70993161 -0.06787464 0.99276531
1.6127343 -0.70995116 -0.065931588 0.99297154
1.5592968 -0.70996094 -0.064106822 0.99316543
1.5087304 -0.70994139 -0.062389791 0.99334788
1.4608008 -0.70995116 -0.060771901 0.99351978
1.4152734 -0.70995116 -0.059244689 0.99368215
1.3719921 -0.70994139 -0.057801321 0.99383557
1.3307421 -0.70994139 -0.056435201 0.99398088
1.2914063 -0.70994139 -0.055140723 0.99411851
1.2647265 -0.71611327 -0.054381676 0.99419928
1.2646289 -0.73719722 -0.054772183 0.99415779
1.2644141 -0.80240232 -0.056032486 0.99402362
1.2641991 -0.84757811 -0.056950644 0.99392611
1.2641015 -0.87073243 -0.05743473 0.99387467
1.2640234 -0.8943066 -0.057936057 0.99382126
1.2637891 -0.94269532 -0.058993947 0.99370885
8.0981636 -6.8725781 -0.39742172 0.95837605
7.8341794 -7.1736717 -0.39746195 0.95837182
7.7436914 -7.2718163 -0.39747578 0.95837039
7.6519527 -7.3687692 -0.39748976 0.95836908
7.4648829 -7.5593162 -0.39751822 0.9583661
7.3695703 -7.6527829 -0.39753273 0.95836467
7.2731247 -7.7450876 -0.39754745 0.958363
6.9768162 -8.0146284 -0.39759257 0.95835841
6.7737107 -8.1880369 -0.39762348 0.95835537
6.6705856 -8.2728615 -0.39763916 0.95835358
6.5663476 -8.356328 -0.39765501 0.95835215
6.4610934 -8.4385443 -0.39767104 0.95835036
6.2980466 -8.4433203 -0.39413711 0.95871294
6.1331053 -8.441494 -0.3904244 0.95909393
5.8122654 -8.4379396 -0.38338077 0.95981681
4.7713671 -8.4264259 -0.36233273 0.9619804
3.8318357 -8.4160643 -0.34601295 0.96366149
3.7042968 -8.4146481 -0.34401444 0.96386755
3.578125 -8.4132423 -0.34209177 0.96406585
3.4533594 -8.4118652 -0.34024391 0.96425641
2.9669921 -8.4064941 -0.33356705 0.96494532
2.3832812 -8.4000587 -0.32671455 0.96565282
2.2693164 -8.3987789 -0.32553101 0.96577519
2.0436914 -8.3962793 -0.32334191 0.96600151
1.8209375 -8.3938284 -0.32138199 0.96620393
1.7105078 -8.3926077 -0.32048661 0.96629649
1.6007421 -8.391387 -0.31964836 0.96638334
1.4915038 -8.3901854 -0.31886092 0.96646446
1.3827734 -8.3889942 -0.31813055 0.96654004
1.1667187 -8.386611 -0.31682834 0.96667475
1.0592968 -8.3854198 -0.31625536 0.96673399
0.95228511 -8.3842182 -0.3157343 0.96678793
0.84558594 -8.3830366 -0.31526566 0.96683651
0.73921871 -8.3818655 -0.31484616 0.96687973
0.63306642 -8.380703 -0.31447831 0.96691775
-3.9062499e-05 -8.3737106 -0.31332377 0.96703726
-0.10525391 -8.3725386 -0.31330484 0.96703923
-0.21046874 -8.3713961 -0.31333649 0.96703595
-0.31572264 -8.370224 -0.31341559 0.96702766
-0.42107421 -8.3690815 -0.31354535 0.96701419
-0.63205075 -8.3667288 -0.31395397 0.96697199
-0.73783201 -8.3655663 -0.31423408 0.96694309
-1.485664 -8.3572845 -0.3176116 0.96659374
-1.5940233 -8.3561029 -0.31830195 0.96652228
-1.7028711 -8.3548927 -0.31904575 0.96644533
-1.9221874 -8.3524904 -0.3206982 0.96627456
-2.1439452 -8.350029 -0.3225714 0.96608096
-2.4818358 -8.3462887 -0.32581058 0.96574616
-2.5960155 -8.3450384 -0.32701033 0.96562231
-2.8270311 -8.3424606 -0.32959121 0.96535587
-3.0618749 -8.3398733 -0.33242336 0.96506333
-3.1808984 -8.3385744 -0.33393785 0.96490687
-3.4222264 -8.3358889 -0.33717036 0.96457338
-4.3085351 -8.3261032 -0.35078171 0.96316981
-4.5757227 -8.323144 -0.35539109 0.96269506
-4.7120314 -8.3216505 -0.35782677 0.96244419
-4.9904685 -8.3185644 -0.36297363 0.9619143
-6.1950974 -8.3052731 -0.38769308 0.95937401
-6.3576951 -8.3034668 -0.39130729 0.95900315
-6.5233984 -8.30165 -0.39505258 0.95861888
-6.9118943 -8.1444721 -0.39969361 0.95814306
-7.0139451 -8.0572748 -0.39970896 0.95814151
-7.3134766 -7.7880468 -0.39975399 0.95813698
-7.4110155 -7.6958203 -0.39976862 0.95813549
-7.6966405 -7.4118066 -0.39981154 0.95813113
-1.0332617 -0.94615233 -0.052422255 0.99440771
-1.033496 -0.89968747 -0.051270369 0.9945302
-1.0336132 -0.87719727 -0.05072483 0.99458826
-1.033711 -0.85515624 -0.050198402 0.99464428
-1.0338281 -0.83359373 -0.049690664 0.99469823
-1.0339062 -0.81244141 -0.049200706 0.99475044
-1.0341015 -0.77135742 -0.048271559 0.99484932
-1.0342187 -0.7513867 -0.047830962 0.99489605
-1.0342578 -0.73176754 -0.047405854 0.99494147
-1.034336 -0.71249998 -0.046995696 0.99498516
-1.0882422 -0.70995116 -0.048617437 0.99481249
-1.217832 -0.70994139 -0.052746467 0.99437332
-1.2537891 -0.70993161 -0.053912885 0.99424922
-1.2913672 -0.70995116 -0.055140801 0.99411863
-1.3307031 -0.70993161 -0.056435432 0.993981
-1.4607421 -0.70995116 -0.060771827 0.99352002
-1.5087109 -0.70995116 -0.062389981 0.99334794
-1.5592577 -0.70994139 -0.064106941 0.99316555
-1.6127343 -0.70993161 -0.065931812 0.9929716
-1.7293359 -0.70995116 -0.069946706 0.99254513
-1.7825781 -0.6544531 -0.071052819 0.99242783
-11.946796 -4.2165036 -0.47404158 0.9505527
-12.995625 -3.5113671 -0.50369877 0.94754177
-13.119258 -3.0191698 -0.50371695 0.94753975
-13.15625 -2.8540916 -0.50372237 0.94753939
-13.191211 -2.6885936 -0.5037275 0.94753885
-13.224101 -2.5226367 -0.50373226 0.94753832
-13.254844 -2.3562791 -0.50373673 0.94753796
-13.310098 -2.0224805 -0.50374472 0.94753706
-13.377129 -1.5194043 -0.50375432 0.94753611
-13.411211 -1.1827637 -0.50375915 0.94753563
-13.425058 -1.0141406 -0.50376105 0.94753546
-13.436796 -0.84536129 -0.50376266 0.94753528
-13.453867 -0.50743163 -0.50376487 0.94753498
-12.530469 -9.7656248e-06 -0.50362462 0.95107502
-12.526524 0.31488281 -0.50362372 0.95107496
-12.521582 0.47227538 -0.50362283 0.95107496
-12.514648 0.62958986 -0.50362158 0.95107502
-12.505644 0.78678709 -0.50362009 0.95107538
-12.494726 0.94385737 -0.50361824 0.95107555
-12.481835 1.1008008 -0.50361615 0.95107573
-12.466972 1.2575684 -0.50361371 0.95107591
-12.450078 1.4141113 -0.50361097 0.95107633
-12.431328 1.5704395 -0.50360799 0.95107627
-12.387734 1.8823144 -0.50360107 0.9510771
-12.363008 2.0378125 -0.50359714 0.95107746
-12.336288 2.1929882 -0.50359291 0.95107794
-12.24457 2.6563182 -0.50357854 0.95107913
-12.173672 2.963125 -0.50356752 0.9510802
-12.05293 3.4197361 -0.50354874 0.95108181
-11.962812 3.7214355 -0.50353485 0.9510833
-11.781133 3.8279197 -0.49787405 0.9516198
-11.276367 3.8212109 -0.4785322 0.95345473
-1.783496 0.68034178 -0.076720692 0.99238753
-1.7835547 0.70618165 -0.077099033 0.99235016
-1.6692969 0.70994139 -0.072908096 0.99276447
-1.5592968 0.70996094 -0.068860739 0.99316466
-1.4607812 0.70996094 -0.065278433 0.99351919
-1.4152539 0.70996094 -0.063638188 0.99368155
-1.3719727 0.70995116 -0.062087476 0.99383497
-1.3307031 0.70996094 -0.060620308 0.99398035
-1.217832 0.70995116 -0.056657713 0.99437267
-1.1833789 0.70996094 -0.055466346 0.99449074
-1.1503906 0.70996094 -0.054332655 0.99460292
-1.1186913 0.70997071 -0.053252563 0.99470991
-1.0589257 0.70994139 -0.051239852 0.99490935
-1.0336523 0.71200192 -0.05044689 0.99498796
-1.033496 0.75085938 -0.051343039 0.99489909
-1.0333594 0.77083004 -0.051815644 0.99485236
-1.0332812 0.79116207 -0.052305106 0.99480379
-1.033164 0.81187499 -0.052812345 0.9947536
-1.0329688 0.85458004 -0.053882673 0.99464744
-1.0327344 0.89903319 -0.055032041 0.99453366
-1.0326172 0.92197263 -0.055638619 0.99447358
-7.2470117 6.8054004 -0.39956728 0.96098357
-7.1607227 6.8957224 -0.39955413 0.96098471
-7.0732813 6.984951 -0.39954078 0.96098584
-6.9847069 7.0730076 -0.39952731 0.96098727
-6.8042965 7.24582 -0.39949983 0.96098983
-6.7124219 7.3304882 -0.39948586 0.96099132
-6.6195703 7.4139843 -0.39947173 0.96099263
-6.5256443 7.4963279 -0.39945742 0.96099395
-6.2377734 7.7361035 -0.39941365 0.96099818
-6.1130466 7.7794824 -0.39765397 0.9611665
-5.9551172 7.7777634 -0.39370972 0.96154422
-5.4992967 7.7727146 -0.38268238 0.96260089
-5.2090626 7.7695017 -0.37595806 0.96324575
-5.0677147 7.7679391 -0.3727721 0.96355152
-4.9287109 7.7664161 -0.36969748 0.96384668
-4.7919531 7.7648926 -0.36672941 0.96413165
-4.3942575 7.7605176 -0.35843888 0.96492797
-4.2655859 7.7590818 -0.35586792 0.96517503
-4.1387501 7.7576952 -0.35339156 0.96541321
-4.0136132 7.7563086 -0.35100394 0.96564293
-3.8901367 7.754951 -0.34870204 0.96586436
-3.6479101 7.7522559 -0.34434867 0.9662832
-3.5290234 7.7509375 -0.3422938 0.96648109
-3.4115233 7.7496581 -0.34031576 0.96667141
-2.8428514 7.7433691 -0.33152968 0.96751767
-2.6231639 7.7409568 -0.32849973 0.96780974
-2.5147851 7.7397461 -0.32708073 0.96794647
-2.4073241 7.7385449 -0.32572711 0.96807712
-2.3007617 7.7373824 -0.3244347 0.96820164
-1.9857031 7.7338963 -0.32092094 0.96854073
-1.6770703 7.7304883 -0.31792802 0.96882933
-1.4742383 7.7282419 -0.31621245 0.96899503
-1.3736328 7.7271385 -0.31543514 0.96906996
-1.0745312 7.7238474 -0.31342262 0.96926415
-0.87707031 7.7216406 -0.31234065 0.9693687
-0.68082029 7.7194824 -0.31146163 0.96945345
-0.48556641 7.7173338 -0.31078506 0.96951884
-0.29101562 7.7151656 -0.31030497 0.96956521
-0.19396484 7.7141113 -0.31013936 0.96958113
-3.9062499e-05 7.7119627 -0.30995551 0.96959895
0.096894532 7.7108884 -0.30993605 0.96960074
0.29070312 7.7087598 -0.31004676 0.96959013
0.38773435 7.7076755 -0.31017533 0.96957773
0.48484373 7.7066016 -0.31035277 0.96956062
0.58207029 7.7055273 -0.31057978 0.96953869
0.77699214 7.7033787 -0.31118214 0.96948057
0.87482423 7.7022948 -0.31155729 0.96944427
0.97285151 7.701201 -0.31198356 0.96940315
1.0711719 7.7001171 -0.31245938 0.96935713
1.1698437 7.6990333 -0.31298912 0.96930617
1.4680078 7.6957321 -0.31488124 0.96912342
1.6690038 7.6935253 -0.31640679 0.96897608
1.7702343 7.6923828 -0.31725031 0.96889478
1.9744531 7.6901364 -0.31910467 0.96871591
2.181211 7.6878514 -0.32118294 0.96851534
2.6035547 7.6831832 -0.32604769 0.96804619
2.7112498 7.681982 -0.32741743 0.96791416
2.8198242 7.6808004 -0.3288517 0.96777594
3.0400391 7.678359 -0.33191401 0.96748072
3.1516991 7.6771288 -0.33354658 0.96732348
3.264492 7.6758785 -0.33524773 0.96715951
3.3784764 7.6746287 -0.33702102 0.96698868
3.4936719 7.6733594 -0.33886582 0.966811
3.6101561 7.6720505 -0.34078521 0.96662617
3.7279687 7.6707516 -0.34278217 0.96643406
3.8472068 7.6694431 -0.34485632 0.96623439
3.9679101 7.6681051 -0.3470121 0.96602702
4.466836 7.6625977 -0.35648128 0.96511632
4.8600192 7.6582518 -0.36454749 0.96434122
4.9951172 7.6567674 -0.36743584 0.96406382
5.132422 7.6552439 -0.37042814 0.96377647
5.2719531 7.6537008 -0.37352958 0.9634788
5.5583787 7.6505175 -0.38007584 0.96285093
5.7053905 7.6489062 -0.38352606 0.96252006
6.3994532 7.5406151 -0.39750224 0.96118122
6.4934568 7.4593453 -0.39748809 0.96118259
6.6783981 7.2933202 -0.39746031 0.96118522
6.8591208 7.122705 -0.39743316 0.96118772
7.0355077 6.9476266 -0.39740664 0.96119016
7.2073827 6.7681541 -0.39738083 0.96119285
7.2916207 6.6768651 -0.39736819 0.96119398
7.5374022 6.396709 -0.3973313 0.9611975
7.6953125 6.2048731 -0.39730766 0.96119982
7.8483591 6.0091696 -0.39728469 0.96120203
1.2629297 0.94205076 -0.063325115 0.99371243
1.2633984 0.84703124 -0.061133154 0.99392933
1.2634765 0.82426757 -0.060632057 0.99397904
1.2635547 0.80188477 -0.060148351 0.99402696
1.2636719 0.77984375 -0.059681319 0.99407309
1.26375 0.7581445 -0.059231032 0.99411774
1.2638476 0.73675781 -0.058796689 0.99416071
1.2639453 0.7156738 -0.058377378 0.9942022
1.2914063 0.70994139 -0.059229963 0.99411786
1.3719921 0.70993161 -0.062087707 0.99383497
1.4152539 0.70994139 -0.063638113 0.99368155
1.4607812 0.70994139 -0.065278471 0.99351919
1.5087109 0.70995116 -0.067016259 0.99334723
1.5592968 0.70994139 -0.068860739 0.99316472
1.6127343 0.70996094 -0.07082092 0.99297076
1.6692969 0.70996094 -0.072908133 0.99276447
1.793164 0.70994139 -0.077512585 0.99230915
1.8611327 0.70996094 -0.080059968 0.9920575
11.877149 3.6947656 -0.49992865 0.95142496
11.922481 3.5451856 -0.49992195 0.95142561
11.965918 3.3950098 -0.49991554 0.95142633
12.0075 3.2443554 -0.4999094 0.9514268
12.12082 2.7894042 -0.49989271 0.95142847
12.154765 2.636826 -0.49988776 0.95142907
12.245195 2.1767871 -0.49987456 0.95143032
12.271563 2.0227344 -0.49987075 0.95143038
12.357383 1.403584 -0.49985844 0.95143157
12.388633 1.0925683 -0.49985403 0.95143205
12.401347 0.93681639 -0.49985227 0.95143217
12.432617 0.31253904 -0.49984822 0.9514327
12.435586 0.15626952 -0.49984795 0.95143259
12.427773 -0.46874022 -0.49984977 0.95143241
12.420918 -0.62487304 -0.49985099 0.95143235
12.388672 -1.0925781 -0.49985635 0.95143187
12.338906 -1.5587597 -0.49986437 0.95143104
12.318398 -1.7137011 -0.49986765 0.95143086
12.296016 -1.8683789 -0.49987119 0.95143038
12.271602 -2.022754 -0.49987507 0.9514302
12.120976 -2.7894237 -0.49989867 0.95142788
12.047343 -3.0932324 -0.49991012 0.95142674
2.0166407 -0.68337888 -0.085579492 0.99151224
2.0167968 -0.71179688 -0.085958019 0.99147475
1.9337499 -0.70994139 -0.082793348 0.99178743
1.7293164 -0.70994139 -0.075133435 0.99254441
1.6127343 -0.70995116 -0.070820808 0.99297076
1.5592968 -0.70996094 -0.068860397 0.99316466
1.3719921 -0.70994139 -0.062087286 0.99383491
1.3307421 -0.70994139 -0.060620077 0.99398023
1.2914063 -0.70994139 -0.059229698 0.99411786
1.2639062 -0.7156738 -0.058377456 0.99420232
1.26375 -0.75812501 -0.05923111 0.9941178
1.2636719 -0.77983397 -0.059681356 0.99407315
1.2632812 -0.87017578 -0.061652564 0.99387795
7.8517966 -6.0118456 -0.39745808 0.96118528
7.7758594 -6.1102343 -0.39746967 0.96118414
7.6986718 -6.2076173 -0.39748144 0.96118313
7.6202731 -6.3040624 -0.39749339 0.96118206
7.5407419 -6.3995118 -0.39750552 0.96118069
7.4599218 -6.4939647 -0.39751783 0.96117967
7.3779883 -6.5874219 -0.39753035 0.9611783
7.2948241 -6.6798339 -0.39754301 0.96117717
7.0386329 -6.9507227 -0.39758208 0.96117324
6.8621483 -7.1258788 -0.39760894 0.96117085
6.7723045 -7.2117867 -0.39762264 0.96116954
6.4023046 -7.5439939 -0.39767897 0.96116424
6.2111325 -7.7030759 -0.39770806 0.96116143
6.1141014 -7.7808008 -0.39772281 0.96116
6.0160546 -7.8573141 -0.39773771 0.96115857
5.917109 -7.9326172 -0.39775276 0.96115696
5.7163086 -8.0794039 -0.39778328 0.96115416
5.4083395 -8.2900782 -0.39783013 0.96114981
5.3039646 -8.3577242 -0.39784595 0.9611482
5.1987305 -8.4240627 -0.39786196 0.96114665
4.913125 -8.4280081 -0.39209303 0.96169919
4.771328 -8.426445 -0.38920081 0.96197641
4.3580079 -8.4218655 -0.38112727 0.96275038
3.5781446 -8.4132519 -0.36745772 0.96406204
3.4533594 -8.4118748 -0.36547285 0.96425265
3.2077734 -8.4091797 -0.36173698 0.96461135
3.0867968 -8.4078217 -0.35998222 0.96478003
2.9669921 -8.4064941 -0.35830092 0.96494162
2.7305858 -8.4038963 -0.35515198 0.96524429
2.4981639 -8.4013186 -0.35227883 0.96552062
2.3832812 -8.4000387 -0.35094029 0.96564931
2.2693164 -8.3987789 -0.34967002 0.96577156
2.1560936 -8.3975391 -0.34846184 0.96588773
2.0436914 -8.3962793 -0.34731758 0.96599793
1.9319531 -8.3950682 -0.34623542 0.96610206
1.8209375 -8.3938284 -0.34521231 0.96620041
1.6007421 -8.391387 -0.3433502 0.96637976
1.4915038 -8.3901854 -0.34250647 0.96646088
1.1666992 -8.386611 -0.34032103 0.96667123
1.0592968 -8.3854198 -0.3397055 0.96673048
0.95228511 -8.3842182 -0.33914581 0.96678442
0.73917967 -8.3818846 -0.33819383 0.96687621
0.63306642 -8.380703 -0.33779678 0.96691424
0.52716798 -8.3795404 -0.33745682 0.96694702
0.21054687 -8.3760347 -0.33675647 0.96701449
-3.9062499e-05 -8.3737106 -0.33655661 0.96703374
-0.10525391 -8.3725386 -0.33653632 0.96703571
-0.31572264 -8.370224 -0.33665627 0.96702421
-0.52650392 -8.3678999 -0.33698824 0.9669922
-0.73783201 -8.3655663 -0.33753338 0.96693957
-1.0564063 -8.362031 -0.33875853 0.96682167
-1.1631249 -8.3608398 -0.33927649 0.9667719
-1.2702539 -8.3596773 -0.33984917 0.96671665
-1.3777539 -8.3584862 -0.34047768 0.96665615
-1.9221874 -8.3524904 -0.34447777 0.96627098
-2.1439452 -8.350029 -0.34648991 0.96607739
-2.368418 -8.3475485 -0.34874821 0.96586019
-2.5960155 -8.3450384 -0.35125801 0.96561867
-3.0618944 -8.3398924 -0.35707247 0.96505952
-3.1808984 -8.3385744 -0.35870034 0.96490318
-3.6684375 -8.3331833 -0.3659443 0.96420723
-3.793535 -8.3318062 -0.3679477 0.96401477
-3.9199998 -8.33041 -0.3700327 0.96381468
-4.0479493 -8.3289938 -0.37220022 0.9636066
-4.5757031 -8.3231544 -0.38174427 0.96269113
-5.943789 -7.9683981 -0.39954695 0.96098524
-6.0436521 -7.8933592 -0.399562 0.96098393
-6.1425977 -7.8170996 -0.39957687 0.96098244
-6.2405663 -7.7395506 -0.39959162 0.96098113
-6.3375583 -7.6608105 -0.39960623 0.9609797
-6.622539 -7.417285 -0.39964908 0.96097553
-6.7154489 -7.3337693 -0.39966303 0.96097416
-6.8980856 -7.1631737 -0.39969048 0.96097159
-7.0763669 -6.9880176 -0.39971724 0.96096915
-7.1639061 -6.8987985 -0.39973035 0.96096766
-1.0324805 -0.94543946 -0.056267545 0.99441135
-1.0325781 -0.92197263 -0.055638846 0.9944737
-1.0327344 -0.89901364 -0.055031888 0.99453372
-1.0328516 -0.87656248 -0.054446831 0.99459159
-1.0329492 -0.854541 -0.053882521 0.99464762
-1.0330468 -0.83298826 -0.053337935 0.99470162
-1.0331836 -0.81184566 -0.052812271 0.9947536
-1.0332812 -0.79114258 -0.052305143 0.99480385
-1.0335547 -0.73126954 -0.05088703 0.99494439
-1.0882031 -0.70993161 -0.052222632 0.99481207
-1.1186913 -0.70993161 -0.05325241 0.99470997
-1.1503906 -0.70995116 -0.054332539 0.99460298
-1.2537891 -0.70993161 -0.057910688 0.99424863
-1.3307031 -0.70993161 -0.06062023 0.99398041
-1.3719531 -0.70994139 -0.062087476 0.99383509
-1.4152539 -0.70995116 -0.063637771 0.99368155
-1.4607421 -0.70995116 -0.065278202 0.99351931
-1.5087109 -0.70995116 -0.067016222 0.99334723
-1.5592577 -0.70994139 -0.068860583 0.99316484
-1.6692969 -0.70995116 -0.072907716 0.99276447
-1.7293359 -0.70995116 -0.075133704 0.99254429
-1.7834765 -0.68035156 -0.076720692 0.99238759
-1.7834375 -0.65476561 -0.07635811 0.99242336
-11.963047 -3.7214842 -0.50354278 0.95108241
-12.008985 -3.5709081 -0.50354958 0.95108193
-12.173828 -2.9631641 -0.50357383 0.95107961
-12.277226 -2.5023046 -0.50358903 0.95107818
-12.307813 -2.3478417 -0.50359344 0.95107776
-12.336426 -2.1930077 -0.50359762 0.95107746
-12.363125 -2.0378222 -0.50360149 0.95107698
-12.450234 -1.414121 -0.50361401 0.95107573
-12.46707 -1.2575781 -0.50361639 0.95107549
-12.505722 -0.78678709 -0.50362176 0.95107508
-12.514688 -0.62958986 -0.50362295 0.95107484
-12.529511 -0.15745117 -0.50362468 0.9510749
-11.71834 -0 -0.50350183 0.95416695
-11.717382 0.14725585 -0.50350147 0.95416707
-11.714609 0.29448241 -0.50350094 0.95416707
-11.703515 0.5887695 -0.50349897 0.95416707
-11.684921 0.88268554 -0.50349581 0.95416743
-11.658945 1.1760547 -0.50349158 0.95416784
-11.643164 1.3224413 -0.50348902 0.95416814
-11.625586 1.4686524 -0.50348622 0.95416832
-11.606133 1.6145996 -0.50348312 0.95416862
-11.536797 2.0508592 -0.50347215 0.95416951
-11.384727 2.7710936 -0.50344843 0.9541716
-11.348866 2.9139061 -0.50344282 0.95417213
-11.271757 3.1980956 -0.50343084 0.95417333
-1.7843554 0.68068355 -0.082057528 0.992383
-1.6692969 0.70994139 -0.07794182 0.99276364
-1.4607812 0.70996094 -0.069785878 0.99351841
-1.3719727 0.70995116 -0.06637466 0.99383426
-1.2537891 0.70995116 -0.061909292 0.99424791
-1.1503906 0.70996094 -0.058084335 0.99460232
-1.0882226 0.70994139 -0.055828512 0.99481142
-1.0328516 0.73077148 -0.054364357 0.9949472
-1.0326757 0.77031249 -0.055355757 0.99485523
-1.0325781 0.79060543 -0.055878296 0.99480677
-1.0324609 0.81131834 -0.056419831 0.99475658
-1.0323633 0.83242184 -0.056980666 0.99470454
-1.032207 0.85395503 -0.057562064 0.99465078
-1.0319726 0.89836913 -0.058789175 0.99453706
-6.7777538 6.3647361 -0.39949676 0.96345907
-6.4486132 6.6964355 -0.39944664 0.96346343
-6.36375 6.7766795 -0.3994337 0.96346474
-6.1910157 6.9340038 -0.39940742 0.96346712
-5.9246874 7.1617184 -0.39936692 0.96347064
-5.7424216 7.3078318 -0.39933914 0.9634732
-5.3672657 7.5860348 -0.3992821 0.96347827
-5.2712889 7.6525779 -0.39926752 0.9634797
-5.0677147 7.7679391 -0.39851072 0.96354741
-4.0136328 7.7562985 -0.37523821 0.96563905
-3.7682812 7.7535934 -0.37040779 0.96607381
-3.6478906 7.7522559 -0.36812583 0.96627945
-3.5290234 7.7509375 -0.36592782 0.96647727
-3.1804688 7.7471094 -0.35982597 0.96702677
-3.0667968 7.7458396 -0.35795051 0.96719593
-2.9542577 7.7446094 -0.35614905 0.96735823
-2.8428514 7.7433691 -0.35442176 0.96751404
-2.7325194 7.7421484 -0.3527672 0.96766323
-2.4073241 7.7385645 -0.34821722 0.96807343
-2.0899608 7.7350488 -0.34426868 0.9684298
-1.9857421 7.7338963 -0.34307921 0.96853709
-1.8821875 7.7327437 -0.34195262 0.96863884
-1.4742383 7.7282419 -0.33804569 0.96899152
-1.3736328 7.7271385 -0.33721563 0.96906644
-1.273496 7.7260351 -0.33644062 0.96913624
-1.0745312 7.7238474 -0.33506414 0.96926063
-0.97566402 7.722734 -0.33445728 0.96931541
-0.87707031 7.7216406 -0.33390754 0.96936518
-0.77878904 7.7205758 -0.33341032 0.96941
-0.48556641 7.7173338 -0.33224341 0.96951538
-0.38820311 7.7162304 -0.33196098 0.96954101
-0.29101562 7.7151561 -0.33173034 0.96956182
-0.19396484 7.7141113 -0.33155432 0.96957767
-3.9062499e-05 7.7119627 -0.33135772 0.96959549
0.096894532 7.7108884 -0.33133703 0.96959728
0.19378906 7.7098141 -0.33137035 0.96959436
0.58207029 7.7055273 -0.33202404 0.96953523
0.67943358 7.7044334 -0.33231959 0.96950865
1.0711719 7.7001171 -0.3340345 0.96935368
1.1698437 7.6990333 -0.33459991 0.96930265
1.2688282 7.6979394 -0.33521795 0.9692468
1.368203 7.696836 -0.33589295 0.96918589
1.5682422 7.6946287 -0.33740997 0.96904886
1.7702343 7.6923828 -0.33915633 0.96889126
1.8720312 7.6912789 -0.34011772 0.96880442
2.0774803 7.6890039 -0.3422187 0.96861482
2.181211 7.6878514 -0.34336022 0.96851176
2.4967577 7.6843748 -0.34716403 0.96816856
2.8198242 7.6808004 -0.35155764 0.96777231
3.264492 7.6758885 -0.35839629 0.96715575
3.7279687 7.670742 -0.36645088 0.96643031
4.0901561 7.666748 -0.37336361 0.96580791
4.2140231 7.6653805 -0.37584761 0.96558452
4.3395309 7.6639843 -0.37842265 0.96535283
4.9951172 7.6567674 -0.3928054 0.96405977
5.132422 7.6552439 -0.39600608 0.96377236
5.2719922 7.6536813 -0.39932173 0.96347469
5.5332422 7.4180274 -0.3976334 0.96362627
5.8082809 7.2034082 -0.39759201 0.96363014
6.075078 6.9787011 -0.39755186 0.9636336
6.2481251 6.8233886 -0.39752591 0.96363592
6.3331637 6.7441111 -0.39751312 0.96363711
6.4171677 6.6637597 -0.39750049 0.96363837
6.5002341 6.5824413 -0.39748803 0.96363926
6.6631832 6.4165821 -0.39746353 0.96364158
6.7430468 6.3321481 -0.39745155 0.96364278
7.1262889 5.8953905 -0.39739403 0.96364802
7.1996484 5.8052344 -0.39738303 0.96364886
1.2620703 0.94141597 -0.067651629 0.993716
1.2624609 0.86959958 -0.065865859 0.99388123
1.2627343 0.80137694 -0.064259715 0.99403012
1.2628515 0.77933592 -0.063761555 0.99407625
1.2630469 0.73627931 -0.062816583 0.99416375
1.2631249 0.71523434 -0.062368926 0.99420524
1.2914063 0.70994139 -0.063319623 0.9941172
1.3719921 0.70993161 -0.066374436 0.99383426
1.4152539 0.70994139 -0.068032034 0.99368083
1.5592968 0.70994139 -0.073615603 0.99316394
1.6692969 0.70996094 -0.077941932 0.99276364
1.7293359 0.70994139 -0.080321535 0.99254346
1.9337499 0.70994139 -0.088510513 0.99178648
2.0186522 0.65589845 -0.091198005 0.99153805
11.155 3.3169627 -0.50003827 0.95447505
11.234609 3.035537 -0.50002652 0.95447594
11.271718 2.8940821 -0.5000211 0.95447654
11.30707 2.7521973 -0.50001585 0.95447695
11.430664 2.1805272 -0.49999776 0.95447856
11.48166 1.8925488 -0.49999037 0.95447934
11.504531 1.7481054 -0.4999871 0.95447934
11.544648 1.4584081 -0.49998128 0.95448005
11.577538 1.1678418 -0.49997663 0.95448047
11.621445 0.58464843 -0.49997061 0.95448101
11.627851 0.43856445 -0.49996981 0.95448112
11.636113 -9.7656248e-06 -0.49996907 0.95448112
11.635215 -0.1462207 -0.49996933 0.95448107
11.632481 -0.29240233 -0.4999699 0.95448101
11.621484 -0.58465821 -0.49997187 0.95448089
11.613281 -0.7306543 -0.4999733 0.95448065
11.591328 -1.0222851 -0.4999769 0.95448035
11.577578 -1.1678418 -0.49997911 0.95448029
11.544706 -1.4584277 -0.49998441 0.95447981
11.525566 -1.6034082 -0.49998748 0.9544794
11.50457 -1.748125 -0.49999079 0.95447916
11.481777 -1.8925488 -0.49999437 0.95447886
11.372578 -2.4671581 -0.5000115 0.95447731
11.271874 -2.8941405 -0.50002724 0.95447588
11.195801 -3.176543 -0.50003904 0.95447505
11.155156 -3.3170311 -0.5000453 0.95447439
2.01875 -0.6841113 -0.091585308 0.9915024
2.0189061 -0.71255857 -0.091990694 0.99146485
1.9337499 -0.70995116 -0.088510051 0.99178648
1.7931249 -0.70993161 -0.082864299 0.99230844
1.6692773 -0.70993161 -0.07794147 0.99276376
1.6127343 -0.70995116 -0.075710639 0.99296999
1.3719921 -0.70994139 -0.066374399 0.9938342
1.2914063 -0.70994139 -0.063319281 0.9941172
1.2630469 -0.73627931 -0.06281662 0.99416375
1.2626562 -0.82374024 -0.064776301 0.99398226
1.2624218 -0.86958003 -0.065865859 0.9938814
1.2623242 -0.89309567 -0.066440277 0.99382818
1.262207 -0.91703123 -0.067035176 0.99377304
7.2749801 -5.7166209 -0.39754501 0.96363437
7.2027731 -5.8077731 -0.39755604 0.9636333
7.1294336 -5.8979783 -0.39756721 0.96363229
7.0549998 -5.9872751 -0.39757857 0.96363115
6.9026952 -6.1630759 -0.39760181 0.96362901
6.8248825 -6.2494822 -0.39761367 0.96362811
6.7460546 -6.3349609 -0.39762565 0.96362686
6.6660938 -6.4194236 -0.39763784 0.96362585
6.4200001 -6.666738 -0.39767537 0.96362251
6.3359375 -6.7471094 -0.39768812 0.96362132
6.1647849 -6.9046383 -0.3977142 0.96361905
6.0777535 -6.9818063 -0.39772746 0.96361774
5.9897265 -7.0578709 -0.39774084 0.96361655
5.8108592 -7.2066212 -0.39776808 0.96361428
5.7200389 -7.279336 -0.39778191 0.96361297
5.6282811 -7.3508787 -0.39779583 0.96361184
5.5357032 -7.4212985 -0.39780989 0.96361047
5.1566014 -7.6912012 -0.39786759 0.96360517
5.0597067 -7.7556443 -0.39788225 0.96360403
4.9620504 -7.8189158 -0.39789709 0.9636026
4.7643356 -7.9417477 -0.39792717 0.96359992
4.4621482 -8.1166115 -0.39797306 0.96359581
4.2571092 -8.2268362 -0.39800417 0.96359295
4.0493555 -8.3318939 -0.39803573 0.96359003
3.8318357 -8.4160643 -0.39733291 0.96365356
3.7042577 -8.4146576 -0.39503589 0.96385968
3.5781446 -8.4132519 -0.39282921 0.96405792
3.4533594 -8.4118748 -0.3907074 0.9642486
3.2077734 -8.4091797 -0.38671458 0.96460736
3.0867968 -8.4078217 -0.38483775 0.9647761
2.9669921 -8.4064941 -0.38304138 0.96493769
2.848242 -8.4051952 -0.38132063 0.96509236
2.7305858 -8.4038963 -0.37967494 0.96524036
1.7105273 -8.3926172 -0.36802077 0.96628904
1.2745312 -8.3877926 -0.36453772 0.9666028
1.1667187 -8.386611 -0.36381987 0.96666741
1.0592968 -8.3854294 -0.36316198 0.96672666
0.95228511 -8.3842182 -0.3625637 0.96678066
0.84558594 -8.3830366 -0.36202446 0.96682924
0.63306642 -8.380703 -0.36112145 0.96691048
0.42146483 -8.3783693 -0.36045203 0.96697098
0.31595701 -8.3772068 -0.36020064 0.96699339
-3.9062499e-05 -8.3737106 -0.3597945 0.96702999
-0.10525391 -8.3725386 -0.35977384 0.96703202
-0.31572264 -8.370224 -0.35990202 0.96702045
-0.42107421 -8.3690815 -0.36005011 0.96700692
-0.73783201 -8.3655663 -0.36083987 0.96693581
-0.84376949 -8.3643942 -0.36121804 0.96690172
-0.94996089 -8.3632326 -0.36165515 0.96686238
-1.0564063 -8.362031 -0.36214957 0.96681792
-1.163164 -8.3608589 -0.36270225 0.96676803
-1.5940429 -8.3561029 -0.36551207 0.96651495
-1.8122656 -8.3536911 -0.36728466 0.96635538
-1.9221874 -8.3524904 -0.36826363 0.96626717
-2.1439452 -8.350029 -0.37041384 0.96607351
-2.2558398 -8.3487988 -0.37158751 0.96596789
-2.368418 -8.3475485 -0.37282774 0.96585631
-2.7110937 -8.3437595 -0.37695727 0.96548468
-2.8270507 -8.3424702 -0.37847465 0.96534824
-3.1808984 -8.3385744 -0.38346726 0.96489918
-3.4222264 -8.3358984 -0.38717794 0.96456563
-3.5446875 -8.3345509 -0.38915411 0.96438807
-3.9199998 -8.3304005 -0.39558211 0.96381056
-4.1666794 -8.3061819 -0.39927852 0.96347857
-4.2708983 -8.2534857 -0.39929423 0.96347719
-4.3744335 -8.1995211 -0.39930984 0.9634757
-4.477324 -8.1441889 -0.39932531 0.96347439
-4.5794725 -8.0875874 -0.39934075 0.96347302
-4.7816405 -7.9705467 -0.39937118 0.96347034
-5.176836 -7.721406 -0.39943069 0.96346492
-5.4647851 -7.5216308 -0.39947405 0.96346098
-5.5590625 -7.4526172 -0.39948821 0.96345973
-5.7449999 -7.3110838 -0.39951622 0.96345723
-5.8365817 -7.2385645 -0.39952999 0.96345603
-5.9273047 -7.1649313 -0.39954364 0.96345466
-6.1058984 -7.0141602 -0.39957047 0.96345234
-6.2806249 -6.8589158 -0.39959675 0.96345013
-6.3665624 -6.779707 -0.39960968 0.96344876
-6.4514451 -6.6993551 -0.39962241 0.96344775
-6.5353513 -6.6179981 -0.39963499 0.9634465
-6.6181641 -6.5355368 -0.39964744 0.96344548
-6.7807422 -6.3675485 -0.39967185 0.96344328
-1.0319922 -0.89836913 -0.058789175 0.994537
-1.0321094 -0.87591797 -0.058164597 0.99459487
-1.0322266 -0.85394531 -0.057562217 0.99465072
-1.0325586 -0.7906152 -0.055878296 0.99480683
-1.0326562 -0.77030271 -0.055355795 0.99485528
-1.0327734 -0.7503711 -0.054851227 0.99490196
-1.0328516 -0.73077148 -0.054364394 0.9949472
-1.0589062 -0.70993161 -0.054777641 0.99490881
-1.1503906 -0.70995116 -0.058084141 0.99460232
-1.2913672 -0.70995116 -0.063319355 0.99411732
-1.5087109 -0.70995116 -0.071643598 0.99334645
-1.6127343 -0.70993161 -0.075710714 0.99296999
-1.7293359 -0.70995116 -0.080321386 0.99254346
-1.7844336 -0.70650387 -0.082462274 0.99234551
-11.048163 -3.8993261 -0.50340456 0.95417559
-11.187734 -3.4803026 -0.50342524 0.95417374
-11.230722 -3.3394823 -0.50343162 0.95417321
-11.271934 -3.1981347 -0.5034377 0.95417267
-11.311367 -3.0562792 -0.50344354 0.95417213
-11.349023 -2.9139354 -0.50344902 0.95417154
-11.481524 -2.3401368 -0.50346845 0.95416987
-11.510077 -2.1956737 -0.50347269 0.95416969
-11.536875 -2.050869 -0.50347656 0.95416921
-11.561835 -1.9057519 -0.5034802 0.95416886
-11.584922 -1.760332 -0.50348347 0.95416862
-11.625703 -1.4686718 -0.50348938 0.95416784
-11.643262 -1.3224609 -0.50349182 0.95416778
-11.658964 -1.1760352 -0.50349408 0.95416778
-11.703476 -0.58878905 -0.50350022 0.95416719
-11.709961 -0.44166014 -0.503501 0.95416719
-11.714589 -0.29449219 -0.50350153 0.95416713
-11.717382 -0.14724609 -0.50350183 0.95416707
-11.004883 -0 -0.50339389 0.95689124
-11.001367 0.27654296 -0.50339305 0.95689136
-10.857832 1.7897167 -0.50336975 0.95689327
-10.834414 1.9259961 -0.50336605 0.95689356
-10.753867 2.3329296 -0.50335342 0.95689458
-10.691602 2.6023729 -0.5033437 0.95689553
-10.622598 2.8701661 -0.50333303 0.95689642
-10.585625 3.003418 -0.50332725 0.95689672
-10.506504 3.2683885 -0.50331497 0.95689791
-10.464492 3.4001172 -0.50330853 0.95689839
-10.4208 3.5312891 -0.50330174 0.95689893
-10.375449 3.6619236 -0.50329477 0.95689952
-1.7851952 0.68098629 -0.08740101 0.99237853
-1.7852734 0.70685548 -0.087832414 0.99234098
-1.7293359 0.70993161 -0.085510366 0.99254256
-1.6692969 0.70994139 -0.082977295 0.99276274
-1.6127343 0.70995116 -0.080602109 0.9929691
-1.5592968 0.70996094 -0.078371234 0.99316305
-1.5086914 0.70994139 -0.076272316 0.99334574
-1.3307031 0.70996094 -0.068992883 0.99397892
-1.2913867 0.70996094 -0.067410126 0.99411649
-1.2537891 0.70995116 -0.065908775 0.9942472
-1.0882226 0.70994139 -0.059435308 0.99481076
-1.0589062 0.70996094 -0.058316536 0.99490815
-1.0323046 0.71108395 -0.057337988 0.99499327
-1.0321875 0.73030269 -0.057837714 0.99494982
-1.0320898 0.74987304 -0.058355484 0.9949047
-1.0319922 0.76977539 -0.058891792 0.99485803
-1.0318555 0.79006833 -0.059447248 0.99480975
-1.0316015 0.83183593 -0.060619429 0.9947077
-1.0315039 0.85333985 -0.061237447 0.99465382
-1.03125 0.89771485 -0.062542073 0.99454027
-1.0309765 0.94406247 -0.063944168 0.99441814
-6.3654881 5.9775877 -0.3994348 0.965639
-6.2128906 6.1353025 -0.39941159 0.96564096
-5.9766793 6.364531 -0.39937559 0.96564406
-5.4792576 6.795361 -0.39929992 0.96565044
-5.2187109 6.9963574 -0.39926025 0.96565384
-5.0409374 7.1248341 -0.39923325 0.96565598
-4.95082 7.1873436 -0.39921954 0.96565723
-4.6759372 7.3680758 -0.39917776 0.96566069
-4.3944335 7.5382519 -0.39913502 0.96566439
-4.2033005 7.645781 -0.39910597 0.96566671
-3.7682812 7.7535934 -0.394337 0.96606976
-3.529043 7.750957 -0.38956848 0.9664731
-3.4115233 7.7496581 -0.38731739 0.9666636
-3.2953711 7.7483592 -0.38515231 0.96684676
-3.1804688 7.7470994 -0.38307342 0.96702284
-2.9542577 7.7445993 -0.37915719 0.96735436
-2.8428514 7.7433591 -0.37731811 0.9675101
-2.7324998 7.7421384 -0.37555659 0.96765941
-2.6231639 7.7409277 -0.37386936 0.96780235
-2.4073241 7.7385645 -0.37071386 0.96806955
-1.9857421 7.7338963 -0.36524284 0.96853328
-1.8821875 7.7327342 -0.3640435 0.96863508
-1.7793164 7.7316208 -0.3629081 0.96873122
-1.6770703 7.7304883 -0.3618376 0.96882206
-1.4742383 7.7282419 -0.35988516 0.96898776
-1.273496 7.7260351 -0.3581765 0.96913254
-1.0745312 7.7238474 -0.356711 0.96925694
-0.87707031 7.7216406 -0.35547867 0.96936148
-0.58310544 7.7184081 -0.3540644 0.96948141
-0.38820311 7.7162304 -0.3534072 0.96953738
-0.29101562 7.7151561 -0.35316277 0.96955812
-0.19396484 7.7141113 -0.35297331 0.96957397
-3.9062499e-05 7.7119627 -0.35276398 0.9695918
0.19378906 7.7098141 -0.35277849 0.96959072
0.29070312 7.7087598 -0.35286796 0.96958297
0.48482421 7.7066016 -0.35321629 0.96955347
0.58207029 7.7055273 -0.35347441 0.9695316
0.67943358 7.7044334 -0.35378897 0.96950495
0.77699214 7.7033787 -0.35415998 0.96947342
0.87478513 7.7022948 -0.354588 0.96943712
0.97285151 7.701201 -0.355073 0.969396
1.0711719 7.7001171 -0.35561487 0.96934998
1.1698047 7.6990333 -0.35621467 0.96929902
1.2688282 7.6979394 -0.35687479 0.96924305
1.5682422 7.6946287 -0.35920736 0.9690451
1.6689649 7.6935253 -0.36010659 0.96896887
1.9744531 7.6901269 -0.36317673 0.96870863
2.0774999 7.6890039 -0.36432567 0.968611
2.2856054 7.6866894 -0.36682463 0.96839935
2.3907812 7.6855469 -0.36817381 0.9682849
3.0400391 7.678359 -0.37775415 0.96747315
3.264492 7.6758785 -0.38154849 0.96715182
3.4936719 7.6733594 -0.38566726 0.96680319
3.6101367 7.6720409 -0.38785192 0.96661848
3.8472264 7.6694431 -0.39248514 0.9662264
4.2852149 7.5679297 -0.39782202 0.96577525
4.3798046 7.5131836 -0.39780775 0.96577662
4.473711 7.4572949 -0.39779362 0.96577781
5.0217185 7.0976758 -0.3977111 0.96578461
5.110332 7.0337501 -0.39769778 0.96578586
5.2851171 6.9026365 -0.39767146 0.96578813
5.4565625 6.7672167 -0.39764571 0.96579027
5.5409961 6.6979098 -0.39763299 0.96579129
5.7071872 6.5561032 -0.39760798 0.96579355
5.7889843 6.4836912 -0.3975957 0.96579438
5.8698044 6.4102244 -0.39758357 0.96579552
5.9496875 6.3357811 -0.39757156 0.96579659
6.0286717 6.2603321 -0.39755964 0.96579748
6.106699 6.1838965 -0.39754799 0.96579844
6.1837301 6.1065135 -0.3975364 0.96579945
6.3348827 5.9488378 -0.39751372 0.96580136
6.4089255 5.8686032 -0.39750257 0.96580237
6.4820309 5.7874413 -0.3974916 0.96580315
6.5540428 5.7053809 -0.39748082 0.96580416
6.6250391 5.6224217 -0.39747015 0.96580505
6.6949997 5.5385547 -0.39745966 0.96580595
6.8317184 5.3683004 -0.39743915 0.96580768
6.8984766 5.2818942 -0.39742914 0.96580845
1.2613281 0.91640621 -0.071317598 0.99377656
1.2614648 0.89251953 -0.070684925 0.99383152
1.2616211 0.86901367 -0.070074387 0.99388456
1.2617188 0.84591794 -0.069484897 0.99393588
1.2618359 0.82320309 -0.06891609 0.99398541
1.2619531 0.80085933 -0.068366848 0.9940331
1.2623438 0.71479493 -0.066356502 0.9942081
1.4152539 0.70994139 -0.072427101 0.99368006
1.5087109 0.70995116 -0.07627216 0.99334562
1.6127343 0.70996094 -0.080602415 0.9929691
1.6692969 0.70996094 -0.082977407 0.99276274
1.7293359 0.70993161 -0.08551044 0.99254256
1.793164 0.70994139 -0.088218004 0.99230731
1.9337499 0.70994139 -0.094228588 0.99178553
2.0209374 0.68481445 -0.097605206 0.99149221
2.0207617 0.65657222 -0.097191848 0.99152821
10.440351 3.2478125 -0.50014645 0.95716339
10.480215 3.116328 -0.50014055 0.95716387
10.518437 2.9843359 -0.50013489 0.95716435
10.654687 2.4520018 -0.50011486 0.95716596
10.739258 2.0486231 -0.50010252 0.95716703
10.764062 1.913496 -0.50009888 0.95716739
10.808633 1.6423827 -0.50009245 0.9571678
10.82834 1.5063964 -0.50008965 0.95716816
10.846367 1.3702148 -0.50008702 0.95716834
10.877304 1.0972167 -0.50008267 0.95716858
10.890195 0.96041989 -0.50008088 0.95716876
10.910801 0.68645507 -0.50007802 0.95716906
10.918554 0.54927731 -0.50007701 0.95716912
10.924589 0.41204101 -0.50007623 0.95716918
10.928906 0.27472657 -0.5000757 0.95716912
10.931484 0.13737305 -0.50007546 0.95716918
10.932343 -0 -0.50007546 0.95716918
10.931484 -0.13739258 -0.50007576 0.95716918
10.928906 -0.27472657 -0.50007629 0.95716912
10.918554 -0.54930663 -0.50007814 0.95716912
10.890215 -0.96042967 -0.50008291 0.95716864
10.877343 -1.0972167 -0.500085 0.95716846
10.862773 -1.2338183 -0.50008732 0.95716816
10.846406 -1.3702148 -0.50008994 0.95716816
10.828437 -1.5064257 -0.5000928 0.95716774
10.764179 -1.9135253 -0.500103 0.95716691
10.739375 -2.0486426 -0.50010687 0.95716655
10.712871 -2.1834471 -0.50011098 0.95716625
10.684688 -2.3179102 -0.50011539 0.95716584
10.623242 -2.5857422 -0.50012499 0.95716512
10.59 -2.7190721 -0.50013018 0.95716476
10.518594 -2.9843848 -0.50014126 0.95716375
10.480371 -3.1163867 -0.50014716 0.95716327
2.0208983 -0.68481445 -0.097605094 0.99149239
1.9337499 -0.70995116 -0.094227977 0.99178547
1.8611523 -0.70996094 -0.091116332 0.99205554
1.7931249 -0.70993161 -0.088217542 0.99230748
1.6127343 -0.70995116 -0.080601841 0.9929691
1.5592968 -0.70996094 -0.078370892 0.99316305
1.5087304 -0.70994139 -0.07627216 0.99334562
1.4608008 -0.70995116 -0.07429371 0.99351758
1.3307421 -0.70994139 -0.068992496 0.9939788
1.2623438 -0.71476561 -0.066356502 0.99420816
1.2621484 -0.75716794 -0.067325667 0.99412382
1.2620312 -0.77883786 -0.06783703 0.99407935
1.261914 -0.80083984 -0.06836693 0.99403328
1.2618359 -0.82321286 -0.068916164 0.99398535
1.2616992 -0.84589839 -0.069485128 0.993936
1.2616016 -0.86902344 -0.070074461 0.99388462
1.2614648 -0.89250976 -0.07068523 0.99383157
1.2612109 -0.94076169 -0.071973152 0.99371952
6.8346677 -5.3706346 -0.39761123 0.96579313
6.7668161 -5.4562497 -0.3976216 0.96579224
6.6978903 -5.5409765 -0.39763209 0.9657914
6.337656 -5.9514451 -0.39768702 0.96578664
6.2625389 -6.0308008 -0.39769852 0.96578568
6.1864452 -6.1091895 -0.39771006 0.96578467
6.109375 -6.1866307 -0.39772183 0.96578366
6.0313087 -6.2630858 -0.39773372 0.96578276
5.9523435 -6.3385839 -0.39774573 0.96578163
5.7914844 -6.4865623 -0.39777023 0.96577966
5.7097068 -6.5589843 -0.39778265 0.96577877
5.4589648 -6.7702146 -0.39782086 0.96577537
5.3736329 -6.8385057 -0.39783382 0.9657743
5.2874804 -6.9057226 -0.39784691 0.96577311
5.200449 -6.9718356 -0.39786014 0.96577203
5.0239258 -7.1008105 -0.39788699 0.96576977
4.9344726 -7.1636229 -0.39790058 0.96576864
4.7532225 -7.2858591 -0.39792815 0.96576631
4.6614451 -7.3452735 -0.39794213 0.96576518
4.4757228 -7.4606442 -0.39797032 0.96576267
4.0958009 -7.6771874 -0.39802802 0.96575791
3.9991601 -7.7283397 -0.39804268 0.96575665
3.9018555 -7.7782812 -0.39805743 0.9657554
3.8039649 -7.826982 -0.39807227 0.96575415
3.5066211 -7.965693 -0.39811745 0.9657504
3.4064062 -8.0094528 -0.39813262 0.96574897
3.3056054 -8.0519142 -0.39814791 0.96574777
3.2042968 -8.0931444 -0.39816329 0.9657464
3.0001366 -8.1717281 -0.39819425 0.9657439
2.8973241 -8.2091208 -0.39820984 0.96574247
2.6903124 -8.2800093 -0.39824125 0.96573979
2.5861719 -8.3134766 -0.39825702 0.96573848
2.4816015 -8.345664 -0.3982729 0.9657371
2.2692969 -8.3987885 -0.39796364 0.96576357
1.9319726 -8.3950777 -0.39405349 0.96609408
1.7105273 -8.3926172 -0.39179671 0.96628499
1.4915038 -8.3901949 -0.38980955 0.96645302
1.2744921 -8.3878126 -0.38808754 0.96659875
1.1667187 -8.386611 -0.38732329 0.96666342
1.0592968 -8.3854294 -0.38662302 0.96672267
0.84558594 -8.3830471 -0.38541302 0.96682519
0.52718747 -8.3795404 -0.38406461 0.96693933
0.42148435 -8.3783693 -0.383737 0.96696699
0.31593749 -8.3771973 -0.3834714 0.96698946
0.10521484 -8.3748922 -0.38312352 0.9670189
-3.9062499e-05 -8.3737202 -0.38303894 0.967026
-0.31572264 -8.370224 -0.38315147 0.96701646
-0.42105469 -8.3690624 -0.38331115 0.96700305
-0.52650392 -8.3679104 -0.38352942 0.96698439
-0.73783201 -8.3655663 -0.38415185 0.96693182
-0.84376949 -8.3643942 -0.38455445 0.96689773
-1.0564063 -8.3620405 -0.38554525 0.96681386
-1.163164 -8.3608694 -0.38613349 0.96676397
-1.377793 -8.3584957 -0.38750175 0.96664828
-1.485664 -8.357295 -0.38828093 0.96658236
-1.5940429 -8.3561029 -0.38912594 0.96651089
-1.7028515 -8.3549023 -0.39003536 0.96643394
-2.0327539 -8.3512497 -0.3931644 0.96616924
-2.4818163 -8.3462982 -0.39830646 0.96573454
-2.6958594 -8.2969532 -0.39905602 0.96567082
-2.8 -8.2627535 -0.39907172 0.96566951
-2.9037108 -8.2272072 -0.39908737 0.96566832
-3.0069921 -8.1904097 -0.39910296 0.96566689
-3.1098046 -8.1522751 -0.39911848 0.96566564
-3.2121093 -8.1128712 -0.39913389 0.96566439
-3.5160155 -7.9869528 -0.39917976 0.96566051
-3.6162305 -7.9424605 -0.39919487 0.96565914
-3.7158983 -7.8966894 -0.39920989 0.96565789
-3.814961 -7.849658 -0.39922482 0.9656567
-3.9134374 -7.8013864 -0.39923969 0.96565545
-4.0113282 -7.7518749 -0.39925441 0.96565419
-4.3964062 -7.5416307 -0.39931244 0.96564925
-4.4909763 -7.4860544 -0.39932671 0.96564806
-4.5848632 -7.4293065 -0.39934081 0.9656468
-4.7704492 -7.3122458 -0.39936876 0.96564448
-4.9530077 -7.190537 -0.39939627 0.96564227
-5.1324997 -7.0642772 -0.39942327 0.96563995
-5.2210155 -6.9994626 -0.39943662 0.96563888
-5.5668359 -6.7291598 -0.39948863 0.96563447
-5.73457 -6.5875583 -0.39951384 0.96563226
-5.81707 -6.5152049 -0.39952627 0.96563119
-5.8986716 -6.4417868 -0.39953852 0.96563011
-6.0590625 -6.2918844 -0.3995626 0.96562809
-6.2924609 -6.0595798 -0.3995977 0.96562511
-6.3682809 -5.9802146 -0.39960906 0.96562415
-1.0309374 -0.94404292 -0.06394428 0.99441832
-1.0310937 -0.92062497 -0.063230321 0.99448037
-1.0314063 -0.87530273 -0.061877973 0.99459797
-1.0316406 -0.83182615 -0.060619354 0.99470764
-1.0317578 -0.81074214 -0.060022887 0.99475956
-1.0318555 -0.79005855 -0.0594474 0.99480975
-1.0319922 -0.76976562 -0.058891676 0.99485803
-1.0322655 -0.71105468 -0.057338066 0.99499345
-1.0589062 -0.70993161 -0.058316384 0.99490821
-1.1186913 -0.70993161 -0.060607299 0.99470872
-1.1503906 -0.70995116 -0.061836585 0.99460167
-1.1834375 -0.70995116 -0.06312675 0.99448925
-1.217832 -0.70994139 -0.064482614 0.99437135
-1.2537891 -0.70993161 -0.065908507 0.99424726
-1.3307031 -0.70993161 -0.068992577 0.99397898
-1.3719727 -0.70994139 -0.07066223 0.99383354
-1.5087109 -0.70995116 -0.076271892 0.99334562
-1.6127343 -0.70993161 -0.080601916 0.99296916
-1.7852148 -0.68099606 -0.087400965 0.99237841
-1.7851562 -0.6554004 -0.08698757 0.9924143
-10.464667 -3.4001856 -0.50331581 0.95689768
-10.50666 -3.2684569 -0.50332201 0.95689726
-10.622754 -2.8702147 -0.50333917 0.95689583
-10.691718 -2.602412 -0.5033493 0.95689505
-10.723672 -2.4678807 -0.50335401 0.9568947
-10.753906 -2.3329492 -0.50335842 0.9568944
-10.857929 -1.7897265 -0.50337356 0.95689291
-10.917812 -1.3792382 -0.50338215 0.95689237
-10.934375 -1.2419531 -0.50338453 0.95689201
-10.962187 -0.96676755 -0.5033884 0.95689178
-10.973495 -0.8289746 -0.50339001 0.95689166
-10.983106 -0.69100583 -0.50339133 0.95689148
-10.373144 -0 -0.50329834 0.95930964
-10.372324 0.13035156 -0.50329804 0.95930964
-10.369883 0.26067382 -0.50329757 0.95930958
-10.359981 0.52119142 -0.50329578 0.95930988
-10.352578 0.65133786 -0.50329453 0.95931
-10.332891 0.91127926 -0.50329125 0.95931017
-10.306641 1.1706543 -0.50328702 0.95931053
-10.291055 1.3000586 -0.50328451 0.95931077
-10.212461 1.8154395 -0.50327206 0.95931184
-10.163515 2.0714746 -0.50326443 0.95931226
-10.136581 2.1990039 -0.5032602 0.95931262
-10.04621 2.5794237 -0.50324613 0.95931375
-10.012891 2.7054491 -0.50324094 0.95931423
-9.9779682 2.8310156 -0.50323552 0.95931476
-9.9414845 2.9561327 -0.50322992 0.95931524
-9.9034767 3.0808203 -0.50322396 0.95931554
-9.8638668 3.204951 -0.50321788 0.95931602
-9.7799606 3.4517381 -0.50320488 0.95931703
-1.7860156 0.65570313 -0.092311934 0.99240971
-1.7860937 0.68131834 -0.092750929 0.9923737
-1.6127148 0.70994139 -0.085494764 0.99296832
-1.5592968 0.70996094 -0.083128467 0.99316216
-1.5086914 0.70994139 -0.080902062 0.99334484
-1.4152539 0.70996094 -0.076823458 0.99367923
-1.3307031 0.70996094 -0.073180348 0.99397808
-1.2913867 0.70996094 -0.071501918 0.99411571
-1.2537891 0.70995116 -0.06990955 0.99424648
-1.1833789 0.70996094 -0.066958733 0.99448872
-1.1503906 0.70996094 -0.065590054 0.99460095
-1.1186913 0.70997071 -0.064286195 0.99470794
-1.0882226 0.70994139 -0.063042872 0.9948101
-1.0316015 0.71059567 -0.060777929 0.99499607
-1.0315039 0.72980469 -0.061307449 0.99495256
-1.0313672 0.74934566 -0.061855733 0.99490762
-1.0311328 0.78952146 -0.063012198 0.99481267
-1.0310352 0.81019527 -0.063622206 0.99476248
-1.0308985 0.83125973 -0.064253882 0.99471062
-1.0308007 0.85275388 -0.064908408 0.9946568
-1.0306445 0.87467772 -0.065587156 0.99460119
-1.0305078 0.89707029 -0.066290431 0.99454343
-1.0303515 0.91996092 -0.067019463 0.99448365
-1.0302148 0.94335938 -0.067775421 0.99442154
-5.9289842 5.7095408 -0.39936909 0.96757406
-5.8565621 5.7834473 -0.39935806 0.96757501
-5.5579491 6.0696874 -0.39931259 0.96757871
-5.4033594 6.2070899 -0.39928904 0.9675805
-5.084043 6.4699512 -0.39924043 0.96758443
-5.0021677 6.5331445 -0.39922801 0.96758538
-4.9195313 6.5952344 -0.39921543 0.96758652
-4.7519531 6.7163768 -0.39918998 0.96758842
-4.6670313 6.7753415 -0.39917704 0.96758944
-4.1425586 7.1062107 -0.39909735 0.96759588
-3.9624219 7.2076073 -0.39906999 0.9675979
-3.7797656 7.3043747 -0.39904228 0.96760023
-3.4075193 7.483994 -0.39898577 0.96760476
-3.3130858 7.5259666 -0.39897144 0.96760583
-3.1226561 7.6062694 -0.39894256 0.96760833
-2.8334765 7.7177439 -0.39889869 0.96761167
-2.7324998 7.7421384 -0.39835185 0.96765524
-2.6231639 7.7409277 -0.39656219 0.96779817
-2.5147655 7.7397461 -0.39485037 0.96793491
-2.4073241 7.7385645 -0.39321524 0.96806544
-2.1949608 7.7361913 -0.39016929 0.96830899
-2.0899608 7.7350488 -0.38875526 0.96842194
-1.6770507 7.7304783 -0.38380104 0.96881807
-1.3736523 7.7271285 -0.38079169 0.96905875
-1.2734765 7.7260351 -0.37991777 0.96912855
-0.87707031 7.7216306 -0.37705615 0.96935761
-0.48558593 7.7173047 -0.37517712 0.96950793
-0.38820311 7.7162204 -0.37485725 0.9695335
-3.9062499e-05 7.7119532 -0.3741776 0.96958792
0.096855469 7.7108788 -0.37415439 0.96958977
0.38773435 7.7076659 -0.37444201 0.96956676
0.48482421 7.7065916 -0.37465549 0.9695496
0.67945313 7.7044234 -0.37526312 0.96950108
0.87480468 7.7022848 -0.3761104 0.96943319
1.0711719 7.7001171 -0.3772006 0.96934599
1.1698242 7.6990232 -0.37783691 0.96929508
1.2688282 7.6979394 -0.37853622 0.96923912
1.4680078 7.6957226 -0.38012317 0.96911228
1.5682422 7.6946287 -0.38101131 0.96904117
1.6689843 7.6935153 -0.38196486 0.96896487
