# .PCD v0.7 - Point Cloud Data file format
VERSION 0.7
FIELDS x y z intensity
SIZE 4 4 4 4
TYPE F F F F
COUNT 1 1 1 1
WIDTH 1082
HEIGHT 1
VIEWPOINT 0 0 0 1 0 0 0
POINTS 1082
DATA ascii
-1.5087304 0.70992184 -0.07627216 0.99334562
-1.4152539 0.70994139 -0.072427064 0.99368006
-1.3307421 0.70995116 -0.06899254 0.9939788
-1.2913867 0.70994139 -0.067410089 0.99411654
-1.1834179 0.70995116 -0.063126981 0.99448931
-1.1187304 0.70993161 -0.060607146 0.9947086
-1.0882226 0.70993161 -0.059435196 0.99481082
-1.0320117 0.76976562 -0.058891866 0.99485797
-1.031875 0.79006833 -0.059447553 0.99480969
-1.0317383 0.81074214 -0.060023155 0.99475962
-1.0316211 0.83181638 -0.060619734 0.9947077
-1.0313867 0.87530273 -0.061878357 0.99459803
-1.0311133 0.92062497 -0.063230745 0.99448031
-1.030957 0.9440527 -0.063944548 0.9944182
-6.2842774 6.0517282 -0.39908043 0.96566898
-6.0513673 6.2839255 -0.399057 0.96567094
-5.8913083 6.4337301 -0.39904091 0.96567231
-5.3892384 6.8583884 -0.39899042 0.96567655
-5.2149801 6.9913669 -0.39897293 0.96567792
-4.4861522 7.4780664 -0.39889982 0.96568418
-4.3917189 7.5336719 -0.39889038 0.96568495
-4.2008395 7.6412692 -0.39887121 0.96568662
-3.7671678 7.7513671 -0.39422265 0.96607935
-3.6468358 7.7500196 -0.39179367 0.96628493
-3.1795311 7.7448826 -0.38296223 0.96703213
-2.9533985 7.7423825 -0.37904716 0.96736354
-2.8420117 7.7411423 -0.37720889 0.96751928
-2.406621 7.7363281 -0.37060714 0.96807867
-1.9851366 7.7316599 -0.36513752 0.96854228
-1.7787695 7.7293844 -0.36280304 0.96874017
-1.6765429 7.7282615 -0.36173332 0.96883094
-1.4738085 7.7260156 -0.35978094 0.96899658
-1.3732226 7.7249122 -0.35889685 0.96907151
-1.2731054 7.7237988 -0.3580735 0.96914136
-1.0742383 7.7215819 -0.3566069 0.96926582
-0.97535151 7.7204881 -0.3559618 0.96932048
-0.87681639 7.7194138 -0.35537696 0.96937019
-0.77855468 7.7183299 -0.35484809 0.96941507
-0.68060547 7.717236 -0.35437658 0.96945506
-0.58291012 7.7161617 -0.35396239 0.96949017
-0.38808593 7.713994 -0.35330451 0.96954608
-0.19386718 7.7118554 -0.35287246 0.9695828
-0.096933588 7.7108006 -0.35273963 0.96959394
0.38763672 7.7054391 -0.35291198 0.96957928
0.48470703 7.7043653 -0.3531146 0.96956217
0.58189452 7.7032809 -0.35337296 0.9695403
0.97259766 7.6989746 -0.35496992 0.9694047
1.3678319 7.6946092 -0.35748878 0.96919096
1.4675976 7.6935153 -0.35826576 0.96912497
1.9738867 7.6879101 -0.36307147 0.96871746
2.2849805 7.6844921 -0.36671829 0.96840817
2.3901367 7.6833301 -0.36806723 0.96829385
2.7104883 7.6797848 -0.37252918 0.96791565
3.1508398 7.674912 -0.37950224 0.96732503
3.2635546 7.6736717 -0.38143894 0.96716112
3.3774805 7.6724119 -0.38345638 0.96699041
3.8461328 7.6672459 -0.39237091 0.96623594
3.9668164 7.6658883 -0.39482346 0.96602863
4.1920505 7.6252637 -0.39803532 0.96575719
4.3821092 7.5171385 -0.39801651 0.96575892
4.5694337 7.4043064 -0.39799798 0.96576041
4.7538476 7.2867966 -0.39797968 0.96576196
4.844902 7.2263184 -0.39797068 0.96576279
4.9352536 7.1647263 -0.39796177 0.96576339
5.3747849 6.839951 -0.39791831 0.96576715
5.7111912 6.5606933 -0.39788511 0.96577001
5.8740039 6.4148631 -0.39786905 0.96577132
5.9540429 6.3404002 -0.39786115 0.96577203
6.0331054 6.2649708 -0.39785337 0.96577269
6.1112695 6.1885448 -0.39784569 0.96577328
6.4140038 5.8732224 -0.39781585 0.96577585
6.5593162 5.7099805 -0.39780155 0.9657771
6.6304493 5.6270118 -0.39779457 0.96577764
6.7005467 5.5431442 -0.39778766 0.96577811
6.7695508 5.4584179 -0.3977809 0.96577871
6.8374805 5.3728318 -0.39777419 0.9657793
1.2614648 0.89250976 -0.070684776 0.99383157
1.2617188 0.84590816 -0.069484673 0.99393594
1.2620507 0.77882808 -0.067836605 0.99407929
1.2621288 0.75714844 -0.067325398 0.99412394
1.2623632 0.71477538 -0.066356197 0.99420804
1.3307617 0.70994139 -0.068992347 0.99397874
1.3719727 0.70992184 -0.070662647 0.99383354
1.4608008 0.70993161 -0.074294128 0.99351764
1.5592773 0.70993161 -0.078371197 0.99316317
1.6127343 0.70994139 -0.080602221 0.99296916
1.8611327 0.70994139 -0.091116942 0.99205565
2.0210352 0.71331054 -0.098037563 0.9914549
2.0209179 0.68482423 -0.097604901 0.99149227
10.491191 3.11958 -0.50066358 0.95712
10.566113 2.854912 -0.50065643 0.95712066
10.750781 2.0508301 -0.5006389 0.95712209
10.798808 1.7799902 -0.50063437 0.9571225
10.820332 1.6441406 -0.50063241 0.9571225
10.840097 1.5080273 -0.50063056 0.95712262
10.874473 1.235127 -0.50062746 0.95712304
10.889082 1.0983789 -0.50062615 0.95712322
10.913261 0.82441401 -0.500624 0.95712316
10.922675 0.68719727 -0.50062317 0.95712346
10.936464 0.41249022 -0.50062215 0.95712358
10.940801 0.2750293 -0.50062186 0.95712352
10.944258 -0 -0.5006218 0.95712352
10.943378 -0.13753906 -0.50062203 0.95712358
10.940801 -0.27501953 -0.50062245 0.95712352
10.936503 -0.41249999 -0.50062299 0.95712346
10.922753 -0.68720704 -0.50062466 0.95712316
10.889121 -1.0984082 -0.50062847 0.95712304
10.858222 -1.3717188 -0.50063181 0.9571225
10.798945 -1.7800097 -0.50063813 0.95712197
10.750917 -2.0508497 -0.50064319 0.95712155
10.724317 -2.1857812 -0.500646 0.95712149
10.634512 -2.5884862 -0.50065541 0.95712066
10.566269 -2.8549609 -0.50066251 0.95712
10.529629 -2.9875293 -0.50066626 0.95711976
10.491347 -3.1196387 -0.50067025 0.95711941
2.0209179 -0.68483394 -0.097604938 0.99149227
2.0210741 -0.71331054 -0.098037682 0.99145472
1.9337695 -0.70995116 -0.094228014 0.99178541
1.7293164 -0.70995116 -0.085510477 0.99254262
1.6693164 -0.70996094 -0.082977027 0.99276268
1.6127343 -0.70996094 -0.080601998 0.9929691
1.5087304 -0.70995116 -0.076272123 0.99334556
1.4152734 -0.70996094 -0.072427064 0.99368
1.3307421 -0.70995116 -0.068992577 0.9939788
1.2623242 -0.71478516 -0.066356353 0.99420816
1.2621288 -0.75717771 -0.067325398 0.99412388
1.2618164 -0.82321286 -0.068915784 0.99398541
1.261582 -0.86903316 -0.070073925 0.99388462
1.2613086 -0.91642576 -0.071317367 0.99377662
6.8404293 -5.3751268 -0.39794648 0.96576488
6.7724805 -5.4607811 -0.3979533 0.96576416
6.6333399 -5.6294532 -0.39796737 0.96576297
6.5622067 -5.712461 -0.39797455 0.96576238
6.4168162 -5.8757715 -0.39798918 0.96576113
6.3425779 -5.9560547 -0.39799666 0.96576053
6.1911325 -6.1138086 -0.39801192 0.96575922
6.1139255 -6.1912599 -0.39801967 0.96575856
5.9566598 -6.3431931 -0.3980355 0.96575719
5.8766208 -6.4176464 -0.39804354 0.96575654
5.7136912 -6.5635839 -0.39805996 0.96575522
5.6308789 -6.6349998 -0.39806828 0.96575451
5.5472069 -6.7053709 -0.39807668 0.96575373
5.3771677 -6.8429785 -0.39809376 0.96575224
5.2908592 -6.9101367 -0.3981024 0.96575159
5.1157813 -7.0412498 -0.39811999 0.96574998
4.9374218 -7.1679001 -0.3981379 0.96574855
4.7559571 -7.2900195 -0.39815611 0.96574706
4.6641212 -7.3493943 -0.39816532 0.96574616
4.5715036 -7.4076071 -0.39817461 0.96574533
4.3840818 -7.5204687 -0.39819339 0.96574396
4.1938868 -7.6286325 -0.39821246 0.96574235
3.9036717 -7.7818651 -0.39824149 0.96573985
3.8056836 -7.8305173 -0.39825132 0.96573889
3.7070897 -7.8778906 -0.39826122 0.96573818
3.6078711 -7.9240427 -0.39827114 0.9657374
3.2054882 -8.0961323 -0.39831141 0.96573395
2.6911719 -8.2825003 -0.39836285 0.96572959
2.5869336 -8.3158979 -0.39837325 0.9657287
2.482285 -8.3479681 -0.39838371 0.96572781
2.3772655 -8.3786917 -0.3983942 0.96572703
2.1566992 -8.399765 -0.39669392 0.96587086
1.8214258 -8.3960638 -0.39299569 0.9661836
1.6011914 -8.3936224 -0.39087385 0.96636307
1.1670312 -8.3888283 -0.38742712 0.96665472
0.95255858 -8.3864546 -0.38608953 0.96676791
0.73943359 -8.3841009 -0.38500273 0.96685982
0.42162108 -8.3805952 -0.3838388 0.96695834
0.31607422 -8.3794241 -0.38357365 0.96698081
-0.21048827 -8.3736029 -0.38315654 0.96701622
-0.42115232 -8.3712788 -0.38341326 0.96699446
-0.52660155 -8.3701172 -0.38363114 0.96697587
-1.0566602 -8.3642673 -0.38564837 0.96680522
-1.1634766 -8.3630857 -0.38623804 0.96675533
-1.2706054 -8.3618946 -0.38688967 0.9667002
-1.3781054 -8.3607025 -0.3876043 0.96663964
-1.8127148 -8.3558884 -0.39111602 0.96634269
-1.9226757 -8.3546772 -0.39215839 0.96625441
-2.0332618 -8.3534565 -0.39326942 0.96616048
-2.2563868 -8.3510056 -0.39569807 0.96595496
-2.3690624 -8.3497553 -0.39701837 0.96584332
-2.482461 -8.348506 -0.39841178 0.9657256
-2.6947851 -8.2936716 -0.39889929 0.96568418
-2.7988281 -8.2593555 -0.3989096 0.9656834
-3.1083984 -8.1486521 -0.39894035 0.96568072
-3.2106249 -8.1091309 -0.39895049 0.96567994
-3.4135742 -8.0262985 -0.3989706 0.96567822
-3.6143553 -7.9383593 -0.39899051 0.96567661
-4.0090623 -7.7474999 -0.39902961 0.96567321
-4.5819335 -7.4245505 -0.3990863 0.96566844
-4.6749606 -7.3665524 -0.39909554 0.96566767
-4.7672458 -7.3074021 -0.39910468 0.96566695
-4.9495897 -7.1856151 -0.39912269 0.96566546
-5.0396485 -7.1230173 -0.39913163 0.96566457
-5.1288671 -7.0592966 -0.39914042 0.96566379
-5.2172852 -6.994453 -0.39914915 0.96566302
-5.3916211 -6.8613963 -0.39916638 0.9656617
-5.5625978 -6.7240329 -0.39918327 0.96566021
-5.6467576 -6.6537304 -0.39919159 0.96565956
-5.8124413 -6.5099902 -0.39920792 0.96565813
-5.8939257 -6.4365821 -0.39921597 0.96565735
-5.9744139 -6.3621287 -0.39922389 0.96565682
-6.0540037 -6.2866893 -0.39923176 0.96565616
-6.1326365 -6.2102246 -0.39923948 0.96565557
-6.3627539 -5.9749999 -0.39926216 0.96565354
-1.0311133 -0.92064452 -0.063230701 0.99448025
-1.0312696 -0.89774412 -0.062542304 0.9945401
-1.0315039 -0.85335934 -0.061237752 0.99465376
-1.0316601 -0.8318457 -0.060619619 0.99470752
-1.0317383 -0.81077147 -0.06002304 0.99475956
-1.0319726 -0.76979488 -0.058891982 0.99485803
-1.0320898 -0.74987304 -0.058355443 0.9949047
-1.0321875 -0.73031247 -0.057838093 0.99494982
-1.0882226 -0.70995116 -0.059435081 0.99481076
-1.1186913 -0.70995116 -0.060607221 0.99470872
-1.1503906 -0.70996094 -0.06183647 0.99460167
-1.2538086 -0.70996094 -0.065908618 0.99424714
-1.2913867 -0.70996094 -0.067410007 0.99411649
-1.3307226 -0.70995116 -0.068992384 0.99397886
-1.4607812 -0.70996094 -0.074293748 0.99351764
-1.5087109 -0.70997071 -0.076271936 0.99334562
-1.6127148 -0.70997071 -0.080601767 0.99296916
-1.6692773 -0.70998043 -0.082977064 0.99276274
-1.7293164 -0.70995116 -0.085510328 0.99254262
-1.785293 -0.70685548 -0.087832414 0.99234092
-1.7852343 -0.68100584 -0.087401122 0.99237835
-1.7851367 -0.65541989 -0.086987644 0.99241436
-10.494902 -3.2648046 -0.50276065 0.95694447
-10.535254 -3.1326854 -0.50276452 0.95694387
-10.646035 -2.7334473 -0.50277513 0.95694309
-10.770176 -2.1951368 -0.50278693 0.95694208
-10.796972 -2.0596483 -0.50278944 0.95694184
-10.845429 -1.7876757 -0.50279397 0.95694143
-10.886992 -1.5145605 -0.50279784 0.95694119
-10.905195 -1.377666 -0.50279951 0.95694107
-10.921659 -1.2404981 -0.502801 0.95694101
-10.936425 -1.1031641 -0.50280231 0.95694089
-10.960761 -0.82799804 -0.50280446 0.95694059
-10.978145 -0.55229491 -0.50280589 0.95694047
-10.984199 -0.41427734 -0.50280637 0.95694053
-10.991172 -0.138125 -0.50280678 0.95694041
-10.360937 0.13020508 -0.50274372 0.95935339
-10.358418 0.26038086 -0.5027433 0.95935363
-10.354297 0.39052734 -0.50274277 0.95935374
-10.34121 0.65061522 -0.50274122 0.95935374
-10.321543 0.91026366 -0.50273895 0.95935398
-10.279824 1.2986523 -0.50273436 0.95935422
-10.262656 1.4277148 -0.50273252 0.9593544
-10.243848 1.556543 -0.50273049 0.95935464
-10.223476 1.6851465 -0.50272834 0.95935464
-10.201406 1.8134766 -0.50272602 0.959355
-10.097207 2.3237011 -0.50271511 0.95935577
-10.067129 2.4503808 -0.50271195 0.95935607
-10.035488 2.5766699 -0.50270867 0.95935631
-10.002285 2.7025585 -0.50270522 0.95935643
-9.931035 2.9530175 -0.50269789 0.95935714
-9.8930664 3.0775585 -0.50269395 0.95935744
-9.8124018 3.3251367 -0.50268567 0.95935822
-1.7860351 0.65569335 -0.092312276 0.99240965
-1.5592773 0.70994139 -0.083128162 0.99316227
-1.4607812 0.70995116 -0.078803785 0.9935168
-1.3719727 0.70992184 -0.074951701 0.99383277
-1.3307421 0.70995116 -0.073180385 0.99397796
-1.2538086 0.70993161 -0.069909327 0.99424642
-1.217832 0.70994139 -0.068396874 0.99437064
-1.1504102 0.70995116 -0.065590054 0.99460089
-1.0315235 0.72979492 -0.061307602 0.9949525
-1.0313867 0.74933594 -0.061855923 0.99490756
-1.0311524 0.78950197 -0.063012466 0.99481267
-1.030918 0.83124995 -0.064254187 0.99471062
-1.0306445 0.87466794 -0.065587461 0.99460119
-1.0302148 0.9433496 -0.067775726 0.99442154
-5.9241209 5.7049122 -0.39904493 0.96760011
-5.8518748 5.7788181 -0.39903766 0.96760058
-5.7786913 5.8517966 -0.3990303 0.96760112
-5.6295896 5.9949317 -0.39901531 0.96760237
-5.4769726 6.1342773 -0.39899993 0.9676035
-5.3993554 6.2024999 -0.39899215 0.96760416
-5.3208399 6.2697167 -0.39898425 0.96760494
-4.9987302 6.5286231 -0.39895192 0.96760738
-4.9161911 6.5907812 -0.39894363 0.96760809
-4.8328319 6.6518946 -0.39893523 0.96760887
-4.2291598 7.0496774 -0.3988747 0.96761364
-3.9601758 7.2035837 -0.39884773 0.96761578
-3.8692577 7.2526169 -0.39883864 0.9676165
-3.7777538 7.3005075 -0.39882946 0.96761715
-3.6856248 7.3472166 -0.39882025 0.96761793
-3.5929101 7.3927832 -0.39881095 0.9676187
-3.4996288 7.4371972 -0.39880159 0.96761936
-3.4058397 7.4803805 -0.39879221 0.96762019
-3.2166209 7.563242 -0.39877331 0.96762174
-3.1212499 7.6029 -0.39876372 0.96762246
-2.8323243 7.7145801 -0.39873484 0.96762466
-2.6224022 7.7387109 -0.39644763 0.96780729
-2.406621 7.7363281 -0.39310196 0.96807456
-2.0893164 7.732832 -0.38864395 0.96843088
-1.9850976 7.7316599 -0.38730136 0.96853828
-1.6765234 7.7282615 -0.38368949 0.96882695
-1.1734766 7.7227049 -0.37899932 0.96920204
-0.97533202 7.7205076 -0.37756866 0.96931648
-0.87677735 7.7194333 -0.37694639 0.96936619
-0.77855468 7.7183495 -0.3763864 0.96941102
-0.58289063 7.7161617 -0.37544784 0.96948624
-0.4853906 7.7150879 -0.37506953 0.96951652
-0.19386718 7.711875 -0.37429103 0.9695788
-0.096894532 7.7108006 -0.37414971 0.96959007
0 7.7097263 -0.37406975 0.96959656
0.096855469 7.708662 -0.37404591 0.96959835
0.19376953 7.7075877 -0.37408298 0.96959543
0.29066405 7.706533 -0.37417811 0.96958768
0.38763672 7.7054586 -0.37433371 0.96957535
0.48470703 7.7043848 -0.37454754 0.96955818
0.58189452 7.7033005 -0.37482184 0.9695363
0.87455076 7.7000585 -0.37600181 0.96944189
0.97259766 7.6989942 -0.37651649 0.9694007
1.070918 7.6979003 -0.37709144 0.96935469
1.4676367 7.6935153 -0.38001359 0.96912098
1.5678124 7.6924119 -0.3809008 0.96904993
1.668496 7.6912985 -0.38185439 0.9689737
1.8715038 7.6890426 -0.38395712 0.96880555
1.9738867 7.6879296 -0.38510886 0.9687134
2.0769336 7.6867871 -0.38632849 0.96861583
2.1805859 7.6856346 -0.38761854 0.96851283
2.2849805 7.6844921 -0.38897768 0.96840411
2.3901367 7.6833301 -0.39040878 0.96828973
2.6028321 7.6809764 -0.39348978 0.96804357
2.7104883 7.6797848 -0.39514285 0.96791154
2.8190429 7.6785836 -0.39687264 0.96777338
2.9286132 7.6773629 -0.39868003 0.96762896
3.0208592 7.629775 -0.39815196 0.96767133
3.1164258 7.5910349 -0.39814246 0.96767211
3.4000781 7.4676657 -0.39811435 0.96767431
3.5865037 7.3795114 -0.39809585 0.96767581
3.7706444 7.2867184 -0.39807764 0.96767724
3.8618164 7.2386036 -0.39806861 0.96767795
3.9524024 7.1893554 -0.39805964 0.96767861
4.2202539 7.0348144 -0.39803314 0.96768075
4.3955274 6.9262009 -0.39801577 0.96768224
4.4821286 6.8703027 -0.39800718 0.96768278
4.6531444 6.7551951 -0.39799029 0.96768427
4.8212304 6.635869 -0.39797369 0.96768552
5.0675974 6.4490333 -0.39794937 0.96768755
5.2278709 6.319375 -0.39793354 0.9676888
5.3848243 6.185791 -0.39791802 0.96768993
5.5383787 6.0482812 -0.39790291 0.96769112
5.6138477 5.9780955 -0.39789546 0.96769172
5.8348045 5.7619333 -0.39787367 0.96769363
5.9775782 5.6132908 -0.3978596 0.96769464
6.0475192 5.5376563 -0.39785269 0.96769518
6.1165428 5.461123 -0.39784589 0.96769571
6.3827929 5.1465626 -0.39781973 0.9676978
6.4468555 5.0658884 -0.39781344 0.96769828
1.2608984 0.84536129 -0.073654018 0.99393904
1.2609766 0.82264644 -0.073051147 0.99398869
1.2611133 0.80031246 -0.072469331 0.99403632
1.2614257 0.73534179 -0.070843965 0.99416977
1.2615039 0.71431637 -0.070339814 0.9942112
1.2913867 0.70993161 -0.071501918 0.99411577
1.3307226 0.70992184 -0.07318043 0.99397814
1.4152539 0.70993161 -0.076823689 0.99367929
1.4608008 0.70993161 -0.078803785 0.99351674
1.5592773 0.70993161 -0.083128199 0.99316227
1.6693164 0.70995116 -0.088013873 0.99276173
1.7293359 0.70994139 -0.090701103 0.99254161
1.793164 0.70995116 -0.093572617 0.99230629
1.9337695 0.70994139 -0.099948004 0.99178433
2.0229101 0.6572656 -0.1032 0.99151814
9.8543158 3.0655174 -0.50072706 0.95951337
9.9281635 2.8168652 -0.50072002 0.95951366
9.962656 2.6918652 -0.50071669 0.95951414
9.9956446 2.5664356 -0.50071353 0.95951438
10.085097 2.1878221 -0.500705 0.95951504
10.111777 2.0609472 -0.5007025 0.95951509
10.253457 1.1645995 -0.50068933 0.95951617
10.267246 1.0356543 -0.50068814 0.95951635
10.279414 0.90655273 -0.50068706 0.95951647
10.298925 0.64793944 -0.50068539 0.95951658
10.315996 0.25931641 -0.50068408 0.9595167
10.319238 -0 -0.50068402 0.95951676
10.306231 -0.51848632 -0.50068593 0.95951664
10.298965 -0.64796871 -0.50068676 0.95951641
10.290039 -0.7773242 -0.50068778 0.95951629
10.279492 -0.90657222 -0.50068897 0.95951617
10.267285 -1.0356641 -0.50069034 0.95951617
10.221074 -1.4219433 -0.50069535 0.95951569
10.202441 -1.5502636 -0.50069731 0.95951557
10.182187 -1.6783496 -0.50069946 0.95951539
10.056973 -2.3144531 -0.50071263 0.95951438
9.9957619 -2.5664744 -0.50071901 0.9595139
9.9627733 -2.6918945 -0.50072241 0.95951366
9.9282618 -2.8168945 -0.50072598 0.95951331
9.8544722 -3.0655565 -0.50073361 0.95951271
2.0230663 -0.6855371 -0.10363895 0.9914822
2.0232227 -0.71405274 -0.10409915 0.99144459
1.9337695 -0.70993161 -0.099947773 0.99178439
1.8611132 -0.70994139 -0.096647337 0.99205464
1.7931445 -0.70994139 -0.093572155 0.99230641
1.7293164 -0.70995116 -0.090700909 0.99254167
1.6127343 -0.70996094 -0.085494496 0.9929682
1.5592968 -0.70995116 -0.08312805 0.99316216
1.4152734 -0.70996094 -0.076823346 0.99367917
1.3719727 -0.70995116 -0.074951664 0.99383271
1.2615234 -0.71432614 -0.070339777 0.99421108
1.2614257 -0.73535156 -0.070843883 0.99416971
1.2613086 -0.75668943 -0.071366653 0.99412692
1.2612305 -0.7783398 -0.071908034 0.99408233
1.2611133 -0.80034178 -0.072469443 0.99403626
1.2608789 -0.84537107 -0.07365375 0.9939391
1.2607422 -0.86844724 -0.074278332 0.9938879
1.260625 -0.89191407 -0.074924961 0.99383485
1.260332 -0.94011718 -0.0762894 0.99372303
6.3855271 -5.1487794 -0.39799151 0.96768415
6.3204293 -5.2287107 -0.39799806 0.96768361
6.1872654 -5.3860645 -0.39801154 0.96768248
6.1191602 -5.4634862 -0.39801836 0.967682
6.0501366 -5.540029 -0.39802536 0.96768153
5.9801755 -5.6157517 -0.3980324 0.96768075
5.8373632 -5.7644529 -0.39804679 0.96767968
5.7645702 -5.837451 -0.39805412 0.96767914
5.3871875 -6.1884961 -0.39809206 0.96767604
5.309082 -6.2558103 -0.39809993 0.96767551
4.7396679 -6.6990137 -0.39815712 0.96767086
4.6552148 -6.7581735 -0.39816558 0.9676702
4.4841208 -6.8733201 -0.39818275 0.96766877
4.3974609 -6.9292579 -0.39819145 0.96766824
4.3101563 -6.9841208 -0.39820018 0.96766752
3.9541404 -7.1925097 -0.39823586 0.96766466
3.8635547 -7.241816 -0.39824492 0.96766382
3.6805077 -7.3369532 -0.39826328 0.96766239
3.5881054 -7.3828025 -0.39827254 0.96766162
3.4950976 -7.4274607 -0.39828184 0.96766102
3.2129297 -7.5544724 -0.3983101 0.96765864
3.0221679 -7.633193 -0.39832917 0.96765715
2.8295898 -7.7070994 -0.39834842 0.96765554
2.732578 -7.7422071 -0.39835814 0.96765488
2.6351366 -7.7761621 -0.39836788 0.96765399
2.4389844 -7.8402929 -0.39838743 0.9676525
2.340332 -7.8705077 -0.39839733 0.96765178
2.1419141 -7.9272361 -0.39841715 0.96765018
1.9421093 -7.9789548 -0.39843711 0.96764857
1.7410742 -8.0256538 -0.39845717 0.96764696
1.0294532 -8.149004 -0.39852822 0.96764135
0.61878908 -8.1912985 -0.39856917 0.96763802
0.51582032 -8.1986227 -0.39857939 0.96763724
0.41277343 -8.2046776 -0.3985897 0.96763641
0.20646484 -8.2128906 -0.39861023 0.96763474
0.10326172 -8.2150583 -0.39862052 0.9676339
0 -8.2159081 -0.39863083 0.96763313
-0.3096875 -8.2107229 -0.39866164 0.96763057
-0.4128125 -8.2063866 -0.3986719 0.96762979
-0.515957 -8.2007713 -0.39868218 0.9676289
-0.72191405 -8.185605 -0.39870268 0.96762741
-0.82472652 -8.1761036 -0.3987129 0.96762657
-0.92744136 -8.1653128 -0.39872313 0.96762574
-1.2346094 -8.1251659 -0.39875364 0.96762335
-1.3366601 -8.1092377 -0.39876381 0.96762246
-1.742578 -8.0326366 -0.39880416 0.96761924
-1.8434374 -8.0103216 -0.3988142 0.96761841
-1.9440038 -7.9867382 -0.39882419 0.96761757
-2.0442383 -7.961875 -0.39883414 0.9676168
-2.14416 -7.9357419 -0.39884406 0.96761608
-2.4419336 -7.8498535 -0.39887366 0.96761376
-2.5404687 -7.8187399 -0.39888343 0.96761292
-2.6385741 -7.7863865 -0.39889315 0.96761215
-2.7362695 -7.7528124 -0.3989028 0.96761137
-3.2180662 -7.5666113 -0.39895064 0.96760756
-3.4073632 -7.4837108 -0.39896941 0.96760601
-3.5945311 -7.3960352 -0.39898795 0.96760464
-4.0522852 -7.1566014 -0.39903328 0.96760088
-4.3194141 -6.9992285 -0.39905974 0.96759886
-4.4071484 -6.9445605 -0.39906842 0.96759802
-4.4941406 -6.8887596 -0.399077 0.96759748
-4.5804491 -6.8319039 -0.39908552 0.96759671
-4.7508984 -6.7149119 -0.39910239 0.9675954
-4.8349805 -6.6548243 -0.3991107 0.9675948
-5.0009179 -6.5314746 -0.39912713 0.96759343
-5.1636915 -6.4040136 -0.39914322 0.96759212
-5.4016991 -6.2051854 -0.39916667 0.96759033
-5.6320505 -5.997539 -0.39918941 0.96758848
-5.7812109 -5.8543262 -0.39920411 0.96758729
-5.9266992 -5.7073922 -0.39921844 0.96758622
-1.0301758 -0.94337887 -0.06777557 0.9944216
-1.0306445 -0.87469727 -0.065587349 0.99460113
-1.0310352 -0.81019527 -0.063622318 0.99476248
-1.0311328 -0.78954101 -0.063012697 0.99481261
-1.0316015 -0.71061522 -0.060778312 0.99499601
-1.2178711 -0.70996094 -0.06839668 0.99437046
-1.3307226 -0.70995116 -0.073180161 0.99397808
-1.4152539 -0.70996094 -0.07682316 0.99367923
-1.5087109 -0.70997071 -0.080901675 0.99334472
-1.6127148 -0.70997071 -0.085494265 0.99296826
-1.7861524 -0.70718747 -0.093208887 0.99233627
-1.7860351 -0.65573239 -0.092311971 0.99240959
-9.8536911 -3.2016797 -0.50269669 0.95935708
-9.8931837 -3.0775976 -0.50270051 0.95935696
-10.002343 -2.7026074 -0.502711 0.95935619
-10.067226 -2.4504004 -0.5027172 0.95935571
-10.125742 -2.1966698 -0.50272274 0.95935524
-10.177832 -1.9415332 -0.50272763 0.95935488
-10.201523 -1.813496 -0.50272989 0.95935452
-10.243945 -1.5565722 -0.50273383 0.95935422
-10.309317 -1.0399121 -0.50273985 0.95935386
-10.321621 -0.91028321 -0.50274086 0.95935369
-10.348613 -0.52061522 -0.50274318 0.95935357
-10.354355 -0.39052734 -0.5027436 0.95935351
-10.358496 -0.26038086 -0.50274384 0.95935333
-10.360918 -0.13021484 -0.50274396 0.95935345
-9.7996483 -0 -0.50268793 0.96151018
-9.7988672 0.12313476 -0.50268769 0.96151018
-9.7872066 0.49237305 -0.5026862 0.96151042
-9.7802143 0.61531246 -0.50268537 0.96151054
-9.7616596 0.86089844 -0.50268322 0.96151054
-9.7500582 0.98347652 -0.50268197 0.9615106
-9.7368746 1.1059473 -0.50268048 0.96151084
-9.7059565 1.3502442 -0.50267714 0.96151102
-9.6688862 1.5937304 -0.50267321 0.96151131
-9.6480274 1.7150977 -0.502671 0.96151155
-9.5764256 2.0774999 -0.50266349 0.96151197
-9.5210543 2.3174608 -0.50265771 0.96151251
-9.4911127 2.4369042 -0.50265461 0.9615128
-9.4596682 2.5559764 -0.50265133 0.9615131
-9.4267769 2.6746192 -0.50264794 0.96151322
-9.3923626 2.7928417 -0.50264436 0.96151346
-9.3190823 3.0279686 -0.50263685 0.96151394
-9.2398825 3.2611229 -0.50262868 0.96151465
-1.786875 0.65603513 -0.097642861 0.992405
-1.7292773 0.70995116 -0.095892444 0.99254078
-1.5592773 0.70994139 -0.087886468 0.99316132
-1.5087304 0.70992184 -0.085532568 0.99334383
-1.4607812 0.70995116 -0.083314128 0.99351591
-1.3719727 0.70992184 -0.079241939 0.99383193
-1.3307421 0.70995116 -0.077369153 0.99397719
-1.2913867 0.70994139 -0.075594291 0.99411494
-1.0307031 0.74883789 -0.065352626 0.99491024
-1.0304492 0.78897458 -0.066573754 0.99481541
-1.030332 0.80961913 -0.067217521 0.9947654
-1.0297656 0.89641601 -0.070034519 0.99454665
-1.0296289 0.91927731 -0.070804253 0.99448681
-1.0294336 0.94263667 -0.071602397 0.994425
-5.6029491 5.3956151 -0.39901328 0.96932524
-5.3953319 5.6026754 -0.39899239 0.96932679
-5.1066403 5.8662596 -0.39896336 0.96932894
-5.032402 5.9298534 -0.39895591 0.9693296
-4.9574413 5.9924903 -0.39894834 0.96933013
-4.8050976 6.1149802 -0.39893305 0.96933115
-4.7277732 6.174746 -0.39892527 0.9693318
-4.6496873 6.2335253 -0.39891747 0.96933258
-4.4111915 6.4039841 -0.39889351 0.96933424
-3.9999609 6.6676168 -0.39885226 0.96933746
-3.830996 6.7657614 -0.39883533 0.96933866
-3.6595898 6.8595996 -0.39881817 0.96933997
-3.3982227 6.9921775 -0.398792 0.96934205
-3.3100195 7.0341697 -0.39878315 0.96934271
-3.2212889 7.075078 -0.39877427 0.9693433
-3.1320899 7.1148338 -0.39876533 0.9693439
-2.952168 7.1909571 -0.39874732 0.96934533
-2.770371 7.2625484 -0.39872918 0.96934676
-2.586875 7.3295407 -0.39871082 0.96934813
-2.4945116 7.3613086 -0.39870158 0.96934879
-2.3086524 7.4213085 -0.39868301 0.96935022
-2.2151368 7.4495797 -0.39867365 0.96935087
-2.121289 7.4766402 -0.39866427 0.96935165
-1.9326757 7.527236 -0.39864543 0.96935302
-1.8378711 7.5507421 -0.39863598 0.96935374
-1.742793 7.5730758 -0.39862648 0.96935445
-1.6474414 7.5941601 -0.39861697 0.96935529
-0.58289063 7.7161813 -0.39693913 0.969482
-0.19386718 7.711875 -0.39571586 0.96957463
-0.096894532 7.7108006 -0.3955667 0.9695859
0 7.7097263 -0.3954801 0.96959245
0.38763672 7.7054391 -0.39576033 0.96957123
0.48470703 7.7043848 -0.39598736 0.96955407
0.58189452 7.7033005 -0.39627612 0.96953219
0.6792773 7.7022262 -0.3966291 0.96950549
0.77681637 7.7011523 -0.39704451 0.96947396
0.97259766 7.6989942 -0.39806899 0.96939653
1.070918 7.6979003 -0.39867687 0.96935052
1.2629101 7.661787 -0.39832702 0.96937716
1.4550195 7.627275 -0.39830792 0.96937853
2.0250976 7.4949021 -0.39825127 0.969383
2.5835547 7.3200684 -0.39819583 0.96938711
2.8574414 7.2170115 -0.39816868 0.96938908
3.127207 7.1037207 -0.39814192 0.96939105
3.2161522 7.0637107 -0.39813307 0.9693917
3.3045702 7.0225778 -0.39812434 0.96939242
3.566699 6.8925486 -0.39809838 0.96939451
3.65291 6.8470507 -0.39808983 0.96939516
3.7386131 6.8004684 -0.39808136 0.96939576
3.9920115 6.6543164 -0.39805624 0.9693976
4.157793 6.5516109 -0.39803985 0.96939892
4.239707 6.4987106 -0.39803177 0.96939957
4.401504 6.389863 -0.39801574 0.96940076
4.4813867 6.3339257 -0.39800784 0.9694013
4.5605273 6.2770114 -0.39800003 0.96940184
4.6389451 6.2190919 -0.39799228 0.96940243
4.7935743 6.1002927 -0.39797702 0.96940362
4.8697848 6.0394821 -0.39796945 0.9694041
5.0936522 5.8513083 -0.39794737 0.96940589
5.1666794 5.7867188 -0.39794022 0.96940649
5.2388868 5.72124 -0.39793304 0.96940702
5.3102927 5.6548729 -0.397926 0.96940744
5.3808203 5.5875778 -0.39791909 0.96940809
5.6543946 5.309824 -0.39789212 0.96941006
5.7205663 5.2382617 -0.39788559 0.9694106
5.7858396 5.1658788 -0.39787918 0.96941108
5.8502145 5.0927048 -0.39787284 0.96941149
5.9761524 4.9439063 -0.39786044 0.96941251
6.0983396 4.7920117 -0.39784843 0.96941334
6.1579881 4.7149315 -0.39784259 0.96941382
1.259668 0.91516602 -0.079868466 0.99378318
1.2597852 0.89129883 -0.079160914 0.99383813
1.2600585 0.84479493 -0.077818677 0.99394226
1.2605274 0.75619137 -0.075403482 0.99412978
1.2606446 0.73488277 -0.074851647 0.99417257
1.2913867 0.70993161 -0.075594783 0.994115
1.5592773 0.70993161 -0.087886654 0.99316132
1.793164 0.70995116 -0.098928675 0.99230522
1.8611327 0.70996094 -0.10217964 0.99205345
1.9337695 0.70994139 -0.10566898 0.9917832
2.0241992 0.71442384 -0.11011211 0.99143928
2.0242188 0.68594724 -0.10963505 0.99147618
2.0242188 0.65770507 -0.10917869 0.99151146
9.3574409 2.7824609 -0.50077689 0.96165377
9.3916206 2.6646385 -0.50077361 0.96165395
9.4852142 2.3087304 -0.50076467 0.9616546
9.5134182 2.1893554 -0.50076199 0.96165484
9.5401363 2.0696094 -0.50075948 0.96165502
9.6993752 1.1016601 -0.50074464 0.96165615
9.7124414 0.97968745 -0.50074345 0.96165621
9.7239447 0.85758787 -0.50074244 0.96165639
9.7616596 -0 -0.50073957 0.96165651
9.7609177 -0.12266602 -0.50073975 0.96165639
9.7547655 -0.36791015 -0.50074065 0.96165633
9.734004 -0.73533201 -0.50074315 0.96165615
9.7239838 -0.8575781 -0.50074422 0.96165621
9.6319723 -1.5876563 -0.50075418 0.96165538
9.6113081 -1.7085644 -0.50075638 0.9616552
9.5402145 -2.0696387 -0.50076383 0.96165466
9.4852924 -2.3087597 -0.50076956 0.96165431
9.4555855 -2.427793 -0.50077266 0.96165407
9.4243555 -2.5464356 -0.50077587 0.96165395
9.3575583 -2.7825196 -0.50078279 0.96165323
2.0241992 -0.65771484 -0.10917877 0.99151152
2.0242383 -0.68593746 -0.1096347 0.99147612
2.0241992 -0.71441406 -0.11011207 0.99143928
1.9337695 -0.70993161 -0.10566852 0.99178326
1.8611132 -0.70994139 -0.10217918 0.99205357
1.7931445 -0.70994139 -0.098928146 0.99230534
1.7293164 -0.70995116 -0.095892332 0.9925406
1.6693164 -0.70994139 -0.093051642 0.99276078
1.4607617 -0.70996094 -0.083314128 0.99351597
1.2604101 -0.77784181 -0.075975455 0.99408537
1.2602929 -0.79981446 -0.076568067 0.99403936
1.2601757 -0.82212889 -0.07718239 0.99399167
1.2599024 -0.86786133 -0.078477934 0.99389118
1.2594726 -0.93949217 -0.080601461 0.99372637
6.1606054 -4.7169528 -0.39801344 0.96940094
6.1009569 -4.7940626 -0.39801946 0.96940047
5.9787302 -4.9460349 -0.39803183 0.96939951
5.9162302 -5.0208693 -0.39803809 0.96939892
5.8527536 -5.094873 -0.39804453 0.9693985
5.5217772 -5.4527831 -0.39807788 0.96939594
5.4528708 -5.5218263 -0.39808482 0.96939552
5.3831639 -5.5900097 -0.39809179 0.96939498
5.3125978 -5.6573243 -0.39809895 0.96939439
5.2412109 -5.7237401 -0.3981061 0.96939373
5.1689453 -5.789238 -0.3981134 0.96939331
4.7187109 -6.1628613 -0.39815864 0.96938986
4.640996 -6.2217965 -0.39816642 0.9693892
4.4833398 -6.336699 -0.39818224 0.96938813
4.2415819 -6.5015817 -0.3982065 0.96938622
4.1596093 -6.554492 -0.39821473 0.96938568
3.9937694 -6.6572266 -0.39823136 0.96938443
3.9098632 -6.7070408 -0.39823973 0.96938378
3.825371 -6.7558007 -0.39824826 0.96938306
3.6545508 -6.8500977 -0.39826533 0.96938175
3.5682421 -6.8956051 -0.398274 0.96938121
3.3940039 -6.9833789 -0.39829144 0.9693799
3.306035 -7.0256543 -0.39830023 0.96937919
3.2175586 -7.0667968 -0.39830908 0.96937853
3.1285741 -7.1068454 -0.39831802 0.96937782
2.8586915 -7.2201853 -0.39834502 0.96937585
2.6764648 -7.2900681 -0.39836326 0.96937448
2.584707 -7.3233008 -0.39837241 0.96937376
2.4925194 -7.3553905 -0.39838162 0.96937299
2.3070116 -7.4160447 -0.39840019 0.96937162
2.2136915 -7.4446287 -0.39840949 0.9693709
2.0260155 -7.4982519 -0.39842826 0.96936947
1.7420703 -7.5698338 -0.3984566 0.96936733
1.6468555 -7.5913086 -0.39846611 0.96936661
1.4556445 -7.6306543 -0.39848518 0.96936518
1.1670898 -7.6806445 -0.39851397 0.96936303
0.97376949 -7.7079296 -0.39853328 0.96936154
0.87681639 -7.7197266 -0.39854294 0.96936089
0.77976561 -7.7303414 -0.39855263 0.96936005
0.58529294 -7.7478905 -0.398572 0.96935856
0.19529296 -7.7682714 -0.39861086 0.96935558
1.953125e-05 -7.7711034 -0.39863032 0.96935409
-0.097636715 -7.7706542 -0.39864007 0.9693535
-0.19529296 -7.7690234 -0.39864978 0.96935266
-0.29291016 -7.7661424 -0.3986595 0.96935195
-0.39046875 -7.7620215 -0.39866918 0.96935129
-0.58546871 -7.7501659 -0.39868861 0.96934968
-0.68279296 -7.742373 -0.3986983 0.96934903
-0.87718749 -7.7231345 -0.39871764 0.9693476
-0.97419918 -7.7116795 -0.3987273 0.96934688
-1.2642382 -7.6700387 -0.39875615 0.96934468
-1.3605664 -7.6537304 -0.39876571 0.96934396
-1.4566991 -7.6362205 -0.39877528 0.96934319
-1.5525781 -7.6174903 -0.39878479 0.96934247
-1.6481836 -7.5975389 -0.39879432 0.96934187
-1.9335351 -7.5305762 -0.39882267 0.96933961
-2.0280468 -7.5058494 -0.39883205 0.96933895
-2.1222656 -7.4799705 -0.39884138 0.96933818
-2.495625 -7.3645701 -0.39887848 0.96933538
-2.5880272 -7.3328028 -0.39888763 0.96933466
-2.6800585 -7.2998533 -0.39889675 0.96933401
-2.771621 -7.2657809 -0.39890587 0.96933329
-2.8627539 -7.2305369 -0.39891487 0.96933264
-2.9534569 -7.19416 -0.39892387 0.96933192
-3.2227147 -7.0781932 -0.39895058 0.96933001
-3.3115039 -7.0372949 -0.39895937 0.9693293
-3.3997459 -6.9952927 -0.39896813 0.96932858
-3.5745897 -6.9079199 -0.39898545 0.96932739
-3.6611912 -6.862617 -0.39899406 0.96932673
-3.7472265 -6.8162107 -0.39900255 0.96932608
-3.8326757 -6.7687106 -0.39901099 0.96932548
-4.0853124 -6.6198926 -0.39903602 0.96932346
-4.3322067 -6.4616013 -0.39906043 0.96932161
-4.4131446 -6.4067869 -0.39906844 0.96932101
-4.4933786 -6.3509665 -0.39907637 0.96932036
-4.5729098 -6.2941012 -0.39908424 0.96931988
-4.7298241 -6.1774316 -0.39909974 0.96931869
-4.8071876 -6.1176267 -0.39910737 0.96931809
-4.95959 -5.9951072 -0.39912242 0.96931696
-5.1088476 -5.8688083 -0.39913714 0.96931589
-5.1823044 -5.8042579 -0.39914438 0.96931529
-5.3266993 -5.6723828 -0.39915863 0.96931428
-5.605371 -5.3979588 -0.39918607 0.96931213
-5.6728711 -5.3271775 -0.39919272 0.96931159
-1.0294532 -0.94265622 -0.071602248 0.99442488
-1.0299023 -0.8740527 -0.0692918 0.99460429
-1.0300391 -0.85214841 -0.068575785 0.9946599
-1.0301758 -0.83068359 -0.067884482 0.9947136
-1.0304492 -0.78899413 -0.066573791 0.99481541
-1.0306835 -0.74885738 -0.065352626 0.99491024
-1.0308007 -0.72934568 -0.064773709 0.99495518
-1.030918 -0.71013671 -0.064214744 0.99499863
-1.0589062 -0.70995116 -0.065396763 0.99490678
-1.1186913 -0.70995116 -0.067965694 0.99470729
-1.2178711 -0.70996094 -0.072311781 0.99436969
-1.2538086 -0.70997071 -0.073910937 0.99424559
-1.2913867 -0.70996094 -0.075594217 0.99411494
-1.3307226 -0.70995116 -0.077369079 0.99397725
-1.3719727 -0.70997071 -0.079241715 0.99383181
-1.4152539 -0.70996094 -0.081220664 0.99367833
-1.4607812 -0.70996094 -0.083314054 0.99351591
-1.5592773 -0.70996094 -0.087886237 0.99316126
-1.6692773 -0.70996094 -0.093051374 0.99276084
-1.7292773 -0.70993161 -0.095892176 0.99254078
-1.7870116 -0.70751953 -0.098592073 0.99233156
-1.7869335 -0.6816504 -0.09810745 0.99236906
-1.7868555 -0.65601563 -0.097642973 0.99240506
-9.2803316 -3.1448243 -0.50263959 0.96151382
-9.3565817 -2.9106739 -0.50264686 0.96151322
-9.3924799 -2.792871 -0.50265038 0.96151298
-9.4268942 -2.6746776 -0.50265366 0.96151268
-9.4597845 -2.5560057 -0.50265682 0.96151263
-9.49123 -2.4369433 -0.5026598 0.96151233
-9.5211525 -2.3175097 -0.50266266 0.96151215
-9.5765228 -2.0775292 -0.5026679 0.96151161
-9.6018944 -1.9570312 -0.50267029 0.96151149
-9.688261 -1.4721289 -0.50267839 0.9615109
-9.7369337 -1.1059375 -0.50268286 0.9615106
-9.7500782 -0.98348629 -0.50268406 0.96151054
-9.7616596 -0.86088866 -0.50268507 0.96151054
-9.7872849 -0.49238279 -0.50268722 0.96151012
-9.792676 -0.36934569 -0.50268763 0.96151018
-9.7965431 -0.24625976 -0.50268787 0.96151018
-9.7988472 -0.1231543 -0.50268799 0.9615103
-9.2952337 -9.7656248e-06 -0.50263768 0.96344948
-9.2923241 0.23359375 -0.50263715 0.96344936
-9.2834959 0.46702147 -0.50263602 0.96344942
-9.2768946 0.58365232 -0.50263524 0.96344942
-9.2687693 0.70018554 -0.50263429 0.96344966
-9.2592182 0.8165918 -0.50263321 0.96344972
-9.1514645 1.6268359 -0.50262165 0.96345061
-9.0835543 1.9705762 -0.5026145 0.96345097
-9.0579882 2.0845506 -0.50261182 0.96345127
-9.0310736 2.1981933 -0.50260907 0.96345133
-9.002656 2.3114941 -0.50260609 0.96345162
-8.9728518 2.4244335 -0.50260299 0.9634518
-8.9416208 2.5369823 -0.50259978 0.96345204
-8.908926 2.6490917 -0.50259638 0.96345252
-1.7877148 0.65635741 -0.10298046 0.99240029
-1.7878125 0.68200195 -0.10347065 0.99236423
-1.787871 0.70789063 -0.10398201 0.99232668
-1.7292773 0.70995116 -0.10108563 0.9925397
-1.6692969 0.70995116 -0.098091044 0.99275976
-1.5592773 0.70994139 -0.092646137 0.99316031
-1.4607812 0.70995116 -0.087826386 0.99351496
-1.3719727 0.70992184 -0.083533473 0.99383104
-1.3307421 0.70995116 -0.081559144 0.99397629
-1.2913867 0.70994139 -0.079688378 0.9941141
-1.2538086 0.70993161 -0.077913776 0.99424481
-1.1834179 0.70995116 -0.074625239 0.99448705
-1.0589257 0.70994139 -0.068938486 0.99490601
-1.0306445 0.70994139 -0.067675665 0.99499923
-1.0300976 0.72881836 -0.068235971 0.99495798
-1.0299804 0.74833006 -0.068845518 0.99491304
-1.0299023 0.76818359 -0.069476813 0.99486637
-1.0297461 0.78843749 -0.070130922 0.99481821
-1.0295898 0.80906248 -0.070808679 0.99476832
-1.0291992 0.87341797 -0.072992362 0.99460727
-5.3786912 5.0509567 -0.39899132 0.97087538
-5.3147264 5.1180468 -0.39898485 0.9708758
-5.2498827 5.1843457 -0.39897835 0.97087634
-5.1842771 5.2498341 -0.39897174 0.97087669
-4.9824219 5.4412208 -0.39895144 0.9708783
-4.9135938 5.5033007 -0.3989445 0.97087872
-4.8439841 5.5645313 -0.39893752 0.97087914
-4.4105663 5.9129491 -0.39889395 0.9708823
-4.3358397 5.9677734 -0.39888647 0.97088289
-4.2604294 6.0216794 -0.3988789 0.97088343
-4.1075587 6.1266112 -0.39886355 0.97088462
-3.4714258 6.5069041 -0.39879981 0.97088903
-3.3893163 6.5498729 -0.39879158 0.97088963
-2.8859179 6.7856932 -0.39874119 0.97089338
-2.4538867 6.9527636 -0.39869797 0.97089648
-2.189961 7.0398436 -0.39867157 0.97089833
-1.4721289 7.2227926 -0.39859992 0.97090346
-1.3812305 7.2405567 -0.39859083 0.97090411
-1.2900586 7.2571774 -0.39858171 0.97090477
-1.107246 7.2869625 -0.3985635 0.97090614
-0.92373043 7.3121481 -0.39854518 0.97090745
-0.83173823 7.3230271 -0.398536 0.97090805
-0.73966795 7.3327246 -0.39852682 0.9709087
-0.64744139 7.341279 -0.39851764 0.97090936
-0.4626953 7.3549023 -0.39849922 0.97091067
-0.18517578 7.3665915 -0.39847156 0.97091269
-0.092597656 7.3681641 -0.39846233 0.97091335
1.953125e-05 7.3685741 -0.39845315 0.97091401
0.092617184 7.3678222 -0.39844391 0.97091466
0.3701953 7.3585839 -0.39841625 0.97091669
0.83142579 7.3199606 -0.39837036 0.97092003
1.0150781 7.2964158 -0.39835209 0.97092134
1.1066601 7.2829394 -0.39834297 0.97092193
1.1980664 7.268291 -0.39833388 0.97092259
1.2892773 7.25249 -0.39832482 0.97092324
1.9211328 7.1100779 -0.39826202 0.97092772
2.0102539 7.0852146 -0.3982532 0.97092843
2.1875975 7.0321288 -0.39823559 0.97092974
2.3635156 6.9746485 -0.39821815 0.97093093
2.6245313 6.8801661 -0.3981922 0.97093278
2.7107615 6.8464842 -0.39818367 0.97093338
2.7965233 6.8117576 -0.39817518 0.97093391
2.8817773 6.7758985 -0.39816672 0.97093475
2.96666 6.7390232 -0.39815828 0.97093523
3.0510352 6.7010741 -0.39814994 0.97093582
3.1349609 6.6620603 -0.39814162 0.97093642
3.2183397 6.6220016 -0.39813334 0.97093707
3.3012304 6.5808983 -0.39812514 0.97093767
3.3836131 6.5387793 -0.39811698 0.97093815
3.6274414 6.4062109 -0.39809284 0.97093987
3.7871289 6.3127732 -0.39807701 0.97094107
3.866035 6.2645602 -0.39806923 0.97094172
4.0991993 6.1140332 -0.39804617 0.97094333
4.3264647 5.9548631 -0.39802366 0.97094494
4.4008789 5.8999414 -0.39801636 0.97094542
4.7622266 5.611445 -0.39798063 0.97094804
4.8322849 5.551084 -0.39797375 0.97094846
4.9015818 5.4897947 -0.39796692 0.97094905
4.9700975 5.4276953 -0.39796016 0.97094947
5.1047459 5.300879 -0.39794683 0.97095048
5.2361913 5.1707811 -0.3979339 0.97095132
5.3642774 5.0374022 -0.39792129 0.97095233
5.7855272 4.5461912 -0.39787987 0.97095513
5.8421092 4.4730759 -0.3978743 0.97095555
1.2586132 0.93882811 -0.084908865 0.99372977
1.2588086 0.91454101 -0.084137037 0.99378651
1.259082 0.86727536 -0.082673341 0.99389428
1.2594726 0.79927731 -0.080662653 0.9940424
1.2595898 0.77733397 -0.080038682 0.99408835
1.2598437 0.73439449 -0.07885544 0.99417543
1.2913867 0.70993161 -0.079688795 0.9941141
1.3307226 0.70992184 -0.081559405 0.99397641
1.3719727 0.70992184 -0.083533511 0.99383104
1.4152539 0.70993161 -0.085619465 0.9936775
1.4608008 0.70993161 -0.087826386 0.99351496
1.5087109 0.70994139 -0.090164796 0.99334294
1.7293359 0.70996094 -0.10108608 0.99253947
1.8611327 0.70996094 -0.10771331 0.99205232
2.0241406 0.71440428 -0.1160712 0.99143827
2.0241601 0.68592775 -0.115568 0.99147516
2.0241601 0.65769529 -0.11508758 0.99151051
8.8775978 2.6397655 -0.50082487 0.96357864
8.9409962 2.4158204 -0.50081873 0.96357918
8.9706049 2.3032618 -0.50081593 0.96357936
8.9987888 2.1903515 -0.50081325 0.96357954
9.025527 2.0770702 -0.50081068 0.96357989
9.0508595 1.9634863 -0.5008083 0.96358007
9.0748043 1.8495898 -0.50080603 0.96358013
9.0972853 1.7353905 -0.50080389 0.96358031
9.137949 1.5062305 -0.50080007 0.96358061
9.201972 1.0451758 -0.50079423 0.96358103
9.2143946 0.92947263 -0.5007931 0.96358097
9.2253122 0.81359375 -0.50079215 0.96358114
9.2493553 0.46530274 -0.50079012 0.96358138
9.2544727 0.34905273 -0.5007897 0.96358138
9.2581444 0.23271483 -0.50078946 0.96358132
9.2603321 0.11636718 -0.5007894 0.96358132
9.2603321 -0.11639648 -0.50078964 0.96358132
9.2253323 -0.81361324 -0.50079387 0.96358103
9.2143946 -0.92946285 -0.50079507 0.96358097
9.2020311 -1.0451856 -0.50079644 0.96358085
9.1882029 -1.1607519 -0.50079793 0.96358067
9.1729298 -1.2761328 -0.5007996 0.96358055
9.1561909 -1.391289 -0.50080138 0.96358049
9.1380272 -1.5062305 -0.50080329 0.96358031
9.1184177 -1.6209472 -0.50080538 0.96358013
9.0749025 -1.8496094 -0.50080997 0.96357977
9.0509768 -1.9635156 -0.50081247 0.9635796
9.0256052 -2.0770898 -0.50081509 0.96357954
8.998847 -2.1903613 -0.50081789 0.96357936
8.9706831 -2.3032813 -0.50082082 0.96357906
8.8438473 -2.7511718 -0.50083393 0.96357816
2.0241406 -0.68591797 -0.11556824 0.99147522
2.0241601 -0.71439451 -0.11607116 0.99143821
1.7931445 -0.70994139 -0.10428566 0.99230421
1.7293164 -0.70995116 -0.10108543 0.99253953
1.6127343 -0.70994139 -0.09528324 0.99296623
1.4152734 -0.70996094 -0.085619122 0.99367738
1.3307421 -0.70995116 -0.081559107 0.99397629
1.2913867 -0.70997071 -0.079688646 0.99411404
1.2599413 -0.7134375 -0.078295365 0.99421668
1.2594922 -0.79930663 -0.080662653 0.99404222
1.2593554 -0.82158202 -0.081309244 0.99399471
1.2592187 -0.84425777 -0.08197929 0.99394536
1.259082 -0.86729491 -0.082673185 0.99389422
1.2589258 -0.89073241 -0.083392255 0.99384135
1.2587695 -0.91457027 -0.084137037 0.99378651
5.7879686 -4.5481248 -0.39805037 0.97094303
5.5524802 -4.8334765 -0.39807415 0.97094131
5.4913864 -4.9029684 -0.39808029 0.97094083
5.4294138 -4.9716697 -0.39808655 0.97094041
5.1731052 -5.2384958 -0.39811236 0.97093856
5.0400195 -5.3670506 -0.39812577 0.97093749
4.834414 -5.5534763 -0.39814648 0.970936
4.7643161 -5.6138768 -0.39815348 0.97093558
4.6934767 -5.6733985 -0.39816061 0.97093505
4.4765821 -5.846611 -0.39818239 0.97093338
4.4027929 -5.9024997 -0.39818984 0.97093296
4.1774802 -6.0646091 -0.39821243 0.97093117
4.100996 -6.1167188 -0.39822009 0.97093076
3.8677928 -6.2673144 -0.39824349 0.97092903
3.788789 -6.3155465 -0.39825141 0.97092849
3.3026757 -6.5838084 -0.39830008 0.97092503
3.1363084 -6.6649899 -0.3983168 0.9709239
3.0524023 -6.7040329 -0.39832515 0.97092319
2.9679687 -6.7420216 -0.39833361 0.97092253
2.6257031 -6.883203 -0.39836782 0.97092015
2.2767186 -7.007041 -0.39840275 0.97091764
2.100039 -7.0623341 -0.39842039 0.97091645
2.0111523 -7.0883493 -0.3984293 0.97091573
1.8324413 -7.1369724 -0.39844716 0.97091448
1.6525977 -7.1810741 -0.3984651 0.97091323
1.1985742 -7.2715039 -0.39851043 0.97090995
1.0155274 -7.2996774 -0.39852867 0.97090858
0.83181638 -7.3232031 -0.39854696 0.97090733
0.64753902 -7.3421383 -0.39856535 0.97090602
0.46285155 -7.3564649 -0.3985838 0.97090453
0.37039062 -7.3618259 -0.39859298 0.97090405
0.1852539 -7.3691502 -0.39861146 0.97090274
1.953125e-05 -7.3718357 -0.3986299 0.97090131
-0.092636719 -7.3714352 -0.39863914 0.97090065
-0.2778711 -7.3670993 -0.39865756 0.9708994
-0.46291015 -7.3581247 -0.39867598 0.97089809
-0.55537111 -7.351943 -0.39868522 0.97089726
-0.6476953 -7.344502 -0.39869437 0.97089678
-0.83208984 -7.3262792 -0.39871272 0.97089535
-0.92414063 -7.3153806 -0.39872187 0.97089475
-1.2906445 -7.2604003 -0.39875835 0.97089207
-1.4727539 -7.225986 -0.39877647 0.97089082
-1.5634961 -7.2070603 -0.39878547 0.97089016
-1.9238086 -7.120039 -0.39882126 0.9708876
-2.1022069 -7.0697556 -0.39883894 0.97088635
-2.3673241 -6.9859667 -0.39886528 0.97088444
-2.5422852 -6.9245896 -0.39888263 0.97088307
-2.6291211 -6.8922362 -0.39889124 0.97088253
-2.7156055 -6.8588085 -0.39889982 0.97088188
-3.0570312 -6.7142577 -0.39893371 0.9708795
-3.1412303 -6.6754684 -0.39894202 0.97087884
-3.2249217 -6.6355858 -0.39895031 0.97087836
-3.5545506 -6.4657226 -0.398983 0.97087592
-3.7959373 -6.3275194 -0.39900687 0.97087425
-3.8752148 -6.2794333 -0.39901474 0.97087377
-3.9539256 -6.2303805 -0.39902252 0.97087306
-4.186172 -6.0772753 -0.39904547 0.97087145
-4.2622852 -6.0242968 -0.39905301 0.97087097
-4.4124999 -5.9155173 -0.39906782 0.97086984
-4.4865623 -5.8597069 -0.39907515 0.9708693
-4.6325583 -5.7453418 -0.39908957 0.97086823
-5.0526953 -5.3806052 -0.39913103 0.97086531
-5.2521677 -5.1865916 -0.39915073 0.97086388
-1.0286914 -0.94198239 -0.075424343 0.99442816
-1.029043 -0.89578122 -0.073774181 0.99454969
-1.0293164 -0.8515625 -0.072238348 0.99466288
-1.0294532 -0.83009762 -0.071510807 0.99471653
-1.0298828 -0.76822263 -0.069476888 0.99486631
-1.0300195 -0.7483691 -0.068845369 0.9949128
-1.0306445 -0.70997071 -0.067675285 0.99499917
-1.0589062 -0.70995116 -0.068938486 0.99490607
-1.1186913 -0.70995116 -0.071646497 0.99470651
-1.1503906 -0.70996094 -0.073099747 0.9945994
-1.2178711 -0.70996094 -0.076227874 0.99436885
-1.3307226 -0.70995116 -0.081558757 0.99397635
-1.4152539 -0.70996094 -0.085619085 0.99367744
-1.4607812 -0.70996094 -0.087826155 0.99351496
-1.787832 -0.68199217 -0.10347065 0.99236417
-8.8027143 -2.9829881 -0.50259179 0.96345264
-8.8395901 -2.8721678 -0.50259537 0.96345228
-8.8750191 -2.7608788 -0.50259876 0.96345216
-8.941699 -2.5370018 -0.5026052 0.96345174
-8.972949 -2.424453 -0.50260818 0.96345145
-9.0027342 -2.3115332 -0.50261104 0.96345133
-9.0311327 -2.1982422 -0.50261372 0.96345109
-9.0580664 -2.0845702 -0.50261629 0.96345097
-9.1077147 -1.8563184 -0.502621 0.96345049
-9.2218361 -1.1649902 -0.5026316 0.96344984
-9.2357616 -1.0490234 -0.50263292 0.96344978
-9.2482615 -0.93289059 -0.50263399 0.9634496
-9.2768946 -0.58366209 -0.50263649 0.96344942
-9.283515 -0.46703124 -0.50263703 0.96344936
-9.2923241 -0.23359375 -0.50263768 0.96344936
-9.2945309 -0.11680664 -0.50263774 0.96344936
-8.8373241 0.22215819 -0.50259185 0.96520227
-8.8338079 0.33316407 -0.50259137 0.96520239
-8.8058786 0.77660155 -0.50258809 0.96520251
-8.7702541 1.1079395 -0.50258422 0.96520287
-8.7556448 1.2180469 -0.50258267 0.96520287
-8.7395897 1.3279785 -0.50258094 0.96520311
-8.6832228 1.6564257 -0.50257498 0.96520352
-8.6616993 1.7653809 -0.50257272 0.96520364
-8.5888863 2.0905762 -0.50256509 0.96520406
-8.5618744 2.1983397 -0.50256234 0.9652043
-8.533535 2.3057227 -0.50255936 0.96520448
-8.503828 2.4127343 -0.50255626 0.96520478
-8.4403906 2.6256738 -0.50254971 0.96520519
-8.4066992 2.7314746 -0.50254631 0.96520537
-8.3716602 2.8369141 -0.50254267 0.96520555
-8.3352537 2.9418359 -0.50253892 0.96520597
-1.7886523 0.68231446 -0.10884037 0.99235946
-1.7293164 0.70995116 -0.10628063 0.99253839
-1.6692969 0.70995116 -0.10313194 0.99275863
-1.5592773 0.70994139 -0.097407259 0.99315929
-1.4152539 0.70994139 -0.090019226 0.99367648
-1.3719727 0.70992184 -0.087825999 0.99383008
-1.3307421 0.70995116 -0.085750505 0.99397534
-1.2913867 0.70994139 -0.083783679 0.99411321
-1.217832 0.70994139 -0.08014553 0.9943682
-1.1834179 0.70995116 -0.078460313 0.99448621
-1.1504102 0.70995116 -0.076856539 0.99459857
-1.0589257 0.70994139 -0.072481193 0.99490523
-1.0306445 0.70994139 -0.071153298 0.99499846
-1.0294336 0.72833985 -0.07169468 0.99496043
-1.0287499 0.82949215 -0.075133093 0.99471945
-1.0284375 0.87278318 -0.07668861 0.99461043
-4.9929686 4.9306345 -0.39895302 0.97227746
-4.867363 5.0544043 -0.39894038 0.97227818
-4.6731443 5.2340136 -0.39892086 0.97227961
-4.6069727 5.2922168 -0.39891419 0.97227997
-4.5399804 5.3496094 -0.39890745 0.97228056
-4.4039454 5.4618258 -0.3988938 0.97228152
-4.3349023 5.5166306 -0.39888686 0.97228199
-4.2651758 5.5705857 -0.39887986 0.97228235
-4.1237106 5.6758103 -0.39886564 0.9722833
-3.9796093 5.7774315 -0.39885119 0.97228438
-3.906621 5.8268847 -0.39884388 0.97228485
-3.8330274 5.8753905 -0.39883646 0.97228539
-3.7588475 5.9229879 -0.39882904 0.97228581
-3.3791797 6.1467285 -0.39879099 0.97228849
-3.3015819 6.1886034 -0.39878321 0.97228903
-3.2235351 6.2294726 -0.3987754 0.9722895
