# .PCD v0.7 - Point Cloud Data file format
VERSION 0.7
FIELDS x y z intensity
SIZE 4 4 4 4
TYPE F F F F
COUNT 1 1 1 1
WIDTH 1084
HEIGHT 1
VIEWPOINT 0 0 0 1 0 0 0
POINTS 1084
DATA ascii
-1.0369922 0.75340819 -0.033741873 0.99488419
-1.0368946 0.77347654 -0.034053307 0.99483716
-1.0368359 0.79386717 -0.034376182 0.99478841
-1.0366406 0.85759765 -0.035416488 0.99463099
-1.0365429 0.87969726 -0.035788953 0.99457479
-1.0363281 0.94895506 -0.036990087 0.99439317
-8.2971487 7.7915816 -0.29962641 0.95547754
-8.0885544 7.7892966 -0.29560509 0.95606166
-7.6876168 7.7848535 -0.28801131 0.95716566
-7.4946485 7.7827148 -0.28442648 0.95768768
-7.3064647 7.7806444 -0.28097165 0.9581905
-6.9432812 7.7766309 -0.27443689 0.9591428
-6.7679296 7.7746973 -0.27134609 0.95959353
-6.2643747 7.7691402 -0.26271886 0.96085274
-5.9458008 7.765615 -0.25746426 0.96162051
-5.6395702 7.7622361 -0.25257224 0.96233577
-5.4907031 7.7605953 -0.25025386 0.96267498
-5.0597653 7.7558203 -0.24377313 0.96362388
-4.9209766 7.7542772 -0.24176131 0.96391851
-4.6500392 7.7512889 -0.23794889 0.96447736
-4.5177341 7.749824 -0.23614252 0.96474218
-4.3873439 7.7483788 -0.23439948 0.96499783
-4.2589064 7.7469625 -0.23271888 0.96524423
-4.0073438 7.7441893 -0.22953697 0.96571124
-3.8840625 7.7428222 -0.22803229 0.96593219
-3.4062109 7.7375488 -0.22254814 0.96673763
-3.0620117 7.7337399 -0.21896182 0.96726483
-2.9496484 7.7325096 -0.21786024 0.96742684
-2.838418 7.7312694 -0.216803 0.96758229
-2.619082 7.7288375 -0.2148215 0.96787387
-2.4035547 7.7264547 -0.21300788 0.96814066
-2.2971485 7.7252831 -0.21216325 0.96826494
-2.1915233 7.7241211 -0.21135756 0.96838349
-2.0867188 7.722959 -0.21059228 0.9684962
-1.6744531 7.7183886 -0.20790693 0.9688915
-1.4719726 7.7161717 -0.20678544 0.96905673
-1.3715038 7.7150388 -0.20627803 0.96913159
-1.2715625 7.7139449 -0.20580463 0.96920127
-0.97410154 7.7106543 -0.20459168 0.96938002
-0.77759767 7.7084961 -0.20394999 0.96947438
-0.58218747 7.7063279 -0.20344155 0.96954942
-0.48480469 7.7052536 -0.2032373 0.96957964
-0.38761717 7.7041893 -0.20306373 0.96960509
-0.29058594 7.703115 -0.20292261 0.96962577
-0.19363281 7.7020407 -0.20281437 0.9696418
-0.096816406 7.7009668 -0.20273842 0.96965301
0.38714844 7.6956153 -0.20283905 0.96963841
0.58113283 7.6934667 -0.20310286 0.96959943
0.67837888 7.6923923 -0.20328361 0.96957284
0.77578121 7.691328 -0.20349585 0.96954137
0.87343746 7.6902537 -0.20374268 0.96950513
0.97134763 7.6891599 -0.20402043 0.96946412
1.0694922 7.6880856 -0.20433293 0.96941817
1.1680077 7.6869922 -0.20467781 0.96936733
1.7674609 7.6803708 -0.20746456 0.96895665
1.8691211 7.6792674 -0.20805256 0.96887004
2.0742188 7.6769724 -0.20933847 0.96868092
2.1777735 7.6758204 -0.21003665 0.9685781
2.3870506 7.6735153 -0.21154767 0.96835548
2.492871 7.6723437 -0.21236356 0.96823555
2.7069921 7.6699705 -0.21411298 0.96797806
2.8154297 7.6687889 -0.21505097 0.96784008
2.9248242 7.6675777 -0.21603034 0.96769601
3.1467578 7.6651268 -0.21812074 0.96738851
3.2593749 7.6638865 -0.21923456 0.96722484
3.488203 7.661377 -0.22159994 0.96687698
3.6044922 7.660068 -0.2228556 0.96669257
3.7221289 7.6587887 -0.2241611 0.9665007
3.8412108 7.6574607 -0.22551863 0.96630144
3.9617186 7.6561227 -0.2269273 0.96609455
4.2074413 7.6534081 -0.22990873 0.96565676
4.588789 7.649199 -0.23481414 0.96493691
4.7195702 7.6477537 -0.23657277 0.96467924
5.1243749 7.6432714 -0.24224027 0.96384847
5.4054685 7.6401658 -0.24637026 0.96324348
5.6964841 7.6369824 -0.25080603 0.96259433
5.8459764 7.6353221 -0.25314295 0.96225232
6.4738278 7.6283884 -0.26337895 0.96075636
6.6389451 7.6265621 -0.26617512 0.96034801
6.8076172 7.6246972 -0.26907435 0.95992482
7.3367968 7.6188278 -0.27843595 0.95856005
7.5215816 7.6167965 -0.2817952 0.95807093
7.7108984 7.614697 -0.28527853 0.95756352
8.1041012 7.6103516 -0.29265615 0.9564904
11.288125 10.336426 -0.4029116 0.94059384
11.547343 10.052099 -0.4030183 0.94057876
11.799375 9.7612982 -0.40312207 0.94056374
12.163418 9.3130665 -0.40327194 0.9405424
1.2672656 0.94528317 -0.041618347 0.99369383
1.2673633 0.92078125 -0.041237716 0.99375129
1.2674414 0.89670897 -0.040870018 0.99380678
1.2674999 0.87306637 -0.04051521 0.99386042
1.2675586 0.84983397 -0.040173188 0.99391216
1.2676562 0.82699215 -0.03984249 0.99396193
1.2677538 0.78236324 -0.039215736 0.99405676
1.4607812 0.70997071 -0.042755317 0.99352211
1.6127343 0.70995116 -0.046385381 0.99297404
1.8611132 0.70995116 -0.052436445 0.9920612
1.9337499 0.70996094 -0.05422714 0.99179119
2.0061328 0.70804685 -0.05600353 0.9915235
2.0059764 0.65179688 -0.055523831 0.99159575
18.466953 5.7447457 -0.50911385 0.92553228
18.538847 5.512578 -0.50914365 0.92552781
18.607714 5.2794824 -0.50917214 0.9255237
18.673496 5.0454884 -0.50919938 0.92552024
18.736366 4.8107128 -0.50922543 0.92551661
18.796406 4.5751462 -0.50925034 0.92551249
18.853163 4.3387499 -0.50927389 0.92550969
18.95793 3.8639257 -0.5093174 0.92550331
19.005762 3.6255662 -0.50933731 0.92550039
19.050428 3.3865428 -0.50935584 0.92549813
19.092266 3.1470408 -0.50937331 0.92549515
19.228281 2.1839941 -0.50943017 0.92548764
19.277929 1.700166 -0.50945103 0.92548454
19.298027 1.4578027 -0.5094595 0.92548358
19.315176 1.2152051 -0.50946683 0.92548227
19.33996 0.72946286 -0.50947756 0.92548102
19.347813 0.48636717 -0.50948101 0.92548019
19.353985 9.7656248e-06 -0.50948405 0.92548001
19.352461 -0.24320312 -0.5094837 0.92548001
19.347792 -0.48635742 -0.50948203 0.92548031
19.32918 -0.97240233 -0.50947493 0.92548132
19.278008 -1.7001562 -0.50945473 0.92548424
19.228516 -2.1840038 -0.50943488 0.9254868
19.199081 -2.4254198 -0.50942308 0.92548853
19.166561 -2.6663866 -0.50940996 0.9254905
19.092382 -3.1470311 -0.50938004 0.92549473
19.005938 -3.625576 -0.50934505 0.92549974
18.958183 -3.8639746 -0.50932568 0.92550236
18.853516 -4.3388281 -0.5092833 0.92550832
17.956562 -4.6104784 -0.48802981 0.92850298
17.023907 -4.5997653 -0.46421638 0.93186998
16.17791 -4.5900879 -0.44268438 0.93492478
15.409609 -4.5820994 -0.4232035 0.93769735
14.738418 -4.5848632 -0.40631956 0.94010687
2.0060937 -0.67978513 -0.055758171 0.99156034
1.9337695 -0.70993161 -0.054227524 0.99179113
1.7293359 -0.70994139 -0.049210586 0.99254775
1.6692969 -0.70993161 -0.04775238 0.99276781
1.5592968 -0.70993161 -0.045101929 0.99316788
1.4608203 -0.70994139 -0.042755391 0.99352205
1.4152734 -0.70996094 -0.041681021 0.99368435
1.3719921 -0.70995116 -0.040665627 0.99383771
1.2679101 -0.71791011 -0.038356133 0.99418676
1.2677538 -0.78235352 -0.039215926 0.99405676
1.2676953 -0.8044824 -0.039523583 0.99401027
1.2674999 -0.87305665 -0.040515404 0.99386042
1.2673438 -0.92077148 -0.041237678 0.99375135
1.2672851 -0.9452734 -0.041618612 0.99369377
12.490527 -10.333056 -0.42673662 0.93719387
9.4745111 -8.0406542 -0.32712364 0.95149267
11.949336 -10.941865 -0.42651516 0.93722564
9.4739838 -8.8966894 -0.34212583 0.94932526
11.52373 -11.379824 -0.42634094 0.93725044
11.378262 -11.522148 -0.42628139 0.93725878
7.9573436 -8.4736814 -0.30600342 0.95455217
7.7572851 -8.4714842 -0.30238113 0.95507801
7.3708591 -8.4672165 -0.29551962 0.95607436
7.0013084 -8.4631348 -0.28914326 0.95700157
6.141953 -8.4536324 -0.2750735 0.95905042
5.9798241 -8.4518452 -0.27254838 0.95941865
5.8206444 -8.4500875 -0.27011219 0.95977402
5.664238 -8.448349 -0.26775834 0.96011728
5.5105271 -8.44664 -0.26548988 0.96044856
5.0643163 -8.4417181 -0.25914717 0.96137494
4.6383009 -8.4370022 -0.25345165 0.96220762
4.5003514 -8.4354782 -0.25168663 0.96246576
3.8373828 -8.4281836 -0.24378321 0.96362269
3.4583592 -8.423974 -0.23971862 0.96421826
3.0912499 -8.4199123 -0.23611781 0.96474624
2.9712498 -8.4185934 -0.23501518 0.96490794
2.6176562 -8.4146967 -0.23198505 0.96535248
2.1592383 -8.4096193 -0.22856134 0.96585494
1.8235742 -8.4059181 -0.22642991 0.96616787
1.6030469 -8.4034863 -0.2252079 0.96634734
1.4936328 -8.4022846 -0.22465417 0.96642858
1.3847461 -8.4010839 -0.22413935 0.96650428
1.2763281 -8.3998632 -0.22366206 0.96657455
1.1683788 -8.3986721 -0.22322193 0.96663922
0.84681636 -8.3951073 -0.22211981 0.96680105
0.74023438 -8.3939352 -0.22182582 0.96684438
0.42207029 -8.390439 -0.22115462 0.96694291
0.3163867 -8.389267 -0.22100136 0.96696538
0.21083984 -8.3880854 -0.22088307 0.96698278
0.10537109 -8.3869429 -0.22080089 0.96699494
-0.10542969 -8.3845892 -0.22073905 0.967004
-0.31621093 -8.3822756 -0.22081771 0.96699244
-0.42167968 -8.3811131 -0.22090887 0.96697903
-0.63298827 -8.3787594 -0.22119646 0.96693677
-0.84498048 -8.3764257 -0.22162612 0.96687371
-0.9513281 -8.3752632 -0.22189285 0.96683431
-1.3797461 -8.3705177 -0.22332445 0.96662402
-1.4878515 -8.3693161 -0.22377412 0.96655804
-1.5963476 -8.3681154 -0.22426012 0.96648657
-1.705371 -8.3669233 -0.22478499 0.9664095
-1.8148828 -8.3657227 -0.22534704 0.96632683
-1.925 -8.364502 -0.22594887 0.96623856
-2.1470702 -8.3620405 -0.22726756 0.96604478
-2.2590625 -8.3608007 -0.22798848 0.9659391
-2.4853711 -8.3583107 -0.229551 0.96570963
-2.5997264 -8.3570309 -0.23039493 0.96558577
-2.7149804 -8.3557615 -0.23128307 0.96545547
-2.9482226 -8.3531637 -0.2331882 0.96517581
-3.305742 -8.3492479 -0.23639087 0.964706
-3.4271483 -8.3479004 -0.23755333 0.96453559
-3.5497851 -8.3465233 -0.23876426 0.96435797
-3.6737304 -8.3451662 -0.24002825 0.9641729
-3.7990038 -8.3437796 -0.24134304 0.96398026
-4.0537696 -8.3409767 -0.24413158 0.96357167
-4.4476366 -8.3366108 -0.24873632 0.96289736
-4.5823045 -8.3351364 -0.25039139 0.96265531
-4.9976368 -8.3305368 -0.25573456 0.96187383
-5.1400976 -8.3289547 -0.25764793 0.96159405
-5.2847657 -8.327363 -0.25963247 0.96130395
-5.7327342 -8.3224115 -0.26603106 0.96036953
-6.0441403 -8.318984 -0.27069122 0.95968932
-6.7019529 -8.3117085 -0.28107178 0.95817655
-6.8745313 -8.3098145 -0.28390545 0.95776367
-8.3979101 -8.2929592 -0.31069392 0.95387161
-1.0363085 -0.94894528 -0.036990128 0.99439323
-1.0366211 -0.8575781 -0.035416566 0.99463111
-1.0370312 -0.73370117 -0.033441048 0.99492979
-1.0370898 -0.71436524 -0.033150826 0.99497366
-1.0589062 -0.70994139 -0.0335606 0.99491173
-1.0882226 -0.70994139 -0.034204405 0.9948144
-1.1503906 -0.70994139 -0.035586394 0.99460548
-1.1834179 -0.70995116 -0.036329038 0.99449313
-1.2538086 -0.70995116 -0.03793003 0.99425119
-1.3307031 -0.70993161 -0.039704476 0.99398315
-1.3719531 -0.70994139 -0.040665511 0.99383789
-1.4152734 -0.70994139 -0.041681059 0.99368441
-1.4607617 -0.70994139 -0.042755544 0.99352223
-1.5087109 -0.70995116 -0.043893736 0.99335027
-1.6692969 -0.70995116 -0.047752798 0.99276775
-1.7293164 -0.70993161 -0.049210396 0.99254787
-1.7792578 -0.70446289 -0.050375555 0.99237204
-1.7792187 -0.67868161 -0.050128937 0.99240923
-1.7791406 -0.65318358 -0.049892616 0.99244505
-14.066563 -4.9646387 -0.39268246 0.94205791
-14.127011 -4.7872167 -0.39265746 0.94206119
-14.241094 -4.4301462 -0.39261028 0.94206816
-14.294805 -4.2505956 -0.39258805 0.94207144
-16.255741 -4.1737595 -0.44180602 0.93505001
-18.03372 -4.1501465 -0.48713717 0.92862892
-18.474619 -3.2841797 -0.49396127 0.92766649
-18.513838 -3.0516698 -0.49394491 0.92766869
-18.550137 -2.8186913 -0.49392977 0.9276709
-18.614218 -2.3515136 -0.49390301 0.92767423
-18.666504 -1.8828906 -0.49388102 0.92767769
-18.688368 -1.648164 -0.49387178 0.92767888
-18.736435 -0.94257808 -0.4938513 0.9276818
-18.74666 -0.70705074 -0.49384689 0.92768228
-18.753984 -0.47142577 -0.49384364 0.92768258
-18.75832 -0.23571289 -0.49384159 0.927683
-16.99703 -0 -0.49456424 0.93424469
-16.995781 0.21360351 -0.49456453 0.93424433
-16.991737 0.42712891 -0.49456596 0.93424439
-16.985176 0.64064449 -0.49456844 0.93424386
-16.97584 0.85403317 -0.49457201 0.93424362
-16.964071 1.0673046 -0.49457663 0.93424249
-16.949423 1.2804004 -0.49458238 0.93424213
-16.932198 1.493291 -0.49458927 0.93424135
-16.889921 1.9183886 -0.49460617 0.93423915
-16.864853 2.1305175 -0.49461624 0.93423772
-16.837109 2.3423243 -0.49462736 0.93423635
-16.806738 2.5537987 -0.49463961 0.93423486
-16.773788 2.7648535 -0.49465293 0.93423313
-16.700087 3.1857128 -0.49468273 0.93422902
-16.615829 3.6046288 -0.49471685 0.9342249
-15.891376 3.8680077 -0.4758918 0.93664676
-14.247149 3.8495312 -0.42941383 0.94265282
-13.553124 3.8453515 -0.40991989 0.94518352
-12.845937 4.1739159 -0.39301264 0.94738382
-12.793125 4.3352246 -0.39303416 0.9473812
-12.738399 4.4959178 -0.39305645 0.94737816
-1.7800391 0.65352535 -0.055173606 0.99244064
-1.7800391 0.67905271 -0.055434875 0.99240512
-1.7800976 0.70481443 -0.055707891 0.9923678
-1.7292968 0.70995116 -0.054392926 0.99254733
-1.6126952 0.70996094 -0.051270675 0.99297363
-1.5086914 0.70997071 -0.048516579 0.99334979
-1.4607812 0.70996094 -0.047258299 0.99352163
-1.4152343 0.70996094 -0.046070632 0.99368405
-1.3719531 0.70997071 -0.044948157 0.99383736
-1.2913672 0.70994139 -0.042879142 0.99412024
-1.2178515 0.70996094 -0.041017417 0.99437475
-1.1503711 0.70996094 -0.039334144 0.99460506
-1.1187109 0.70995116 -0.038552169 0.99471194
-1.0882031 0.70996094 -0.037806585 0.99481404
-1.0364063 0.71389645 -0.036617927 0.99497658
-1.03625 0.75291014 -0.03727024 0.99488735
-1.0362109 0.77292967 -0.037614249 0.99484026
-1.0360546 0.81413084 -0.038339805 0.99474102
-1.0359765 0.83534175 -0.038722228 0.99468869
-1.0358202 0.87906247 -0.039529875 0.99457824
-1.0357422 0.90164059 -0.03995575 0.99451989
-1.035625 0.9246875 -0.040397607 0.99445957
-1.0355469 0.94826168 -0.040855598 0.99439687
-8.2971487 7.7915916 -0.33118358 0.95547414
-7.6875777 7.784863 -0.31834674 0.95716256
-7.3064647 7.7806444 -0.31056565 0.9581874
-7.1227341 7.7786131 -0.30688599 0.95867223
-6.9433007 7.7766404 -0.30334139 0.95913965
-6.7678905 7.7746778 -0.29992476 0.95959061
-6.5964451 7.7728024 -0.29663113 0.96002537
-6.4286327 7.7709374 -0.29345307 0.96044499
-5.9458203 7.7655954 -0.28458083 0.96161765
-5.7912107 7.763906 -0.2818279 0.96198159
-5.2009177 7.7573729 -0.27175114 0.96331596
-5.0597653 7.7558103 -0.26944539 0.9636212
-4.9209766 7.7542672 -0.26722389 0.96391582
-4.6500583 7.7512984 -0.26300907 0.96447462
-4.5177341 7.7498336 -0.26101258 0.9647395
-4.2589064 7.7469726 -0.25722948 0.96524161
-4.1322656 7.7455759 -0.25543839 0.96547931
-4.0073047 7.7441993 -0.25371236 0.96570867
-3.6422265 7.7401562 -0.24890172 0.96634763
-3.4062109 7.7375488 -0.24598736 0.96673512
-3.2902148 7.7362595 -0.24461351 0.96691793
-2.9496484 7.7325096 -0.24080388 0.96742439
-2.7282422 7.7300582 -0.23851667 0.96772879
-2.5108593 7.7276464 -0.23642118 0.96800786
-2.4035547 7.7264647 -0.23544234 0.96813822
-2.1915233 7.7241211 -0.2336183 0.96838111
-2.0867188 7.7229686 -0.23277137 0.96849382
-1.7765429 7.7195411 -0.23048423 0.9687984
-1.6744531 7.7183981 -0.22980432 0.96888906
-1.5729296 7.7172751 -0.2291646 0.96897441
-1.471953 7.7161617 -0.22856443 0.9690544
-1.0728515 7.7117577 -0.2265484 0.9693231
-0.97412109 7.7106638 -0.22613868 0.9693777
-0.77759767 7.7085056 -0.22543049 0.96947205
-0.67974609 7.7074218 -0.22513038 0.96951199
-0.48480469 7.7052536 -0.22464173 0.96957737
-0.29054686 7.703115 -0.2242949 0.96962351
-0.19363281 7.7020407 -0.22417527 0.96963948
-0.096835934 7.7009668 -0.22409134 0.96965075
0.29027343 7.6966991 -0.22410756 0.96964842
0.38712889 7.6956248 -0.22420047 0.96963608
0.67835939 7.6924024 -0.22469297 0.96957052
0.77578121 7.6913376 -0.22492766 0.96953905
0.97132808 7.6891699 -0.22550832 0.9694618
1.1679883 7.6869922 -0.22623399 0.969365
1.2668359 7.6859078 -0.22665231 0.96930921
1.6663672 7.6814842 -0.22870609 0.96903563
1.7674609 7.6803808 -0.22931539 0.96895427
1.9713671 7.6781249 -0.23065503 0.96877581
2.177793 7.6758494 -0.23215833 0.9685756
2.2820313 7.6746774 -0.23297203 0.96846724
2.3870702 7.6735253 -0.23382838 0.96835303
2.4928515 7.6723533 -0.23472925 0.96823317
2.9248631 7.6675973 -0.23878217 0.96769345
3.0352733 7.666357 -0.23991445 0.96754301
3.1467578 7.6651268 -0.24109378 0.96738601
3.3731835 7.6626267 -0.24360588 0.96705192
3.9617186 7.6561522 -0.25082666 0.96609187
4.0837498 7.6547852 -0.25244448 0.96587712
4.4598827 7.6506348 -0.25767127 0.9651829
4.7196093 7.6477637 -0.2614871 0.96467644
4.9873438 7.6448045 -0.26558971 0.96413243
5.124414 7.6433005 -0.26775366 0.96384555
5.2637501 7.6417379 -0.26999554 0.96354854
5.4054685 7.6401758 -0.2723195 0.96324068
5.6964841 7.6369629 -0.27722043 0.96259153
5.8459764 7.6353025 -0.27980471 0.96224952
5.9983592 7.6336131 -0.2824834 0.96189505
6.3121481 7.630156 -0.28813529 0.96114755
6.4738278 7.6283689 -0.29111728 0.9607535
6.6389256 7.6265426 -0.29420939 0.96034515
6.8076172 7.6246872 -0.29741421 0.95992184
7.1563668 7.6208301 -0.30418494 0.95902842
7.7109179 7.614707 -0.31532469 0.95756024
7.9049997 7.6125684 -0.31932408 0.95703369
8.1041403 7.6103711 -0.32347944 0.956487
10.782363 9.3861914 -0.41595596 0.94439948
10.900781 9.2510834 -0.41600466 0.94439292
10.883437 8.5521193 -0.40274742 0.94611651
1.2664062 0.94465816 -0.045970421 0.99369758
1.266582 0.89611328 -0.045144271 0.99381047
1.2666601 0.8725 -0.044752654 0.993864
1.2667187 0.84925777 -0.044374809 0.99391574
1.266875 0.80397457 -0.043658104 0.99401367
1.4152734 0.70996094 -0.046070594 0.99368387
1.6127343 0.70995116 -0.05127079 0.99297351
1.6692969 0.70996094 -0.052781601 0.99276721
1.7293164 0.70997071 -0.054392926 0.99254721
1.7931249 0.70996094 -0.05611534 0.99231219
1.8611132 0.70995116 -0.057958908 0.9920606
1.9337695 0.70996094 -0.059938278 0.99179047
2.008203 0.68052733 -0.061695363 0.9915508
2.008086 0.65248048 -0.061435584 0.99158627
16.683397 5.1899219 -0.50838244 0.93247062
16.81035 4.7695312 -0.50843495 0.93246365
16.869688 4.558115 -0.50845951 0.93246084
16.926483 4.3459864 -0.50848311 0.93245757
16.980469 4.1331348 -0.50850546 0.93245482
17.031776 3.9195898 -0.50852674 0.93245208
17.169277 3.2752147 -0.5085839 0.93244499
17.343632 2.1910155 -0.50865662 0.93243527
17.370077 1.9729394 -0.50866765 0.93243426
17.433046 1.3169239 -0.50869423 0.93243068
17.448418 1.0977637 -0.50870079 0.93242991
17.47086 0.65895504 -0.50871044 0.9324286
17.482069 0.21970703 -0.50871551 0.93242794
17.483437 9.7656248e-06 -0.50871629 0.932428
17.482069 -0.21969727 -0.50871599 0.93242794
17.461132 -0.87843746 -0.50870812 0.93242884
17.448515 -1.0977539 -0.50870317 0.93242955
17.433125 -1.3169239 -0.50869703 0.93243039
17.393984 -1.7545507 -0.50868148 0.93243241
17.314453 -2.4087403 -0.50864953 0.93243635
17.282362 -2.6260545 -0.50863659 0.93243808
17.247499 -2.8429198 -0.50862253 0.93243998
17.209921 -3.0593359 -0.50860733 0.93244183
17.169531 -3.2752635 -0.508591 0.93244404
17.03203 -3.9196484 -0.50853521 0.93245113
16.869961 -4.5581837 -0.5084694 0.93245977
16.177891 -4.5900879 -0.48930672 0.93492001
15.406836 -4.5812402 -0.46769145 0.93770361
2.0081055 -0.65244138 -0.061435737 0.99158627
2.0082421 -0.70878905 -0.061967202 0.99151397
1.9337695 -0.70993161 -0.059938584 0.99179053
1.7931249 -0.70995116 -0.056115188 0.99231219
1.6693358 -0.70993161 -0.052781716 0.9927671
1.6127343 -0.70994139 -0.051271096 0.99297351
1.5592773 -0.70992184 -0.049851682 0.9931674
1.4152734 -0.70995116 -0.046070937 0.99368393
1.3719921 -0.70995116 -0.044948462 0.9938373
1.3307421 -0.70994139 -0.043886144 0.99398255
1.2914063 -0.70994139 -0.042879637 0.99412012
1.2670507 -0.73861325 -0.042674329 0.99414825
1.2669922 -0.76006836 -0.042990379 0.99410498
1.2669531 -0.78184569 -0.04331829 0.9940601
1.266875 -0.80395508 -0.043658026 0.99401367
1.2667383 -0.84926754 -0.044374771 0.99391568
1.2666405 -0.87248045 -0.044752806 0.99386412
1.2664062 -0.94459957 -0.045970228 0.9936977
10.99625 -8.419404 -0.40297285 0.946087
11.287246 -9.3375978 -0.42624176 0.94306439
9.4744921 -8.0406446 -0.36157516 0.95148909
9.3701563 -8.1568356 -0.36147475 0.95150197
10.923515 -9.753047 -0.42609286 0.94308341
10.798769 -9.8883104 -0.42604178 0.9430902
9.3587885 -9.0124512 -0.37805134 0.94933558
10.41457 -10.284512 -0.42588454 0.94311053
10.150273 -10.540312 -0.42577633 0.94312447
7.9573827 -8.4736814 -0.33823195 0.95454866
7.5618553 -8.4693165 -0.33036634 0.9555819
7.3708591 -8.467207 -0.32664585 0.95607108
7.184082 -8.4651365 -0.32305679 0.95654303
7.001328 -8.4631252 -0.3195951 0.95699829
6.6472263 -8.4592085 -0.31304058 0.95786166
6.1419334 -8.4536228 -0.30404356 0.95904744
5.9798436 -8.4518356 -0.3012538 0.95941556
5.359375 -8.4449806 -0.29103059 0.96076536
5.0642772 -8.4417086 -0.2864399 0.96137214
4.7782226 -8.4385643 -0.28216961 0.96193707
4.3642969 -8.4340038 -0.27631572 0.96271175
4.2300391 -8.4325094 -0.27450338 0.96295172
3.8373828 -8.428174 -0.26945785 0.96361995
3.4583592 -8.423974 -0.26496658 0.96421558
3.2124219 -8.4212399 -0.26225775 0.96457481
2.9712889 -8.4185839 -0.25976643 0.96490532
2.8523631 -8.417285 -0.25859857 0.96506017
2.7345312 -8.415967 -0.25748357 0.96520835
2.3867383 -8.4121284 -0.25443086 0.96561366
2.272578 -8.4108591 -0.25350925 0.96573615
2.1592383 -8.4096088 -0.2526328 0.96585238
1.8235742 -8.4059076 -0.250278 0.9661653
1.7129883 -8.4046974 -0.24958061 0.96625793
1.4936328 -8.4022846 -0.24831535 0.96642607
1.3847852 -8.4010639 -0.24774629 0.96650177
0.95365232 -8.3963079 -0.24587864 0.96674985
0.84681636 -8.3951073 -0.2455131 0.96679854
0.74027342 -8.3939352 -0.24518813 0.96684188
0.52794921 -8.3916016 -0.24465534 0.96691275
0.31642577 -8.389267 -0.2442777 0.96696293
0.21083984 -8.3880854 -0.24414706 0.96698028
-1.953125e-05 -8.3857718 -0.24400264 0.96699953
-0.10539062 -8.3845892 -0.24398777 0.9670015
-0.21078125 -8.3834276 -0.24401143 0.96699834
-0.31617185 -8.3822756 -0.24407366 0.96698999
-0.9513281 -8.3752632 -0.24526313 0.9668318
-1.0579296 -8.3740911 -0.24559855 0.96678716
-1.1648437 -8.3728905 -0.24597387 0.96673733
-2.2590821 -8.3607807 -0.25199953 0.9659366
-2.3718359 -8.3595505 -0.25284058 0.96582484
-2.4853711 -8.3583002 -0.25372577 0.96570706
-2.7149608 -8.355752 -0.25564232 0.96545297
-2.8310938 -8.3544626 -0.25667 0.96531636
-2.9481835 -8.3531733 -0.25774822 0.96517318
-3.0663085 -8.3518848 -0.25887567 0.96502334
-3.1854296 -8.3505468 -0.26005569 0.96486694
-3.3057032 -8.3492384 -0.26128694 0.96470344
-3.6737304 -8.3451757 -0.26530734 0.96417016
-4.3147264 -8.3380957 -0.27317291 0.96312773
-4.5823045 -8.3351364 -0.27676201 0.96265244
-4.7188282 -8.3336134 -0.27865908 0.96240139
-4.9976172 -8.3305464 -0.28266791 0.96187091
-5.2847657 -8.3273535 -0.28697774 0.96130103
-5.5809765 -8.3240919 -0.29160669 0.96068913
-5.7327147 -8.322422 -0.29404837 0.96036655
-5.8871093 -8.320713 -0.29657972 0.96003234
-6.0441012 -8.3189745 -0.29920095 0.9596864
-6.3668747 -8.3154202 -0.30473351 0.95895642
-6.7019529 -8.3117085 -0.31067356 0.95817339
-7.2304101 -8.3058491 -0.32041952 0.95688987
-7.4141016 -8.3038177 -0.32391089 0.95643067
-7.9904685 -8.2974701 -0.33517954 0.95494938
-8.397871 -8.2929688 -0.3434169 0.95386821
-8.6092968 -8.2906342 -0.3477729 0.95329684
-8.8261518 -8.2882423 -0.35229731 0.95270383
-1.0355469 -0.9482519 -0.04085556 0.99439692
-1.0356445 -0.92466795 -0.040397376 0.99445957
-1.0359765 -0.83532226 -0.038722228 0.99468875
-1.0360546 -0.81412107 -0.038339578 0.99474102
-1.0361913 -0.77291012 -0.037614133 0.99484038
-1.03625 -0.75289059 -0.037270315 0.99488741
-1.0589062 -0.70994139 -0.037095297 0.99491137
-1.0882226 -0.70994139 -0.037806701 0.99481398
-1.1503906 -0.70994139 -0.039334487 0.99460506
-1.1834179 -0.70995116 -0.040155105 0.99449271
-1.2538086 -0.70995116 -0.041924629 0.99425071
-1.4607812 -0.70993161 -0.047258414 0.99352169
-1.6692969 -0.70995116 -0.052781865 0.99276721
-1.7293164 -0.70993161 -0.054393347 0.99254727
-1.7801172 -0.70478517 -0.055707738 0.9923678
-1.7800781 -0.67902344 -0.055435028 0.992405
-1.7800391 -0.65350586 -0.055173721 0.99244064
-12.743828 -4.4978123 -0.39322487 0.94735634
-12.798613 -4.3370605 -0.39320222 0.94735926
-14.779648 -4.1933594 -0.44701946 0.94037354
-16.255713 -4.1737595 -0.48833647 0.93504524
-16.570156 -3.8133397 -0.4947435 0.93422133
-16.773926 -2.7648828 -0.49465877 0.93423259
-16.806944 -2.5538182 -0.494645 0.93423408
-16.837236 -2.3423536 -0.49463233 0.93423587
-16.865009 -2.130537 -0.49462068 0.93423712
-16.890087 -1.9184277 -0.49461016 0.93423849
-16.912519 -1.7059765 -0.49460074 0.93423975
-16.932295 -1.493291 -0.4945924 0.934241
-16.991865 -0.42712891 -0.4945668 0.93424392
-15.537011 -0 -0.4951635 0.93971407
-15.532128 0.39043945 -0.49516505 0.93971401
-15.526084 0.58558595 -0.49516734 0.93971366
-15.506689 0.97558594 -0.49517488 0.93971282
-15.477724 1.3650292 -0.49518639 0.93971115
-15.459473 1.5594043 -0.49519366 0.93971068
-15.415977 1.9474804 -0.49521109 0.93970847
-15.390625 2.1410937 -0.49522129 0.93970722
-15.332617 2.5273144 -0.49524465 0.93970472
-14.234179 3.8459861 -0.46991134 0.9426989
-13.522031 3.8365526 -0.4479546 0.94530129
-12.886445 3.8318357 -0.4284634 0.94761813
-11.693438 3.9625683 -0.3934859 0.95178944
-1.7808594 0.65383786 -0.060460508 0.99243653
-1.7808985 0.67936522 -0.060747411 0.99240083
-1.7292968 0.70995116 -0.059576642 0.99254668
-1.6692969 0.70997071 -0.057811391 0.99276656
-1.5592577 0.70996094 -0.054602392 0.99316686
-1.3719531 0.70997071 -0.049231604 0.99383688
-1.3307421 0.70995116 -0.048068311 0.99398202
-1.2913867 0.70995116 -0.046965521 0.9941197
-1.2538086 0.70996094 -0.045919836 0.99425024
-1.217832 0.70994139 -0.044926185 0.99437439
-1.1833984 0.70997071 -0.043981664 0.99449229
-1.0589062 0.70994139 -0.040629998 0.9949109
-1.0355663 0.75238281 -0.040794637 0.99489039
-1.0354297 0.7927832 -0.0415604 0.99479461
-1.0351562 0.85637695 -0.042816315 0.99463779
-1.035078 0.87844723 -0.043265801 0.99458158
-1.0349804 0.90096676 -0.043731879 0.99452347
-1.0348828 0.9240039 -0.044215124 0.99446315
-1.0347656 0.94754881 -0.044715919 0.99440062
-8.0885544 7.7892871 -0.35787639 0.95605475
-7.885488 7.7870212 -0.35319266 0.95661724
-7.6876168 7.7848434 -0.34868419 0.95715892
-7.494668 7.7827148 -0.34434181 0.95768094
-7.3064647 7.7806344 -0.34016037 0.95818394
-7.1227536 7.7786036 -0.33613127 0.95866877
-6.5964255 7.7727828 -0.32489944 0.96002215
-6.4286523 7.770947 -0.32141975 0.96044165
-6.2643747 7.7691402 -0.31806257 0.96084654
-6.1035156 7.7673535 -0.31482431 0.96123725
-5.7912107 7.7638865 -0.3086859 0.96197855
-5.6395702 7.7622266 -0.30577812 0.96232986
-5.4907031 7.7605758 -0.30297139 0.96266913
-5.3445311 7.758955 -0.30026183 0.96299672
-5.0597849 7.7558203 -0.29512474 0.9636181
-4.7844529 7.7527633 -0.29034021 0.96419722
-4.5177341 7.7498145 -0.28588769 0.96473664
-4.387363 7.7483687 -0.28377762 0.96499228
-4.2589064 7.746953 -0.28174275 0.96523881
-4.1322265 7.7455664 -0.27978119 0.96547657
-3.8840625 7.7428122 -0.27606872 0.96592683
-3.6422069 7.7401562 -0.27262264 0.96634489
-3.5235155 7.7388377 -0.27099562 0.96654236
-2.9496288 7.7324996 -0.26375398 0.96742177
-2.8383985 7.7312789 -0.26247412 0.96757716
-2.7282422 7.7300582 -0.26124781 0.96772611
-2.6190624 7.7288671 -0.26007408 0.96786869
-1.9826171 7.7218261 -0.25407293 0.96859825
-1.8792578 7.720664 -0.25323915 0.96869981
-1.674414 7.7184081 -0.25170505 0.96888649
-1.5729492 7.7172852 -0.25100347 0.96897173
-1.471953 7.7161717 -0.25034609 0.96905178
-1.3714844 7.7150583 -0.24972987 0.96912664
-1.2715234 7.7139745 -0.2491587 0.96919626
-1.1719922 7.7128515 -0.24862763 0.96926093
-1.0728515 7.7117672 -0.24813797 0.96932054
-0.67974609 7.7074218 -0.24658673 0.96950942
-0.38761717 7.7041893 -0.24584039 0.96960026
-0.29054686 7.703115 -0.24567063 0.969621
-0.19363281 7.7020407 -0.24553964 0.96963698
0.096718751 7.6988182 -0.24537818 0.96965653
0.29027343 7.6966891 -0.24546546 0.96964592
0.38712889 7.6956248 -0.2455664 0.96963352
0.48406249 7.6945701 -0.2457072 0.96961635
0.58117187 7.6934762 -0.24588689 0.9695946
0.67835939 7.6924024 -0.24610563 0.96956795
0.77580076 7.6913376 -0.24636292 0.96953648
1.0695312 7.6880856 -0.24737504 0.96941328
1.1679883 7.6869922 -0.24779364 0.9693625
1.2668359 7.6859078 -0.24825263 0.96930665
1.3660938 7.684824 -0.24875182 0.96924579
1.4656836 7.6837206 -0.24929315 0.96917999
1.5658008 7.6826172 -0.24987577 0.96910906
1.6663672 7.6814938 -0.25050113 0.969033
2.177793 7.675859 -0.25428239 0.96857291
2.2820313 7.6746874 -0.2551738 0.96846455
2.3870702 7.6735253 -0.25611269 0.96835041
2.5995116 7.6711817 -0.25813437 0.96810466
2.7070117 7.6700096 -0.25921765 0.96797282
2.8154492 7.6688085 -0.26035202 0.96783489
3.0352733 7.666357 -0.26277789 0.96754032
3.1467578 7.6651363 -0.26407048 0.96738327
3.259414 7.6638961 -0.2654177 0.96721959
3.3731639 7.6626368 -0.26682198 0.96704918
3.6044726 7.6600585 -0.26980174 0.96668738
3.7221093 7.6587791 -0.27138209 0.96649551
4.4598827 7.6506152 -0.28222781 0.9651801
4.7195897 7.6477637 -0.28640723 0.96467358
5.4054685 7.6401854 -0.29827082 0.96323764
5.9983592 7.6336226 -0.30940452 0.96189189
6.1537108 7.6319041 -0.31244493 0.96152467
6.3121481 7.630156 -0.31559399 0.96114433
6.8076172 7.6246872 -0.32575703 0.95991856
7.1563668 7.6208396 -0.33317345 0.95902503
7.5215816 7.616787 -0.3411558 0.95806432
7.7108984 7.614707 -0.34537449 0.95755684
8.1041212 7.6103611 -0.35430491 0.95648348
9.7256641 8.6835642 -0.41552299 0.94915897
9.8350391 8.5615625 -0.41556799 0.94915378
9.9429493 8.4382124 -0.41561243 0.94914836
10.049218 8.3134861 -0.41565621 0.94914323
10.153906 8.1873341 -0.4156993 0.94913834
10.257071 8.0599508 -0.41574177 0.9491331
1.2656446 0.91955078 -0.04985714 0.99375868
1.2658007 0.87191403 -0.04898506 0.99386764
1.2659765 0.82590818 -0.048172645 0.99396896
1.2661718 0.75960934 -0.047057416 0.9941082
1.2662694 0.73817378 -0.046711538 0.99415129
1.2913672 0.70994139 -0.046965711 0.99411976
1.3307617 0.70996094 -0.048068199 0.9939819
1.4152734 0.70996094 -0.050461005 0.99368334
1.4608203 0.70996094 -0.051761817 0.99352098
1.6127343 0.70995116 -0.056156728 0.99297291
1.6693164 0.70994139 -0.057811543 0.99276656
1.7293164 0.70997071 -0.059576873 0.99254656
1.7931249 0.70996094 -0.061462402 0.99231154
1.8611132 0.70995116 -0.06348259 0.99205995
2.0101757 0.65315425 -0.067361064 0.99157685
15.272793 4.5414062 -0.50780416 0.93822348
15.329335 4.3493261 -0.50782758 0.9382208
15.383418 4.1565428 -0.50784993 0.9382183
15.435117 3.9630761 -0.50787139 0.93821567
15.531015 3.5742188 -0.50791115 0.93821108
15.575293 3.3788965 -0.5079295 0.93820882
15.656367 2.9866211 -0.50796324 0.93820471
15.727363 2.5923924 -0.50799274 0.93820131
15.759121 2.3945994 -0.50800604 0.9381997
15.815039 1.9979199 -0.5080294 0.93819702
15.860859 1.599912 -0.50804865 0.93819469
15.879922 1.400498 -0.5080567 0.93819392
15.896523 1.2008593 -0.50806373 0.93819296
15.910468 1.0010155 -0.50806963 0.93819255
15.930898 0.60086912 -0.50807846 0.93819141
15.941172 0.20033203 -0.50808311 0.93819064
15.942422 -0 -0.50808382 0.9381907
15.941172 -0.20033203 -0.50808352 0.93819064
15.937383 -0.40061522 -0.50808221 0.9381907
15.930937 -0.60083985 -0.50807977 0.93819129
15.860918 -1.5998925 -0.50805211 0.93819451
15.839316 -1.7990429 -0.50804341 0.93819541
15.759238 -2.3945994 -0.50801122 0.93819928
15.693281 -2.7897363 -0.50798452 0.93820238
15.617305 -3.1830468 -0.50795376 0.93820584
15.575546 -3.3789258 -0.50793684 0.93820786
15.531269 -3.5742579 -0.50791889 0.93821013
15.329629 -4.3494043 -0.50783694 0.93821967
14.699336 -4.5727048 -0.49061072 0.94025147
1.9337695 -0.70993161 -0.065651089 0.99178982
1.8611327 -0.70994139 -0.063483045 0.99205989
1.7931249 -0.70995116 -0.061463315 0.9923116
1.7293359 -0.70994139 -0.059577025 0.99254656
1.6693358 -0.70993161 -0.057811927 0.9927665
1.6127343 -0.70994139 -0.056157112 0.99297291
1.5592773 -0.70992184 -0.05460304 0.99316686
1.3719921 -0.70994139 -0.049232062 0.99383676
1.2913867 -0.70993161 -0.046965942 0.9941197
1.26625 -0.73813474 -0.046711538 0.99415147
1.2661718 -0.75958985 -0.047057416 0.99410826
1.2658789 -0.8486914 -0.048571587 0.99391925
1.2657226 -0.89550781 -0.049413376 0.99381417
1.265625 -0.91952145 -0.049857024 0.9937588
1.2655468 -0.94397461 -0.050316848 0.9937014
9.9312887 -7.803906 -0.40253511 0.95070833
9.8314838 -7.9273047 -0.40249431 0.95071304
9.7300777 -8.0493555 -0.40245277 0.9507181
9.474472 -8.0406151 -0.3960315 0.95148522
9.4167185 -8.4076757 -0.40232456 0.9507336
9.6182423 -9.2623243 -0.42555663 0.94796383
9.5 -9.3813477 -0.42550817 0.94796973
9.3802538 -9.498867 -0.42545918 0.9479757
9.2591009 -9.6149216 -0.42540959 0.94798142
7.9573827 -8.4736719 -0.3704665 0.9545449
7.7572656 -8.4714842 -0.3660779 0.95507097
7.5618358 -8.469326 -0.36184955 0.95557827
7.3708396 -8.4672165 -0.35777426 0.95606744
7.0013475 -8.4631252 -0.35005325 0.95699471
6.4754882 -8.4573145 -0.33947036 0.95826751
6.3071094 -8.4554396 -0.33618709 0.95866263
5.5105467 -8.4466505 -0.32141745 0.96044225
5.359375 -8.4449806 -0.31876633 0.96076214
5.2106638 -8.4433498 -0.31620693 0.96107084
5.0643163 -8.4417286 -0.31373805 0.9613688
4.9201951 -8.4401369 -0.31135628 0.96165639
4.7782226 -8.4385548 -0.30905965 0.96193391
4.6383204 -8.4370117 -0.30684301 0.9622016
4.3642969 -8.4339743 -0.30264691 0.96270877
4.2300587 -8.4324999 -0.30066177 0.96294868
3.9666796 -8.4295998 -0.29691014 0.96340251
3.7096093 -8.4267673 -0.29343224 0.96382332
3.3347461 -8.4225979 -0.28870353 0.96439594
3.0912499 -8.4199219 -0.28585756 0.96474063
2.9712694 -8.4185934 -0.2845217 0.9649024
2.8523438 -8.4172754 -0.28324372 0.96505731
2.7345116 -8.4159861 -0.28202224 0.96520543
2.272578 -8.4108791 -0.27766806 0.96573323
2.0466406 -8.4083786 -0.27580133 0.96595979
1.8235546 -8.4059076 -0.27412891 0.96616256
1.7130078 -8.4046974 -0.2733652 0.96625513
1.6030273 -8.4034863 -0.27264947 0.96634203
1.4936132 -8.4022951 -0.27198029 0.96642321
1.2763281 -8.3998823 -0.27077812 0.96656913
0.84679687 -8.3951168 -0.26891202 0.9667958
0.63396484 -8.3927631 -0.26824132 0.96687722
0.42205077 -8.3904295 -0.26774243 0.96693772
0.2108203 -8.3881054 -0.26741379 0.96697748
-3.9062499e-05 -8.3857613 -0.26725551 0.96699679
-0.31621093 -8.3822947 -0.26733437 0.96698713
-0.42167968 -8.3811226 -0.26744488 0.96697372
-0.63298827 -8.3787794 -0.26779309 0.96693146
-0.73888671 -8.3776073 -0.26803213 0.96690249
-0.95128906 -8.3752537 -0.26863614 0.96682906
-1.1648437 -8.3729 -0.26941577 0.96673453
-1.2721288 -8.3717279 -0.26986983 0.96667928
-1.4878125 -8.3693161 -0.2709136 0.96655273
-1.705332 -8.3669338 -0.27213743 0.96640414
-1.8148828 -8.3657131 -0.27281809 0.96632153
-2.1470702 -8.3620405 -0.27514309 0.96603936
-2.2590821 -8.3608007 -0.27601573 0.96593368
-2.4853711 -8.3583002 -0.27790728 0.9657042
-2.5997264 -8.3570509 -0.27893028 0.96558022
-2.8310938 -8.3544722 -0.28113016 0.96531343
-3.0663085 -8.3518744 -0.28354716 0.96502048
-3.3057225 -8.3492279 -0.28618819 0.96470052
-3.5498047 -8.3465328 -0.28906411 0.96435231
-3.6737499 -8.3451662 -0.2905919 0.96416718
-3.7990234 -8.3437891 -0.29218343 0.96397448
-4.0537891 -8.3409767 -0.29555961 0.96356589
-4.1834373 -8.339551 -0.29734835 0.96334946
-4.3146873 -8.3380861 -0.29920676 0.96312481
-4.4476366 -8.3366213 -0.30113563 0.96289146
-4.7188087 -8.3336134 -0.30521601 0.96239829
-4.8572264 -8.3320894 -0.3073709 0.96213782
-5.1401172 -8.3289642 -0.31192344 0.96158785
-5.4316797 -8.3257227 -0.31681564 0.96099734
-5.5809569 -8.3240814 -0.3193973 0.96068591
-5.8870702 -8.320713 -0.32484275 0.96002913
-6.0441012 -8.318965 -0.32771423 0.95968312
-6.3668747 -8.3154097 -0.33377555 0.95895308
-6.7019529 -8.3117189 -0.34027979 0.95816994
-6.8745117 -8.3098049 -0.34371245 0.95775712
-7.0506248 -8.3078413 -0.34726858 0.95732939
-7.6018944 -8.3017483 -0.35874334 0.95595092
-7.7939844 -8.2996483 -0.36285576 0.95545727
-8.1917181 -8.2952633 -0.37154964 0.95441484
-8.8261518 -8.2882318 -0.38587207 0.95269996
-1.0347852 -0.94753903 -0.044715919 0.99440062
-1.0353125 -0.81354493 -0.041964147 0.99474436
-1.0354102 -0.79277343 -0.041560438 0.99479473
-1.035625 -0.73273438 -0.040431365 0.99493575
-1.0357031 -0.71341795 -0.040080871 0.99497956
-1.0882226 -0.70994139 -0.041409682 0.99481356
-1.1186719 -0.70993161 -0.042226449 0.99471164
-1.1503906 -0.70994139 -0.043082885 0.99460459
-1.1833984 -0.70993161 -0.043981932 0.99449235
-1.3307226 -0.70992184 -0.04806881 0.99398214
-1.5087109 -0.70994139 -0.05314064 0.99334925
-1.5592968 -0.70993161 -0.054602966 0.99316674
-1.6126952 -0.70995116 -0.056157224 0.99297303
-1.7293164 -0.70993161 -0.059577141 0.99254662
-1.7809179 -0.67933595 -0.060747031 0.99240083
-1.7808594 -0.65381837 -0.060460623 0.99243653
-12.984961 -4.2190623 -0.4351252 0.94682544
-14.779687 -4.1933689 -0.48961818 0.94036853
-15.055058 -3.8654883 -0.49536544 0.93969011
-15.101835 -3.6758397 -0.49534601 0.9396925
-15.146289 -3.4856443 -0.49532759 0.93969458
-15.228007 -3.1037109 -0.49529362 0.93969876
-15.265351 -2.9120312 -0.49527809 0.93970054
-15.362968 -2.3344042 -0.49523741 0.93970543
-15.439062 -1.7535937 -0.49520555 0.93970913
-15.45959 -1.559414 -0.49519691 0.9397102
-15.477724 -1.365 -0.49518928 0.93971115
-15.493447 -1.1703808 -0.4951826 0.93971193
-15.526133 -0.58557618 -0.49516857 0.93971348
-15.532138 -0.39043945 -0.49516588 0.93971395
-14.253008 1.2570019 -0.49568915 0.9443413
-14.217343 1.6148437 -0.49570337 0.94433963
-14.172773 1.9716601 -0.49572131 0.94433779
-14.119374 2.3273242 -0.49574286 0.94433534
-14.089375 2.5046289 -0.49575499 0.94433397
-14.022715 2.8580565 -0.49578196 0.94433117
-13.986094 3.0341308 -0.4957968 0.94432962
-13.947383 3.2097461 -0.49581251 0.94432759
-13.863203 3.5594726 -0.49584669 0.94432414
-11.256914 3.8146484 -0.41175997 0.95354247
-10.801992 3.8124804 -0.39684144 0.95518744
-1.7817187 0.65415037 -0.065753669 0.99243218
-1.6692969 0.70997071 -0.062842749 0.9927659
-1.6126952 0.70996094 -0.061043698 0.99297237
-1.5086914 0.70997071 -0.057764623 0.99334866
-1.4607812 0.70996094 -0.056266401 0.9935205
-1.4152343 0.70996094 -0.054852445 0.99368292
-1.3307421 0.70995116 -0.052251358 0.99398142
-1.2913867 0.70995116 -0.051052742 0.99411911
-1.217832 0.70995116 -0.048836019 0.99437386
-1.0589062 0.70994139 -0.044165839 0.99491042
-1.0347656 0.77187496 -0.044723015 0.99484646
-1.0346875 0.7922461 -0.0451461 0.99479783
-1.0346093 0.81300777 -0.045584373 0.9947474
-1.0344921 0.83416992 -0.046038628 0.99469525
-1.0344141 0.85577148 -0.0465094 0.99464113
-1.034336 0.87780273 -0.046997223 0.99458504
-1.0342187 0.90031248 -0.047503088 0.99452698
-1.034121 0.92333984 -0.048027534 0.99446666
-7.6875777 7.7848434 -0.37902728 0.95715517
-7.4946876 7.7827244 -0.37430832 0.95767707
-7.1227536 7.7786131 -0.3653847 0.95866501
-6.9433203 7.7766309 -0.36116308 0.95913255
-6.5964451 7.7727928 -0.35317162 0.96001846
-6.4286523 7.7709374 -0.34939006 0.96043807
-6.2643747 7.7691207 -0.34574097 0.96084303
-6.1034765 7.7673535 -0.34222084 0.96123379
-5.9458203 7.7656054 -0.33882526 0.96161097
-5.7912302 7.7638965 -0.33554947 0.96197504
-5.6395311 7.7622361 -0.33238739 0.96232653
-5.4907227 7.7605858 -0.32933635 0.96266574
-5.2009373 7.7573829 -0.32355002 0.96330953
-4.9209571 7.7542968 -0.31816146 0.96390951
-4.6500778 7.7512794 -0.31314296 0.96446848
-4.387363 7.7483687 -0.3084732 0.96498907
-4.2589064 7.746953 -0.3062616 0.96523565
-4.0073242 7.7441893 -0.30207396 0.96570271
-3.8840818 7.7428222 -0.30009276 0.96592367
-3.7623827 7.7414646 -0.29818445 0.96613675
-3.6422265 7.7401657 -0.29634756 0.96634179
-3.0619922 7.7337399 -0.28815603 0.96725672
-2.9496484 7.7325096 -0.28670612 0.96741873
-2.8383985 7.7312694 -0.28531587 0.96757424
-2.7282422 7.7300487 -0.28398201 0.96772319
-2.6190624 7.7288475 -0.2827071 0.96786582
-2.4035547 7.7264743 -0.28032047 0.96813262
-2.1915233 7.7241306 -0.27814987 0.96837556
-2.0867188 7.722959 -0.27714267 0.96848834
-1.8792382 7.720664 -0.27527657 0.96869701
-1.5729296 7.7172852 -0.27284718 0.96896899
-1.471953 7.7161717 -0.27213171 0.96904898
-1.3715038 7.7150488 -0.27146381 0.9691239
-1.2715234 7.7139549 -0.27084082 0.96919352
-1.1719922 7.7128515 -0.27026346 0.96925819
-1.0728515 7.7117672 -0.26973122 0.96931773
-0.97414058 7.7106543 -0.26924354 0.96937239
-0.8757031 7.7095604 -0.26880005 0.9694221
-0.77761716 7.7084961 -0.26840121 0.96946681
-0.48482421 7.7052636 -0.26746124 0.96957201
-0.19365235 7.7020311 -0.26690587 0.96963423
0.096718751 7.6988473 -0.26673228 0.96965367
0.19349609 7.6977735 -0.26675767 0.9696508
0.48410156 7.6945605 -0.26708981 0.96961361
0.67835939 7.6923923 -0.26752219 0.96956521
0.87343746 7.6902442 -0.26812625 0.96949756
0.97132808 7.6891599 -0.268493 0.96945649
1.0694922 7.688076 -0.26890403 0.96941054
1.1680077 7.6870017 -0.26935795 0.96935964
1.2668359 7.6858983 -0.26985681 0.96930391
1.4656836 7.683701 -0.27098721 0.96917725
1.6663672 7.6814742 -0.27230018 0.96903026
2.0742579 7.6769724 -0.27549151 0.96867305
2.4928515 7.6723437 -0.27947247 0.96822768
2.5994725 7.6711817 -0.28059757 0.9681018
2.7070117 7.6699901 -0.28177512 0.96796995
2.9248438 7.6675878 -0.2842983 0.96768785
3.1467774 7.6651464 -0.28705031 0.96738029
3.2593749 7.6638865 -0.2885147 0.96721667
3.3731639 7.6626368 -0.29004014 0.9670462
3.488203 7.6613474 -0.29162896 0.96686882
3.6044922 7.660078 -0.29328144 0.96668422
3.8412108 7.6574707 -0.29678339 0.96629304
4.2074218 7.6534276 -0.3025623 0.96564817
4.3327928 7.6520505 -0.3046357 0.96541673
4.4598632 7.6506248 -0.30678749 0.96517694
4.588789 7.6492186 -0.30901861 0.96492815
4.7196093 7.6477637 -0.31133175 0.96467036
4.9873438 7.6447949 -0.3162159 0.96412623
5.124414 7.643291 -0.31879205 0.96383935
5.2637501 7.641748 -0.32146111 0.96354216
5.405488 7.6401854 -0.32422724 0.96323425
5.9983788 7.6336422 -0.33632854 0.96188837
6.3121481 7.6301465 -0.343059 0.96114081
6.8075585 7.6246777 -0.35410607 0.9599151
6.9800196 7.6227636 -0.35806373 0.95947629
7.1563668 7.6208301 -0.36216697 0.95902133
7.3367968 7.6188474 -0.36642638 0.95854974
7.5215621 7.6167965 -0.37084341 0.95806056
7.7108984 7.614697 -0.37543073 0.95755303
8.1041212 7.6103611 -0.38514015 0.95647955
8.8382025 8.0930662 -0.41515937 0.95316815
8.8454294 7.5067968 -0.40191203 0.95462793
8.9398823 7.3957224 -0.40195096 0.95462388
9.0330076 7.2835059 -0.40198928 0.95461953
1.2646874 0.94333005 -0.054658201 0.99370509
1.2648828 0.89492184 -0.053677596 0.99381763
1.2651563 0.82539058 -0.052330434 0.99397224
1.2652344 0.80293941 -0.051912382 0.99402034
1.2652929 0.78086913 -0.051509168 0.99406672
1.2653711 0.75913084 -0.051119879 0.99411142
1.2655468 0.716582 -0.050382346 0.99419606
1.3307617 0.70996094 -0.052251395 0.99398136
1.4152734 0.70996094 -0.054852486 0.9936828
1.5087109 0.70996094 -0.057764471 0.9933486
1.5592968 0.70995116 -0.059354171 0.99316609
1.6693164 0.70994139 -0.062842749 0.9927659
1.7931249 0.70996094 -0.066811368 0.99231082
2.0123045 0.65382808 -0.073299937 0.99156725
14.185117 3.6421192 -0.50735867 0.9430688
14.273203 3.2847459 -0.50739521 0.94306475
14.313828 3.1052442 -0.50741208 0.9430629
14.453418 2.3823924 -0.50747013 0.94305664
14.509336 2.018496 -0.50749344 0.94305432
14.533906 1.8360645 -0.50750375 0.94305295
14.556093 1.6533399 -0.50751305 0.94305193
14.575976 1.4702929 -0.50752145 0.94305098
14.593476 1.2870409 -0.50752878 0.94305032
14.60871 1.1035644 -0.50753522 0.94304949
14.63209 0.73611325 -0.50754523 0.94304854
14.640292 0.5521875 -0.50754881 0.94304812
14.646093 0.36816406 -0.50755137 0.94304806
14.650801 -0 -0.5075537 0.94304776
14.649648 -0.18410155 -0.50755346 0.94304776
14.646172 -0.36816406 -0.50755221 0.94304776
14.621582 -0.9199121 -0.50754267 0.94304889
14.608788 -1.103545 -0.50753766 0.94304925
14.482695 -2.2006445 -0.507487 0.9430548
14.453515 -2.382412 -0.50747526 0.94305623
14.42207 -2.5637598 -0.50746256 0.94305766
14.352304 -2.9252148 -0.50743431 0.9430607
14.314023 -3.1052637 -0.50741875 0.94306219
14.230508 -3.4637694 -0.5073849 0.94306588
14.185273 -3.6421483 -0.50736654 0.94306821
14.13791 -3.8199999 -0.50734723 0.94307005
14.036269 -4.1737304 -0.50730592 0.9430747
2.0122657 -0.65383786 -0.0732999 0.99156737
2.0124218 -0.68194336 -0.073610418 0.99153167
1.9337695 -0.70995116 -0.071364135 0.99178904
1.5087109 -0.70993161 -0.057764739 0.99334866
1.4608203 -0.70993161 -0.056266822 0.99352044
1.3719921 -0.70994139 -0.053516578 0.99383622
1.2914257 -0.70993161 -0.051053006 0.99411905
1.2655274 -0.71657223 -0.050382119 0.99419618
1.2654492 -0.73767579 -0.050744247 0.99415457
1.2651953 -0.80292964 -0.051912419 0.99402046
1.2650195 -0.84814453 -0.052763671 0.99392277
1.2649804 -0.87131834 -0.053212509 0.99387109
1.2647656 -0.91889644 -0.054159392 0.99376243
9.2189846 -7.0586329 -0.40224198 0.95459163
9.0370312 -7.2867284 -0.40216753 0.9545998
8.753418 -7.6199412 -0.40205145 0.95461273
8.1495705 -8.2525778 -0.4018043 0.95463997
8.0443354 -8.353447 -0.40176123 0.95464474
7.7572656 -8.4714842 -0.39793599 0.95506698
7.5618553 -8.4692965 -0.39333975 0.95557427
7.001328 -8.4631147 -0.38051558 0.9569909
6.8224607 -8.4611521 -0.37654278 0.95743024
5.8206444 -8.4500875 -0.35547018 0.95976406
5.664238 -8.448349 -0.35237452 0.96010739
5.5105076 -8.4466696 -0.34938869 0.96043867
4.778203 -8.4385643 -0.33595431 0.96193051
4.6383009 -8.4370022 -0.33354607 0.96219826
4.500371 -8.4354782 -0.33122382 0.96245641
4.3642969 -8.4339743 -0.32898474 0.96270537
3.5833006 -8.4253511 -0.31718642 0.96401858
3.4583592 -8.4239645 -0.31547332 0.96420944
3.3347654 -8.4225979 -0.31382802 0.96439272
3.2124023 -8.4212494 -0.3122485 0.96456867
2.9712694 -8.4185934 -0.30928242 0.96489924
2.8523438 -8.4172754 -0.30789322 0.96505415
2.6176367 -8.4146872 -0.30529454 0.96534389
2.3867383 -8.4121389 -0.30293068 0.96560764
2.272578 -8.4108686 -0.30183125 0.96573013
2.0466211 -8.4083691 -0.2998009 0.96595675
1.9347656 -8.4071388 -0.29886726 0.966061
1.8235546 -8.4059181 -0.2979852 0.96615946
1.6030469 -8.4034567 -0.29637593 0.96633911
1.4936328 -8.4022655 -0.29564831 0.96642029
1.3847656 -8.4010544 -0.29496977 0.96649605
1.1683984 -8.3986816 -0.29376221 0.96663082
1.0608203 -8.39748 -0.2932314 0.96669024
0.95363277 -8.3962984 -0.29274845 0.96674412
0.74027342 -8.3939447 -0.29192516 0.96683609
0.63398439 -8.3927736 -0.29158404 0.96687412
0.52792966 -8.3916016 -0.29129067 0.96690702
0.2108203 -8.3880959 -0.29068556 0.96697456
-3.9062499e-05 -8.3857517 -0.29051358 0.96699387
-0.10539062 -8.3845997 -0.2904959 0.96699578
-0.31617185 -8.3822556 -0.29059929 0.96698433
-0.42166016 -8.3811131 -0.29071942 0.9669708
-0.73888671 -8.3775978 -0.29135668 0.96689957
-1.1648437 -8.3728905 -0.29286164 0.96673161
-1.2721484 -8.3717184 -0.29335436 0.96667629
-1.3797656 -8.3705177 -0.29389727 0.96661574
-1.4878125 -8.3693066 -0.29448903 0.96654975
-1.5963671 -8.368125 -0.29512876 0.96647817
-1.7053515 -8.3669233 -0.29581934 0.96640116
-1.8148828 -8.3657026 -0.29656017 0.96631855
-1.9249804 -8.3644819 -0.29735076 0.96623027
-2.0357032 -8.3632717 -0.29819304 0.96613616
-2.1470506 -8.362031 -0.29908764 0.96603638
-2.3718359 -8.35956 -0.30103636 0.96581888
-2.4853907 -8.3582907 -0.3020913 0.9657011
-2.9482031 -8.3531933 -0.30687928 0.96516705
-3.0662889 -8.3518744 -0.30822188 0.96501732
-3.1854491 -8.3505564 -0.30962771 0.9648608
-3.3057225 -8.3492479 -0.31109387 0.96469724
-3.4271679 -8.3479004 -0.31262374 0.96452671
-3.9256444 -8.3423824 -0.31940868 0.96377099
-4.1834373 -8.3395405 -0.32322407 0.96334618
-4.7188087 -8.3336029 -0.33177757 0.96239489
-4.8572264 -8.332099 -0.33411855 0.96213436
-5.2847657 -8.3273726 -0.34168029 0.96129429
-6.0441208 -8.318984 -0.35623419 0.95967937
-6.2040234 -8.3172169 -0.35946849 0.95932078
-6.3668356 -8.3154097 -0.36281952 0.95894945
-6.5328121 -8.3135643 -0.3662937 0.95856464
-7.0506248 -8.3078613 -0.37748972 0.95732552
-7.2304296 -8.3058596 -0.38149688 0.95688236
-7.7939453 -8.2996387 -0.39443228 0.9554534
-8.0149994 -8.1163673 -0.39516965 0.9553718
-8.2146873 -7.9107032 -0.39508742 0.9553811
-8.3126173 -7.8060546 -0.39504713 0.95538551
-1.0342382 -0.90028316 -0.047503088 0.99452698
-1.0342969 -0.8777734 -0.046997335 0.99458522
-1.0344141 -0.85575193 -0.046509206 0.99464118
-1.0346875 -0.79223633 -0.045146026 0.99479783
-1.0347852 -0.77186519 -0.044722937 0.9948464
-1.0348632 -0.75187498 -0.044314496 0.99489337
-1.0349414 -0.73221678 -0.043920401 0.99493873
-1.0589062 -0.70994139 -0.044166144 0.99491042
-1.1186719 -0.70993161 -0.04590122 0.99471116
-1.1833984 -0.70992184 -0.04780937 0.99449188
-1.2178515 -0.70993161 -0.048836134 0.99437386
-1.2913867 -0.70994139 -0.051053427 0.99411917
