# .PCD v0.7 - Point Cloud Data file format
VERSION 0.7
FIELDS x y z intensity
SIZE 4 4 4 4
TYPE F F F F
COUNT 1 1 1 1
WIDTH 1082
HEIGHT 1
VIEWPOINT 0 0 0 1 0 0 0
POINTS 1082
DATA ascii
-7.6781249 -7.3939648 -0.39884833 0.95822972
-1.0332812 -0.94617188 -0.05242214 0.99440759
-1.0337304 -0.85515624 -0.050198477 0.99464422
-1.0338281 -0.83359373 -0.049690474 0.99469823
-1.0340234 -0.79169923 -0.048727836 0.99480069
-1.0342187 -0.7513867 -0.047831114 0.99489605
-1.1187109 -0.70995116 -0.049576301 0.99471045
-1.1504102 -0.70997071 -0.050581817 0.9946034
-1.2178906 -0.70996094 -0.052746236 0.99437308
-1.253828 -0.70996094 -0.053912885 0.99424905
-1.3307421 -0.70995116 -0.056435432 0.99398082
-1.3719921 -0.70996094 -0.057801358 0.99383557
-1.4607812 -0.70995116 -0.060771979 0.9935199
-1.5592968 -0.70997071 -0.064107016 0.99316537
-1.7293359 -0.70995116 -0.069947124 0.99254513
-12.027773 -4.2450876 -0.47725573 0.95022601
-12.813183 -3.9859471 -0.50209588 0.94770414
-12.862305 -3.8246582 -0.50209725 0.9477039
-12.909336 -3.6627147 -0.5020985 0.94770396
-12.997421 -3.337168 -0.50210094 0.94770354
-13.03832 -3.1735938 -0.50210208 0.94770354
-13.114023 -2.8449512 -0.5021041 0.94770324
-13.181406 -2.5144823 -0.50210583 0.94770318
-13.211953 -2.3486426 -0.50210667 0.94770318
-13.313417 -1.6818848 -0.50210911 0.94770265
-13.351484 -1.3467675 -0.50210994 0.94770265
-13.381113 -1.01083 -0.50211054 0.94770265
-13.392793 -0.84259766 -0.50211072 0.94770247
-13.409726 -0.50576168 -0.5021109 0.94770253
-12.492207 -9.7656248e-06 -0.50208151 0.95122069
-12.491133 0.15697265 -0.50208133 0.95122105
-12.488183 0.313916 -0.50208104 0.95122099
-12.483242 0.47082031 -0.50208074 0.95122105
-12.456601 0.94098634 -0.50207943 0.95122111
-12.443769 1.0974414 -0.50207883 0.95122123
-12.299082 2.186367 -0.50207311 0.95122188
-12.240234 2.4947655 -0.50207096 0.95122194
-12.137422 2.9542968 -0.50206727 0.9512223
-12.099297 3.1065526 -0.5020659 0.95122248
-12.059258 3.2583399 -0.50206447 0.95122266
-12.017383 3.4096484 -0.50206298 0.95122254
-11.973516 3.5603418 -0.50206143 0.95122284
-11.927753 3.7105076 -0.50205988 0.95122313
-11.686015 3.7970116 -0.49385253 0.95200092
-11.185312 3.7903612 -0.47466755 0.95382172
-10.721952 3.7841992 -0.45698661 0.95550305
-1.7834765 0.65475583 -0.07635811 0.99242324
-1.7835156 0.68032223 -0.076720811 0.99238747
-1.50875 0.70994139 -0.067016527 0.99334711
-1.4608203 0.70994139 -0.065278284 0.99351907
-1.3719921 0.70993161 -0.062087402 0.99383497
-1.3307226 0.70994139 -0.060620267 0.99398029
-1.2914063 0.70994139 -0.05922962 0.99411786
-1.253828 0.70992184 -0.057910614 0.99424851
-1.2178906 0.70993161 -0.05665775 0.99437255
-1.1504102 0.70994139 -0.054332733 0.99460292
-1.1186913 0.70993161 -0.053252526 0.99470997
-1.0882422 0.70994139 -0.052222479 0.99481195
-1.0336719 0.71200192 -0.050447006 0.99498791
-1.0335938 0.73126954 -0.050887372 0.99494421
-1.0335156 0.75085938 -0.051343229 0.99489903
-1.0333008 0.79116207 -0.052305259 0.99480373
-1.0332227 0.81184566 -0.052812424 0.99475348
-1.0328906 0.87654293 -0.054447021 0.99459153
-1.0327734 0.89901364 -0.055032119 0.9945336
-1.032539 0.94543946 -0.056267776 0.99441117
-7.0575194 6.9693942 -0.3986524 0.96107107
-6.8800778 7.1444626 -0.39864665 0.96107149
-6.7896872 7.2302928 -0.3986437 0.96107185
-6.6057615 7.3985252 -0.39863777 0.96107239
-6.4176559 7.5620704 -0.39863169 0.96107298
-5.9360743 7.7528906 -0.39244863 0.96166486
-5.6303124 7.7495117 -0.38499245 0.9623794
-5.4817185 7.7478709 -0.38145745 0.96271813
-5.1924219 7.744668 -0.37475565 0.96336108
-4.7766013 7.740068 -0.3655552 0.96424431
-4.6424413 7.7385936 -0.36270142 0.96451843
-4.5103517 7.7371287 -0.35994795 0.96478295
-4.3801951 7.735703 -0.35729197 0.96503818
-4.2519531 7.7342672 -0.35473073 0.96528447
-4.0007615 7.731504 -0.34988111 0.96575093
-3.63625 7.7274804 -0.34324789 0.96638918
-3.5177343 7.726162 -0.34119812 0.96658641
-3.400625 7.7248826 -0.33922705 0.96677613
-3.1703124 7.7223043 -0.33550894 0.9671343
-2.6148047 7.7161813 -0.32744682 0.96791106
-2.3996484 7.713789 -0.32468414 0.96817756
-2.0833008 7.7102928 -0.32100272 0.9685328
-1.8761718 7.7080274 -0.31884173 0.96874106
-1.7736328 7.7068844 -0.31784853 0.96883702
-1.5703515 7.7046485 -0.31602752 0.96901268
-1.2694141 7.7013183 -0.31370437 0.96923697
-1.0711328 7.699121 -0.31241995 0.96936101
-0.97253907 7.6980371 -0.31185508 0.96941549
-0.77632809 7.6958494 -0.31087866 0.9695099
-0.58123046 7.6937108 -0.31010294 0.9695847
-0.48402342 7.6926365 -0.30979061 0.96961492
-0.38699219 7.6915622 -0.30952683 0.96964037
-0.096640624 7.6883492 -0.30903164 0.96968824
-3.9062499e-05 7.687295 -0.30896395 0.96969467
0.28980467 7.6840916 -0.30905482 0.96968591
0.48324218 7.6819334 -0.30936003 0.96965659
0.58019531 7.6808786 -0.30958599 0.96963465
0.67726558 7.6798043 -0.30986196 0.96960807
0.77451169 7.6787305 -0.31018654 0.96957672
0.87199217 7.6776462 -0.31056005 0.96954054
0.96974605 7.6765723 -0.31098542 0.96949953
1.0677344 7.6754785 -0.31146118 0.96945369
1.1660742 7.6743941 -0.31198609 0.96940291
1.8660547 7.6666598 -0.31713146 0.96890622
2.0708594 7.6644039 -0.31909022 0.96871716
2.1742187 7.6632614 -0.3201558 0.96861446
2.3831248 7.6609569 -0.32246003 0.96839213
2.7025781 7.6574121 -0.32636958 0.96801513
2.8108203 7.6562304 -0.32779905 0.96787733
2.9200585 7.6550193 -0.32929358 0.96773338
3.1416016 7.6525683 -0.33247951 0.9674263
3.5985937 7.6475196 -0.33969611 0.96673113
3.7160351 7.6462207 -0.34168586 0.96653962
3.8349218 7.6449218 -0.34375396 0.96634048
3.9552343 7.6435838 -0.34590188 0.96613377
4.0770898 7.6422362 -0.34813225 0.9659192
4.9791403 7.6322851 -0.36626017 0.96417665
5.1160154 7.6307421 -0.36924383 0.96389025
5.3966017 7.6276364 -0.37553945 0.96328604
5.8364258 7.6227832 -0.38586402 0.96229595
6.1435938 7.6194139 -0.39338556 0.96157527
6.4111524 7.5544138 -0.39822856 0.96111161
6.5054684 7.4731836 -0.39822567 0.96111208
6.7824216 7.2225585 -0.39821723 0.96111268
6.8725977 7.1366992 -0.39821449 0.96111298
6.9616795 7.049736 -0.39821178 0.96111321
7.0496287 6.9616208 -0.3982091 0.96111369
7.1365623 6.8724899 -0.39820647 0.96111363
7.4726562 6.5050583 -0.39819634 0.96111465
7.55375 6.4106054 -0.39819384 0.96111494
7.6336327 6.3151169 -0.39819145 0.9611153
7.7123828 6.2186618 -0.39818907 0.96111542
7.8661327 6.0228219 -0.39818445 0.96111584
1.2631249 0.89370114 -0.062190551 0.9938249
1.2633398 0.84701169 -0.061133306 0.99392956
1.2634375 0.82426757 -0.060632169 0.99397916
1.2635351 0.80186522 -0.060148351 0.99402708
1.2637109 0.75812501 -0.059230994 0.99411792
1.2637891 0.73673826 -0.058796536 0.99416095
1.2638867 0.71564454 -0.058377456 0.99420244
1.3719531 0.70993161 -0.062087592 0.99383509
1.4152343 0.70992184 -0.063638002 0.99368167
1.4607812 0.70994139 -0.065278165 0.99351919
1.5592577 0.70992184 -0.068860888 0.9931649
1.6126952 0.70993161 -0.070820883 0.99297094
1.7931055 0.70994139 -0.077512361 0.99230933
1.8611132 0.70996094 -0.0800597 0.99205756
1.9337305 0.70995116 -0.082793504 0.99178749
2.0167577 0.71179688 -0.085958175 0.99147493
2.0165038 0.65520507 -0.085217893 0.99154794
11.909961 3.7049804 -0.50131077 0.95129412
11.955546 3.5550194 -0.50130945 0.95129424
11.999219 3.4045019 -0.50130826 0.95129442
12.041016 3.2534375 -0.50130707 0.9512946
12.080976 3.1018651 -0.501306 0.95129448
12.155078 2.7972851 -0.50130403 0.9512946
12.189198 2.6443164 -0.50130308 0.9512949
12.221425 2.4909081 -0.50130224 0.95129502
12.251758 2.3371484 -0.50130147 0.95129508
12.306602 2.0285351 -0.5013001 0.95129514
12.392968 1.4076172 -0.50129801 0.95129514
12.448008 0.78315431 -0.50129694 0.95129532
12.471601 0.15671875 -0.50129688 0.95129544
12.471601 -0.15674804 -0.50129724 0.95129544
12.456875 -0.62668943 -0.50129819 0.95129526
12.437207 -0.93952149 -0.50129914 0.9512952
12.424434 -1.0957421 -0.50129968 0.95129514
12.409687 -1.2517773 -0.50130028 0.95129514
12.392988 -1.4076172 -0.50130105 0.95129508
12.374374 -1.563252 -0.50130177 0.9512949
12.353749 -1.7186426 -0.5013026 0.9512949
12.331172 -1.8737402 -0.50130343 0.9512949
12.306699 -2.0285547 -0.50130439 0.95129472
12.119062 -2.9498436 -0.50131124 0.95129424
12.041191 -3.2534764 -0.50131404 0.95129389
11.910117 -3.7050488 -0.50131863 0.95129347
2.0166407 -0.68338865 -0.085579753 0.99151218
1.9337499 -0.70994139 -0.082793422 0.99178743
1.8611327 -0.70995116 -0.080059625 0.9920575
1.7292968 -0.70996094 -0.075133398 0.99254447
1.6127148 -0.70997071 -0.070821039 0.99297082
1.5592773 -0.70996094 -0.068860471 0.99316472
1.4607617 -0.70996094 -0.065278322 0.99351925
1.4152539 -0.70997071 -0.063637808 0.99368155
1.3719531 -0.70996094 -0.062087517 0.99383503
1.3307031 -0.70996094 -0.060620155 0.99398035
1.2913672 -0.70996094 -0.059229698 0.99411798
1.2633398 -0.84704101 -0.061133116 0.99392951
1.2632226 -0.87019527 -0.061652336 0.99387813
1.2631249 -0.89370114 -0.062190473 0.9938249
1.2630273 -0.91767573 -0.062748104 0.99376965
1.2628906 -0.94206053 -0.063325197 0.99371254
6.2490625 -4.7846775 -0.31632856 0.96898395
7.4759374 -6.5079198 -0.39837116 0.9610979
7.3101363 -6.6938281 -0.39837658 0.96109736
7.1397071 -6.8754978 -0.3983821 0.96109688
6.9647655 -7.0528708 -0.39838779 0.96109629
6.8756442 -7.139873 -0.39839068 0.96109605
6.6941404 -7.3104782 -0.39839655 0.96109557
6.6018162 -7.3941112 -0.39839956 0.96109515
6.5083981 -7.4765329 -0.3984026 0.96109498
6.4140038 -7.5578027 -0.39840564 0.96109456
6.1247067 -7.7943163 -0.398415 0.9610939
6.0263476 -7.8707418 -0.39841819 0.96109349
5.826777 -8.0198431 -0.3984246 0.96109277
5.6234374 -8.1638765 -0.39843112 0.96109223
5.5204883 -8.2339745 -0.39843443 0.96109182
5.4166212 -8.3027439 -0.3984378 0.96109158
5.311914 -8.370224 -0.39844117 0.96109122
4.7853904 -8.4512596 -0.39034769 0.96186656
4.6452341 -8.4497166 -0.38754925 0.96213478
3.9726367 -8.4422951 -0.37500334 0.96333766
3.7151756 -8.4394531 -0.37061149 0.96375924
3.4635546 -8.4366503 -0.36654934 0.96414924
3.3397655 -8.4352932 -0.36463866 0.96433276
3.2172265 -8.4339447 -0.36280295 0.96450901
2.8566406 -8.4299412 -0.35774288 0.96499538
2.7386131 -8.4286423 -0.35619798 0.9651438
2.621582 -8.4273434 -0.35472313 0.9652856
2.390332 -8.4247952 -0.35197562 0.96554977
2.1624608 -8.4222755 -0.34948832 0.96578896
2.0497265 -8.4210253 -0.3483406 0.96589941
1.8262891 -8.4185743 -0.34622943 0.96610248
1.7155664 -8.4173336 -0.34526551 0.96619534
1.4958788 -8.4149122 -0.34351552 0.96636379
1.3868359 -8.4137106 -0.34272704 0.96643955
1.2782617 -8.4125099 -0.34199804 0.96650988
0.95507812 -8.4089355 -0.34014544 0.96668816
0.74134761 -8.4065819 -0.33918947 0.96678025
0.52873045 -8.4042187 -0.33845115 0.96685135
0.42271483 -8.4030561 -0.33816358 0.96687901
0.31687498 -8.401885 -0.33792987 0.96690154
-0.31667969 -8.3949022 -0.33764723 0.9669286
-0.42230469 -8.3937111 -0.33778727 0.96691525
-0.52804685 -8.392539 -0.33798093 0.96689659
-0.74000001 -8.3902044 -0.33852834 0.96684384
-0.84625 -8.3890333 -0.33888367 0.96680963
-0.9527539 -8.3878613 -0.33929333 0.96677017
-1.0595312 -8.3866796 -0.3397575 0.96672553
-1.274043 -8.384326 -0.34084982 0.96662015
-1.3818555 -8.3831148 -0.34148163 0.96655953
-1.59875 -8.3807125 -0.3429122 0.96642178
-1.9278905 -8.3770895 -0.34549254 0.96617335
-2.1502733 -8.3746185 -0.34751105 0.96597916
-2.2625 -8.3733883 -0.34861213 0.96587324
-2.3754296 -8.372138 -0.34977546 0.96576136
-2.6037109 -8.3696194 -0.35229254 0.96551913
-3.0709178 -8.3644533 -0.35812655 0.96495843
-3.8047264 -8.3563375 -0.36903217 0.9639107
-3.9315624 -8.3549414 -0.3711217 0.96371001
-4.0598826 -8.3535061 -0.3732965 0.96350145
-4.1897264 -8.3520803 -0.37555557 0.96328467
-4.3211913 -8.3506346 -0.37790111 0.96305948
-4.5892186 -8.3476858 -0.38286772 0.96258318
-4.7258983 -8.3461714 -0.38549289 0.96233165
-5.0051169 -8.3430853 -0.39103782 0.96180034
-5.1478319 -8.3415041 -0.39396462 0.9615199
-5.292695 -8.3398924 -0.3969987 0.96122938
-5.4212694 -8.309824 -0.39877838 0.96105897
-5.5253124 -8.2411232 -0.39878157 0.96105862
-5.6284571 -8.1710939 -0.3987847 0.96105844
-5.7307811 -8.099824 -0.39878789 0.9610579
-5.8321095 -8.0271969 -0.39879096 0.96105778
-6.130703 -7.8019042 -0.3988001 0.96105671
-6.3248825 -7.6454782 -0.39880607 0.96105623
-6.4205074 -7.5654588 -0.39880896 0.96105593
-6.5151367 -7.4842186 -0.39881188 0.96105564
-6.6087108 -7.4018064 -0.39881474 0.9610554
-6.7012305 -7.3182225 -0.39881751 0.96105522
-6.7927341 -7.2334957 -0.39882034 0.96105486
-6.8831444 -7.1476364 -0.39882308 0.9610545
-6.9724607 -7.0606251 -0.39882579 0.96105427
-7.1477537 -6.8832421 -0.3988311 0.96105391
-7.2337499 -6.7929492 -0.39883369 0.96105355
-1.0330077 -0.85456055 -0.053882711 0.99464738
-1.0331249 -0.83301759 -0.053337857 0.99470127
-1.0332031 -0.81188476 -0.052812345 0.99475348
-1.0333984 -0.77083981 -0.051815566 0.99485224
-1.033496 -0.75088865 -0.051343307 0.99489903
-1.1187109 -0.70995116 -0.0532526 0.99470991
-1.1834375 -0.70995116 -0.055466309 0.99449056
-1.2178906 -0.70996094 -0.056657523 0.99437249
-1.253828 -0.70996094 -0.057910383 0.99424845
-1.4153124 -0.70995116 -0.063637733 0.99368137
-1.50875 -0.70995116 -0.06701614 0.99334711
-1.6692969 -0.70997071 -0.072907828 0.99276441
-1.7293359 -0.70995116 -0.075133435 0.99254429
-1.7836132 -0.70618165 -0.07709907 0.99234992
-1.7835156 -0.68035156 -0.076720618 0.99238747
-11.77959 -4.1574707 -0.50206357 0.95122254
-11.830859 -4.0091209 -0.50206506 0.95122266
-12.0175 -3.4096777 -0.50207025 0.95122206
-12.059453 -3.2584081 -0.50207138 0.95122188
-12.137578 -2.9543262 -0.50207353 0.95122164
-12.270801 -2.3407714 -0.50207704 0.95122123
-12.325742 -2.0316699 -0.50207847 0.95122123
-12.37293 -1.721289 -0.50207961 0.95122117
-12.393613 -1.5656836 -0.50208008 0.95122105
-12.412305 -1.4098047 -0.5020805 0.95122105
-12.443828 -1.0974414 -0.50208116 0.95122099
-12.45664 -0.94098634 -0.50208145 0.95122099
-12.467558 -0.78437501 -0.50208157 0.95122069
-12.488242 -0.31392577 -0.50208175 0.95122075
-11.684688 9.7656248e-06 -0.50205612 0.95429552
-11.681015 0.29364258 -0.5020557 0.95429546
-11.66164 0.73368162 -0.50205463 0.95429552
-11.651484 0.88016599 -0.50205415 0.95429558
-11.625625 1.1726855 -0.50205308 0.95429581
-11.609961 1.3186914 -0.50205243 0.95429581
-11.5925 1.4644629 -0.50205171 0.95429575
-11.573144 1.6100097 -0.50205094 0.95429587
-11.504179 2.0450585 -0.50204831 0.95429611
-11.449101 2.3335156 -0.50204629 0.95429629
-11.418828 2.4771874 -0.50204515 0.95429647
-11.279882 3.0477636 -0.50204021 0.95429671
-11.240624 3.1892481 -0.50203878 0.95429701
-11.199687 3.3302441 -0.50203741 0.95429689
-11.156875 3.4707129 -0.50203592 0.95429718
-11.112344 3.6106153 -0.50203431 0.95429736
-1.7843164 0.65508789 -0.081669733 0.99241877
-1.7844141 0.70651364 -0.082462236 0.99234557
-1.7293359 0.70996094 -0.080321118 0.99254346
-1.6127343 0.70993161 -0.075710908 0.99296999
-1.50875 0.70994139 -0.071643755 0.99334633
-1.4608203 0.70994139 -0.069785647 0.99351829
-1.3719921 0.70993161 -0.066374511 0.99383426
-1.3307617 0.70994139 -0.06480591 0.99397945
-1.2914063 0.70994139 -0.063319206 0.9941172
-1.2178906 0.70993161 -0.060569875 0.99437189
-1.1504102 0.70994139 -0.058084182 0.99460226
-1.0589453 0.70994139 -0.054777756 0.99490869
-1.0323828 0.83240235 -0.056980856 0.99470454
-1.0322655 0.85393554 -0.057562102 0.99465066
-1.0321484 0.8759082 -0.058164708 0.99459481
-1.031914 0.92128903 -0.059436951 0.99447685
-6.76332 6.3511524 -0.39864382 0.96353555
-6.6014452 6.5190234 -0.39863858 0.96353614
-6.5190234 6.6014452 -0.39863589 0.96353614
-6.2654295 6.8422947 -0.39862767 0.96353704
-6.0914254 6.9974899 -0.39862204 0.96353751
-5.7319727 7.2944822 -0.39861041 0.96353859
-5.5467577 7.4361324 -0.39860445 0.96353912
-5.4528513 7.5051951 -0.39860144 0.9635393
-5.1659765 7.705205 -0.3985922 0.96354014
-5.0514841 7.7431054 -0.3972359 0.96366185
-4.9129295 7.7415819 -0.39395884 0.96395612
-4.6424413 7.7385936 -0.38774565 0.96451437
-4.5103517 7.7371287 -0.38480219 0.96477896
-4.3801951 7.735703 -0.3819629 0.96503425
-4.1254883 7.7328711 -0.37658322 0.96551806
-3.8777149 7.7301168 -0.37158507 0.96596783
-3.7562108 7.7287889 -0.36922255 0.96618056
-3.63625 7.7274804 -0.36694816 0.96638536
-3.5177343 7.726162 -0.36475676 0.96658266
-3.0569921 7.7210741 -0.35680488 0.96729904
-2.9448242 7.7198339 -0.35500914 0.96746093
-2.8337891 7.7186031 -0.35328704 0.9676162
-2.723789 7.7173824 -0.35163674 0.96776497
-2.6148047 7.7161813 -0.35005787 0.96790743
-2.5067577 7.7149801 -0.34854683 0.96804374
-2.2933984 7.7126169 -0.34572619 0.9682982
-2.0833204 7.7103124 -0.34316656 0.96852911
-1.8761718 7.7080274 -0.34085754 0.96873754
-1.7736328 7.7068844 -0.33979583 0.96883345
-1.6716992 7.7057519 -0.33879271 0.96892399
-1.4695703 7.7035251 -0.3369635 0.96908909
-1.3692578 7.7024217 -0.33613631 0.96916384
-1.2694141 7.7013183 -0.33536536 0.96923345
-1.0711328 7.699121 -0.33399233 0.96935749
-0.97253907 7.6980371 -0.33338732 0.96941203
-0.77632809 7.6958494 -0.33234364 0.96950644
-0.67865235 7.6948047 -0.33190235 0.96954614
-0.58123046 7.6937108 -0.33151525 0.96958125
-0.38699219 7.6915622 -0.33089849 0.96963692
-0.29009765 7.6904979 -0.33066934 0.9696576
-3.9062499e-05 7.687295 -0.33029768 0.96969128
0.096562497 7.6862206 -0.33027744 0.96969306
0.38646483 7.6830173 -0.3305313 0.96967018
0.48324218 7.6819334 -0.33072037 0.96965313
0.67726558 7.6798043 -0.33125675 0.96960461
1.0677344 7.6754785 -0.3329666 0.96945024
1.1660742 7.6743941 -0.33352843 0.96939939
1.2647656 7.6733203 -0.33414528 0.9693436
1.4633203 7.671123 -0.33554611 0.96921712
1.6636523 7.6688962 -0.33717266 0.96907037
1.7645702 7.6677928 -0.33807066 0.96898913
2.702539 7.6574316 -0.3489041 0.9680115
3.030293 7.6537986 -0.35369635 0.96757942
3.1416016 7.6525683 -0.35543594 0.9674226
3.3676171 7.6500683 -0.3591384 0.96708894
3.4824998 7.6487985 -0.36110502 0.96691167
3.8349218 7.6449218 -0.36748764 0.96633667
4.0770898 7.6422362 -0.37216955 0.96591532
4.2005467 7.6408787 -0.37464327 0.96569258
4.325664 7.639482 -0.37721232 0.96546161
4.452539 7.6380758 -0.3798753 0.96522206
4.5812497 7.6366696 -0.38263804 0.96497357
4.9791403 7.6322851 -0.39154986 0.9641726
5.1160154 7.6307421 -0.39473858 0.96388614
5.2551169 7.6292186 -0.39804447 0.96358931
5.5418749 7.4296093 -0.39825597 0.96357054
5.6347656 7.3593259 -0.39825317 0.96357077
5.7267575 7.2878904 -0.39825034 0.96357101
5.8178711 7.215322 -0.39824757 0.96357113
6.085547 6.9907713 -0.3982394 0.96357191
6.1728907 6.9137011 -0.39823672 0.96357214
6.2592187 6.8355274 -0.3982341 0.96357244
6.3445897 6.756289 -0.39823151 0.96357268
6.4289255 6.6759863 -0.39822891 0.96357298
6.5945702 6.5122361 -0.39822391 0.96357346
6.6758595 6.4288278 -0.39822143 0.96357358
6.7560935 6.3444042 -0.39821899 0.96357369
6.8352537 6.2589645 -0.39821663 0.96357387
6.9133201 6.1725488 -0.39821425 0.96357411
6.9902735 6.0851269 -0.3982119 0.96357447
7.3583984 5.6340332 -0.39820084 0.96357536
1.2620703 0.9413867 -0.067651674 0.99371606
1.2621875 0.91702145 -0.067035213 0.99377316
1.2622851 0.89309567 -0.066440277 0.9938283
1.2624023 0.86958003 -0.065865666 0.99388146
1.2624999 0.84646481 -0.065311357 0.99393284
1.2626171 0.82371092 -0.064776346 0.99398243
1.2627343 0.80135739 -0.064259678 0.99403018
1.2628515 0.77933592 -0.063761368 0.99407625
1.2629101 0.75762695 -0.06328056 0.99412096
1.2631249 0.71521485 -0.062369041 0.9942053
1.2914063 0.70994139 -0.063319474 0.9941172
1.3719531 0.70993161 -0.066374622 0.99383438
1.4152343 0.70992184 -0.068031922 0.99368095
1.5592577 0.70994139 -0.073615491 0.99316406
1.6126952 0.70993161 -0.075710945 0.99297017
1.6692969 0.70994139 -0.077942118 0.99276364
1.7293164 0.70995116 -0.080321692 0.99254352
1.7931055 0.70994139 -0.082864299 0.9923085
2.0189061 0.71255857 -0.091990657 0.99146485
2.0185938 0.65590817 -0.091197737 0.99153823
11.14125 3.4658689 -0.50133514 0.95435971
11.183906 3.3255663 -0.50133395 0.95435977
11.30121 2.9016602 -0.50133073 0.95436013
11.336758 2.7594237 -0.50132978 0.95436025
11.4025 2.4736328 -0.50132799 0.95436031
11.461016 2.1863086 -0.5013265 0.95436049
11.487577 2.042119 -0.50132579 0.95436054
11.512304 1.8975879 -0.50132519 0.95436066
11.556328 1.6076952 -0.50132412 0.95436072
11.575624 1.4623339 -0.50132364 0.95436072
11.62246 1.025 -0.50132263 0.9543609
11.634453 0.87887692 -0.50132245 0.95436084
11.64457 0.7326172 -0.50132221 0.95436084
11.663906 0.29321289 -0.50132215 0.95436084
11.666679 0.14661132 -0.50132215 0.95436084
11.666679 -0.14662109 -0.50132251 0.95436084
11.663906 -0.29319334 -0.50132275 0.95436084
11.65289 -0.58623046 -0.5013234 0.95436072
11.634492 -0.8788867 -0.5013243 0.95436066
11.608749 -1.1709961 -0.50132543 0.9543606
11.575703 -1.4623437 -0.50132674 0.95436043
11.556425 -1.6077148 -0.50132751 0.95436037
11.487676 -2.0421484 -0.50133014 0.95436013
11.461113 -2.1863379 -0.50133115 0.95436013
11.402617 -2.4736817 -0.50133324 0.95435983
11.370664 -2.6167674 -0.50133443 0.95435971
11.301367 -2.9016991 -0.50133693 0.95435953
2.0187695 -0.68410152 -0.091585308 0.99150234
1.8611327 -0.70995116 -0.085587651 0.99205661
1.6692773 -0.70996094 -0.07794182 0.9927637
1.5592773 -0.70996094 -0.07361526 0.99316394
1.5087109 -0.70996094 -0.071643792 0.99334645
1.4607617 -0.70996094 -0.069785766 0.99351847
1.3719531 -0.70996094 -0.066374473 0.99383432
1.3307031 -0.70996094 -0.064805947 0.99397963
1.2631054 -0.71523434 -0.062368963 0.9942053
1.2630078 -0.7362988 -0.062816657 0.99416387
1.2627343 -0.80136716 -0.064259641 0.99403012
1.2626367 -0.82374024 -0.06477619 0.99398232
1.2621679 -0.917041 -0.067035101 0.99377316
1.2620312 -0.94141597 -0.067651674 0.99371612
6.2477145 -4.7836618 -0.33809897 0.96898699
5.9558005 -5.0544724 -0.33563712 0.96920925
6.9933591 -6.0878024 -0.39838588 0.96355867
6.7590623 -6.3471775 -0.39839351 0.96355802
6.6788278 -6.4316602 -0.39839613 0.96355772
6.5974607 -6.5151072 -0.39839879 0.96355772
6.4317575 -6.678916 -0.39840415 0.96355724
6.3473825 -6.7593064 -0.39840689 0.96355683
5.9999218 -7.0698533 -0.3984181 0.96355587
5.910625 -7.1447654 -0.39842102 0.96355563
5.8204293 -7.218545 -0.39842391 0.96355528
5.7293162 -7.2911325 -0.39842689 0.9635551
5.6372657 -7.3626266 -0.39842987 0.9635548
5.5443749 -7.43292 -0.39843285 0.96355456
5.4505467 -7.50207 -0.39843589 0.96355432
4.8702149 -7.8916988 -0.39845452 0.96355253
4.6704297 -8.0117283 -0.39846092 0.963552
4.4676561 -8.1266994 -0.39846739 0.96355146
4.3652539 -8.1822557 -0.39847067 0.9635511
4.0538282 -8.3411713 -0.39848062 0.96355033
3.8430274 -8.4405661 -0.39848739 0.96354961
3.7151756 -8.4394531 -0.39620093 0.96375513
3.2172656 -8.4339256 -0.38785419 0.96450502
2.9757226 -8.4312592 -0.38417038 0.96483624
2.7386522 -8.4286423 -0.38079321 0.96513981
2.390332 -8.4247952 -0.37627831 0.96554589
1.9376562 -8.4198046 -0.3712326 0.96600002
1.7155859 -8.4173336 -0.36910483 0.96619147
1.4958788 -8.4149122 -0.36723503 0.96635997
1.3868359 -8.4137106 -0.36639112 0.96643579
1.2782617 -8.4125099 -0.36561072 0.96650606
1.0624218 -8.4101267 -0.36423194 0.96663034
0.95507812 -8.4089355 -0.36363226 0.9666844
0.84808594 -8.4077635 -0.3630909 0.96673304
0.74134761 -8.4065819 -0.36260921 0.96677649
0.42271483 -8.4030561 -0.36151251 0.96687526
0.31685546 -8.401885 -0.36126274 0.96689785
0.10554687 -8.3995409 -0.36093375 0.96692747
-1.953125e-05 -8.3983889 -0.36085445 0.96693444
-0.31667969 -8.3949022 -0.36096153 0.96692485
-0.42230469 -8.3937111 -0.36111128 0.96691149
-0.52804685 -8.392539 -0.36131731 0.9668929
-0.74000001 -8.3902044 -0.36190358 0.96684009
-0.9527539 -8.3878613 -0.3627201 0.96676642
-1.0595312 -8.3866796 -0.36321655 0.96672177
-1.1666015 -8.3854885 -0.36377165 0.96667182
-1.2740625 -8.3843069 -0.36438522 0.96661645
-1.4900781 -8.3819141 -0.3657943 0.96648961
-1.8176172 -8.3782911 -0.36836591 0.96625799
-2.2625 -8.3733883 -0.37268251 0.96586937
-2.4891405 -8.3708887 -0.37523752 0.96563947
-2.6037109 -8.3696194 -0.37661695 0.96551526
-2.7191014 -8.3683491 -0.37806857 0.96538472
-2.835371 -8.3670502 -0.37959051 0.96524793
-3.3107226 -8.3618069 -0.3864176 0.96463388
-3.5551171 -8.3591013 -0.39030012 0.96428508
-3.6792772 -8.3577337 -0.39236397 0.96409959
-4.1610351 -8.2949705 -0.39873877 0.96352702
-4.7742968 -7.9583201 -0.39875767 0.96352535
-4.8739452 -7.8977637 -0.39876074 0.96352506
-5.2647657 -7.6431251 -0.39877272 0.96352404
-5.3604493 -7.5764256 -0.3987757 0.96352369
-5.4552732 -7.5085254 -0.39877859 0.96352345
-5.5492187 -7.4394431 -0.39878145 0.96352321
-5.6423044 -7.3691602 -0.39878431 0.96352297
-5.7345309 -7.2977242 -0.39878714 0.96352267
-6.0055857 -7.0765524 -0.39879543 0.96352202
-6.0941014 -7.0006051 -0.39879814 0.96352166
-6.1816406 -6.9234958 -0.39880079 0.96352148
-6.4383202 -6.6857324 -0.3988086 0.96352071
-6.604414 -6.521904 -0.39881364 0.96352023
-6.6858592 -6.4384274 -0.39881614 0.96352011
-1.0317578 -0.94474608 -0.060108259 0.99441469
-1.031914 -0.92131835 -0.059437025 0.9944768
-1.0322655 -0.85394531 -0.057562254 0.9946506
-1.0323828 -0.83243161 -0.056980856 0.99470443
-1.0326172 -0.7906152 -0.055878371 0.99480665
-1.0326953 -0.77030271 -0.055355757 0.99485517
-1.0328125 -0.7503711 -0.054851189 0.99490184
-1.0330077 -0.71153319 -0.053894386 0.99499059
-1.1187109 -0.70995116 -0.056929436 0.99470925
-1.1504102 -0.70997071 -0.058084257 0.9946022
-1.1834375 -0.70995116 -0.059296113 0.99448991
-1.2178906 -0.70996094 -0.060569648 0.99437183
-1.253828 -0.70996094 -0.061909027 0.99424779
-1.3719921 -0.70996094 -0.066374585 0.9938342
-1.4607812 -0.70995116 -0.069785349 0.99351841
-1.7293359 -0.70993161 -0.080321349 0.99254352
-1.784453 -0.70650387 -0.082462423 0.99234545
-1.7843945 -0.68065429 -0.082057528 0.99238288
-11.06623 -3.7500196 -0.50204074 0.95429683
-11.157031 -3.4707615 -0.50204331 0.95429659
-11.240781 -3.1892967 -0.50204563 0.95429635
-11.317422 -2.9058106 -0.50204772 0.95429623
-11.386914 -2.6205077 -0.50204957 0.95429605
-11.449219 -2.3335547 -0.50205123 0.95429581
-11.529081 -1.9003613 -0.50205326 0.95429564
-11.552109 -1.7553418 -0.50205386 0.95429546
-11.610078 -1.3186914 -0.50205523 0.9542954
-11.639531 -1.0265137 -0.50205582 0.95429546
-11.676406 -0.44038084 -0.50205636 0.95429546
-10.974297 0.13791992 -0.50203365 0.95700508
-10.953476 0.68912107 -0.50203246 0.9570052
-10.932695 0.96417969 -0.50203151 0.9570052
-10.904961 1.2386035 -0.50203031 0.95700544
-10.888535 1.3755468 -0.50202966 0.95700544
-10.870352 1.512246 -0.50202894 0.95700556
-10.805586 1.9208691 -0.5020265 0.95700574
-10.753886 2.1918066 -0.50202459 0.9570058
-10.725449 2.3267577 -0.50202352 0.95700598
-10.695352 2.4613476 -0.50202245 0.95700604
-10.630058 2.729326 -0.50202012 0.95700628
-10.594902 2.8626757 -0.50201887 0.95700639
-10.437558 3.3913672 -0.50201333 0.95700687
-10.349023 3.6525683 -0.50201029 0.95700699
-1.7851562 0.6554004 -0.086987764 0.9924143
-1.7853124 0.70686519 -0.087832257 0.9923408
-1.6127343 0.70995116 -0.080602184 0.9929691
-1.50875 0.70994139 -0.076272279 0.9933455
-1.3719921 0.70993161 -0.070662536 0.99383348
-1.2914063 0.70994139 -0.067410089 0.99411649
-1.253828 0.70992184 -0.065908812 0.99424714
-1.2178906 0.70993161 -0.06448292 0.99437118
-1.1834375 0.70994139 -0.063126944 0.99448925
-1.1504102 0.70994139 -0.061836775 0.99460161
-1.0882422 0.70994139 -0.059435155 0.9948107
-1.0589453 0.70994139 -0.058316495 0.99490803
-1.0323046 0.71106446 -0.057338178 0.99499333
-1.0321094 0.74984372 -0.058355521 0.9949047
-1.0319922 0.76976562 -0.058891829 0.99485803
-1.0317968 0.81073242 -0.060023002 0.99475944
-1.03125 0.89771485 -0.062541962 0.99454027
-6.352695 5.9655566 -0.39863136 0.96570688
-6.200664 6.1232419 -0.39862639 0.96570736
-5.9653711 6.3525 -0.39861876 0.9657079
-5.8037891 6.5003123 -0.39861351 0.96570832
-5.721621 6.5726757 -0.39861086 0.96570855
-5.6385155 6.6439939 -0.39860815 0.96570891
-5.3840036 6.8516698 -0.39859995 0.96570951
-4.8523827 7.2374411 -0.39858285 0.96571094
-4.7610154 7.2978024 -0.39857993 0.96571118
-4.3882031 7.5275683 -0.39856794 0.96571219
-4.2932224 7.5820603 -0.3985649 0.96571249
-4.1975975 7.6353612 -0.39856187 0.96571267
-4.0007615 7.731504 -0.39820278 0.96574295
-3.8777149 7.7301168 -0.39559057 0.96596372
-3.7562108 7.7287889 -0.39307612 0.96617645
-3.5177343 7.726162 -0.38832191 0.9665786
-3.400625 7.7248826 -0.38607937 0.96676838
-3.2848241 7.7235937 -0.38392192 0.96695101
-3.1703124 7.7223239 -0.3818467 0.96712649
-2.723789 7.7173824 -0.37435421 0.9677611
-2.5067577 7.7149801 -0.37106356 0.96803987
-2.3996484 7.713789 -0.36952782 0.96817011
-2.0833204 7.7103124 -0.36533687 0.96852535
-1.8761718 7.7080274 -0.36287764 0.96873373
-1.7736328 7.7068844 -0.36174816 0.96882969
-1.6716992 7.7057519 -0.36067963 0.96892023
-1.5703515 7.7046485 -0.35967466 0.96900541
-1.4695703 7.7035251 -0.35873306 0.96908534
-1.3692578 7.7024217 -0.35785148 0.96916014
-1.2694141 7.7013183 -0.35703054 0.96922976
-0.87427735 7.6969433 -0.35434195 0.96945798
-0.58123046 7.6937108 -0.35293287 0.96957755
-0.096640624 7.6883492 -0.35171235 0.96968114
-3.9062499e-05 7.687295 -0.35163558 0.96968758
0.096562497 7.6862206 -0.3516151 0.96968943
0.28980467 7.6840916 -0.35173896 0.96967882
0.38646483 7.6830173 -0.35188538 0.96966648
0.48324218 7.6819334 -0.35208553 0.96964943
0.58019531 7.6808786 -0.35234335 0.96962756
0.67726558 7.6798043 -0.35265759 0.96960098
0.77451169 7.6787305 -0.35302618 0.96956956
0.87199217 7.6776462 -0.35345322 0.96953338
1.1660742 7.6743941 -0.3550761 0.9693957
1.3638281 7.6722164 -0.35644919 0.96927923
1.5632422 7.6700096 -0.35805908 0.96914262
1.6636132 7.6688962 -0.35895458 0.96906668
1.7645702 7.6677928 -0.35991195 0.96898538
1.8660547 7.6666598 -0.36093238 0.96889895
2.3831248 7.6609569 -0.36699545 0.96838474
2.4887695 7.6597848 -0.36840883 0.96826494
2.5952148 7.6585937 -0.36989242 0.96813935
2.702539 7.6574316 -0.3714461 0.96800762
2.9200585 7.6550193 -0.37477174 0.96772581
3.2540624 7.6513376 -0.38032928 0.96725512
3.3676171 7.6500683 -0.38234055 0.96708494
3.9552343 7.6435938 -0.39367518 0.96612585
4.0770898 7.6422362 -0.39621243 0.96591121
4.2005467 7.6408787 -0.39884695 0.96568847
4.4792967 7.4665918 -0.39828932 0.96573585
4.5727344 7.409668 -0.39828646 0.96573609
4.6654296 7.351572 -0.3982836 0.96573633
4.757422 7.2923141 -0.39828077 0.96573657
4.8486524 7.231904 -0.398278 0.96573681
4.9391012 7.1703515 -0.39827523 0.96573704
5.1176367 7.0438671 -0.39826971 0.96573758
5.2057614 6.9789743 -0.39826706 0.96573764
5.4649801 6.7776465 -0.3982591 0.96573842
5.5496483 6.7084179 -0.39825651 0.96573865
5.716445 6.5667381 -0.39825141 0.96573901
5.87957 6.420918 -0.39824644 0.96573955
6.1946287 6.1172657 -0.39823687 0.9657402
6.566328 5.716074 -0.39822564 0.96574116
6.6375976 5.6330662 -0.39822346 0.9657414
6.7078123 5.5491991 -0.39822134 0.96574157
6.8451171 5.3788085 -0.39821723 0.96574181
6.9120703 5.2923341 -0.3982152 0.96574217
1.2611718 0.94074219 -0.071973115 0.9937197
1.2615625 0.86901367 -0.070074461 0.99388474
1.2616796 0.84589839 -0.069484897 0.99393606
1.2621288 0.75715816 -0.067325592 0.99412388
1.2622266 0.73581052 -0.066832386 0.99416679
1.2623047 0.71477538 -0.066356465 0.99420828
1.4607812 0.70994139 -0.074294202 0.99351764
1.5592577 0.70994139 -0.078371353 0.99316323
1.6127148 0.70995116 -0.080602221 0.99296921
1.6692969 0.70996094 -0.082977369 0.99276274
1.8611132 0.70996094 -0.091117129 0.99205565
1.9337305 0.70995116 -0.094228514 0.99178559
2.0208983 0.68482423 -0.097605132 0.99149233
10.465625 3.2556639 -0.5013566 0.95706195
10.505703 3.1238964 -0.50135553 0.95706201
10.544063 2.9916308 -0.50135446 0.95706224
10.649219 2.5920606 -0.50135154 0.95706266
10.739355 2.1888573 -0.50134915 0.95706266
10.766015 2.0537305 -0.50134844 0.9570626
10.814179 1.7825292 -0.50134724 0.95706278
10.873672 1.3736621 -0.50134575 0.95706284
10.890038 1.2368945 -0.50134546 0.95706296
10.904687 1.0999609 -0.5013451 0.95706314
10.928906 0.82560545 -0.50134462 0.95706302
10.938398 0.68819332 -0.5013445 0.95706308
10.946191 0.55067384 -0.50134438 0.95706308
10.956582 0.2754297 -0.50134438 0.95706302
10.960019 -1.953125e-05 -0.50134456 0.95706314
10.952227 -0.41307616 -0.50134522 0.95706314
10.94623 -0.55068356 -0.50134557 0.9570629
10.890117 -1.2369238 -0.50134808 0.95706266
10.873711 -1.3736817 -0.50134873 0.95706266
10.855586 -1.510205 -0.50134945 0.95706272
10.790977 -1.9183007 -0.50135189 0.9570626
10.766093 -2.0537403 -0.50135285 0.9570623
10.739453 -2.1888769 -0.5013538 0.95706224
10.681093 -2.4580858 -0.50135595 0.95706207
10.649375 -2.592119 -0.50135708 0.95706207
10.616015 -2.7257323 -0.50135827 0.95706183
10.580956 -2.8589356 -0.50135952 0.95706171
10.544218 -2.9916601 -0.50136083 0.95706165
10.465761 -3.2557323 -0.50136358 0.95706141
2.0207422 -0.65656251 -0.097191848 0.99152827
2.0210547 -0.71332031 -0.098038062 0.99145478
1.6692969 -0.70994139 -0.082977295 0.99276274
1.6127148 -0.70995116 -0.080601998 0.99296921
1.5087109 -0.70996094 -0.076272085 0.99334562
1.4607617 -0.70996094 -0.074294053 0.9935177
1.3719531 -0.70996094 -0.070662573 0.99383354
1.3307031 -0.70996094 -0.068992496 0.99397892
1.2913672 -0.70996094 -0.067410007 0.99411654
1.2623047 -0.71477538 -0.06635654 0.99420828
1.2622266 -0.73583984 -0.066832423 0.99416673
1.2620312 -0.77885741 -0.067837216 0.99407935
1.261914 -0.80083984 -0.06836693 0.99403328
1.2616796 -0.84591794 -0.069484822 0.99393606
1.2615625 -0.86902344 -0.07007423 0.99388474
1.2614648 -0.89253902 -0.070685156 0.99383146
1.2612109 -0.94078124 -0.071973227 0.99371946
6.2464256 -4.7826757 -0.35986361 0.96898955
5.9561524 -4.802588 -0.34998724 0.96982783
5.9062304 -4.8860645 -0.35063392 0.96977288
5.954668 -5.0535254 -0.35725215 0.96921122
6.4968357 -5.800693 -0.39840117 0.96572632
6.4234567 -5.8819041 -0.39840356 0.9657262
6.3490624 -5.9621973 -0.39840597 0.96572602
6.2736716 -6.0415626 -0.39840841 0.96572578
5.8010154 -6.4972167 -0.39842376 0.96572441
5.5521288 -6.7113867 -0.39843181 0.96572369
5.4673634 -6.7806444 -0.39843455 0.96572363
5.3817773 -6.848877 -0.39843735 0.96572328
5.2080274 -6.9820409 -0.39844289 0.96572286
5.0309958 -7.1108298 -0.39844862 0.96572238
4.6675391 -7.3548436 -0.3984603 0.96572131
4.3870897 -7.5257125 -0.3984693 0.96572059
4.2922068 -7.5803123 -0.39847237 0.9657203
4.1004295 -7.6859179 -0.39847845 0.9657197
4.0035739 -7.736865 -0.39848158 0.96571952
3.9060545 -7.7866211 -0.39848471 0.96571928
3.8079295 -7.835166 -0.39848784 0.96571898
3.7091992 -7.882441 -0.39849097 0.96571875
3.6098828 -7.9284863 -0.39849415 0.96571851
3.5099804 -7.97332 -0.39849734 0.96571815
3.4095311 -8.0168161 -0.39850056 0.96571803
3.3085742 -8.0591307 -0.39850375 0.96571761
3.2070312 -8.1001167 -0.398507 0.96571743
3.1050196 -8.1398535 -0.39851025 0.96571714
3.0025585 -8.1783104 -0.39851347 0.96571672
2.7960937 -8.2512989 -0.39852008 0.9657163
2.4832032 -8.3510056 -0.39853001 0.96571553
2.3780663 -8.3816309 -0.39853334 0.96571523
2.0497265 -8.4210253 -0.39645043 0.96589142
1.9376562 -8.4198046 -0.39521483 0.96599591
1.8262891 -8.4185743 -0.3940489 0.96609455
1.7155664 -8.4173336 -0.39295089 0.96618742
1.2782421 -8.4125099 -0.38923201 0.96650207
1.1701367 -8.4113283 -0.38846594 0.9665668
0.95507812 -8.4089355 -0.38712257 0.96668035
0.6349414 -8.4054098 -0.385584 0.96681058
0.52873045 -8.4042187 -0.38519526 0.96684355
0.42271483 -8.4030561 -0.38486809 0.96687126
0.31685546 -8.401885 -0.38460094 0.96689379
0.21115234 -8.400713 -0.38439703 0.9669112
-0.21109374 -8.3960543 -0.38418272 0.96692926
-0.52804685 -8.392539 -0.38466015 0.96688884
-0.74000001 -8.3902044 -0.38528332 0.96683604
-0.84625 -8.3890333 -0.38568756 0.96680188
-1.2740625 -8.3843069 -0.38792637 0.9666124
-1.3818555 -8.3831148 -0.38864326 0.96655166
-1.59875 -8.3807125 -0.39027244 0.96641392
-1.7079492 -8.3795118 -0.39118406 0.96633667
-1.8176172 -8.3782911 -0.39216417 0.96625394
-1.9278905 -8.3770895 -0.39321035 0.96616542
-2.484199 -8.3543158 -0.39868614 0.96570218
-2.5889843 -8.3225098 -0.39868933 0.96570188
-2.6933985 -8.2893553 -0.39869261 0.9657017
-2.9008985 -8.2191992 -0.39869907 0.96570116
-3.2086914 -8.1042385 -0.39870861 0.96570027
-3.3103125 -8.0633392 -0.39871177 0.96569997
-3.4114063 -8.021142 -0.3987149 0.96569979
-3.5119531 -7.9777341 -0.39871803 0.96569943
-3.611953 -7.9330368 -0.39872113 0.9656992
-3.7113867 -7.8870702 -0.39872417 0.96569896
-3.8102148 -7.8398728 -0.39872727 0.96569872
-3.9084766 -7.7914352 -0.39873028 0.96569842
-4.1994529 -7.6387496 -0.39873925 0.96569771
-4.2951169 -7.5854297 -0.3987422 0.96569753
-4.6709766 -7.3602633 -0.39875376 0.96569645
-4.7631445 -7.3010254 -0.39875662 0.96569622
-4.8545313 -7.2406445 -0.39875942 0.96569604
-4.9451756 -7.1791406 -0.3987622 0.96569574
-5.0349998 -7.1164646 -0.39876494 0.96569562
-5.1240821 -7.0527148 -0.39876768 0.96569526
-5.2123241 -6.987793 -0.39877039 0.96569514
-5.2997656 -6.9217868 -0.39877307 0.9656949
-5.3863864 -6.8546972 -0.3987757 0.96569461
-5.4721484 -6.7865233 -0.39877835 0.96569431
-5.6410351 -6.6469531 -0.39878353 0.96569389
-5.7241406 -6.5755758 -0.39878604 0.96569371
-5.8876562 -6.4297462 -0.39879104 0.96569324
-5.9680076 -6.3552732 -0.39879349 0.96569312
-1.0309961 -0.94406247 -0.06394428 0.99441808
-1.0311328 -0.92062497 -0.063230552 0.99448025
-1.031289 -0.89772457 -0.062542193 0.9945401
-1.0315624 -0.85334957 -0.0612376 0.99465364
-1.0317773 -0.81077147 -0.060023002 0.99475944
-1.0319922 -0.76977539 -0.058891639 0.99485803
-1.0321094 -0.74985349 -0.058355369 0.9949047
-1.0321875 -0.73029298 -0.057837982 0.99494988
-1.0882617 -0.70995116 -0.059435003 0.99481064
-1.1187109 -0.70995116 -0.060607336 0.99470866
-1.1504102 -0.70997071 -0.061836775 0.99460155
-1.1834375 -0.70995116 -0.063126907 0.99448925
-1.2178906 -0.70996094 -0.064482614 0.99437112
-1.2914063 -0.70997071 -0.067409858 0.99411643
-1.3307421 -0.70995116 -0.068992421 0.9939788
-1.3719921 -0.70996094 -0.070662536 0.99383342
-1.5592968 -0.70997071 -0.07837116 0.99316305
-1.7851758 -0.65539062 -0.086987458 0.99241424
-10.349179 -3.6526365 -0.50201809 0.95700634
-10.394258 -3.5223045 -0.50201935 0.95700634
-10.437735 -3.3914256 -0.5020206 0.95700616
-10.479531 -3.2600098 -0.50202179 0.95700616
-10.519707 -3.1280565 -0.50202286 0.95700604
-10.630234 -2.7293944 -0.50202596 0.95700556
-10.663632 -2.5955663 -0.50202686 0.95700586
-10.753945 -2.1918359 -0.50202924 0.95700556
-10.805683 -1.9208691 -0.50203061 0.95700538
-10.828984 -1.7849706 -0.50203115 0.95700532
-10.870468 -1.5122656 -0.50203222 0.95700514
-10.888594 -1.375537 -0.50203264 0.9570052
-10.905039 -1.238623 -0.502033 0.95700514
-10.943945 -0.82672852 -0.50203377 0.95700526
-10.961288 -0.55144531 -0.50203401 0.95700514
-10.967343 -0.41365233 -0.50203407 0.9570052
-10.974277 -0.13791016 -0.50203401 0.95700514
-10.346719 -0 -0.5020141 0.95941114
-10.345899 0.13000976 -0.50201398 0.95941114
-10.339335 0.38996091 -0.50201344 0.95941126
-10.333632 0.51987302 -0.50201315 0.9594112
-10.32625 0.64964843 -0.50201279 0.95941138
-10.294414 1.0383886 -0.50201136 0.95941138
-10.280527 1.1676757 -0.50201076 0.9594115
-10.24793 1.4256543 -0.50200951 0.95941156
-10.229179 1.5543262 -0.5020088 0.95941162
-10.186835 1.8108691 -0.50200719 0.95941186
-10.163301 1.9387499 -0.50200629 0.95941174
-10.138046 2.0662889 -0.50200534 0.9594121
-10.111308 2.1935253 -0.50200438 0.95941198
-10.052949 2.446914 -0.5020023 0.95941216
-9.988203 2.6987696 -0.50199997 0.95941246
-9.8793745 3.0732813 -0.50199616 0.95941257
-9.8399019 3.1971874 -0.50199479 0.95941281
-9.7989254 3.3205566 -0.50199336 0.95941293
-1.7861718 0.70719725 -0.093208887 0.99233615
-1.6692969 0.70996094 -0.088013649 0.99276179
-1.6127343 0.70995116 -0.085494459 0.9929682
-1.5087304 0.70994139 -0.080901869 0.99334472
-1.3719921 0.70993161 -0.074951783 0.99383271
-1.3307617 0.70994139 -0.073180385 0.99397796
-1.2914063 0.70994139 -0.071501732 0.99411571
-1.2178906 0.70993161 -0.068396874 0.99437046
-1.1834375 0.70994139 -0.066958733 0.99448854
-1.1504102 0.70994139 -0.065589905 0.99460095
-1.1186913 0.70993161 -0.064286076 0.99470806
-1.0589453 0.70994139 -0.061856307 0.99490738
-1.0315235 0.72978514 -0.061307412 0.9949525
-1.0313867 0.74934566 -0.061855923 0.99490756
-1.031289 0.76922852 -0.062423743 0.99486089
-1.0311718 0.78952146 -0.063012429 0.99481255
-1.0310937 0.81017578 -0.06362205 0.99476236
-1.0309374 0.83124024 -0.064253919 0.99471056
-1.0307031 0.87465817 -0.065587081 0.99460107
-1.0305274 0.89706051 -0.066290513 0.99454343
-5.9178123 5.6987987 -0.39861795 0.96763414
-5.8457031 5.7726951 -0.39861563 0.96763426
-5.623867 5.9887986 -0.39860842 0.96763486
-5.1565819 6.3951755 -0.39859328 0.96763605
-5.0757618 6.459414 -0.39859068 0.96763635
-4.8286133 6.6460252 -0.39858273 0.96763688
-4.7446876 6.7061133 -0.39858001 0.96763712
-4.4016404 6.9358497 -0.39856902 0.96763796
-4.2258983 7.044199 -0.39856339 0.96763831
-3.8665037 7.2473927 -0.39855185 0.96763939
-3.7751172 7.2953711 -0.39854893 0.96763951
-3.5905468 7.3877926 -0.39854303 0.9676401
-3.4973826 7.4322848 -0.39854002 0.96764034
-3.2146873 7.5586715 -0.39853102 0.967641
-3.1194141 7.5983982 -0.39852801 0.96764129
-2.9274609 7.6742673 -0.39852187 0.96764177
-2.8337891 7.7186031 -0.39894083 0.96760809
-2.723789 7.7173824 -0.39707652 0.96775693
-2.6148047 7.7161813 -0.39529341 0.96789944
-2.2933984 7.7126169 -0.39040205 0.96829027
-1.9793944 7.7091599 -0.38617313 0.96862829
-1.6716992 7.7057519 -0.38257262 0.96891624
-1.3692578 7.7024217 -0.37957209 0.96915615
-0.97253907 7.6980371 -0.37646887 0.9694044
-0.87427735 7.6969433 -0.3758496 0.96945405
-0.77632809 7.6958494 -0.37529129 0.96949881
-0.58123046 7.6937108 -0.37435395 0.96957362
-0.48402342 7.6926365 -0.37397689 0.9696039
-0.38699219 7.6915622 -0.37365955 0.96962935
-0.1933203 7.6894236 -0.37320074 0.969666
-0.096640624 7.6883492 -0.37306029 0.96967721
-3.9062499e-05 7.687295 -0.37298065 0.96968371
0.28980467 7.6840916 -0.37308943 0.96967494
0.38646483 7.6830173 -0.37324372 0.96966261
0.77451169 7.6787305 -0.37445563 0.96956563
0.96974605 7.6765723 -0.37542015 0.96948844
1.0677344 7.6754785 -0.37599346 0.96944261
1.3638281 7.6722164 -0.37808463 0.96927524
1.8660547 7.6666598 -0.38283888 0.96889496
1.968125 7.6655369 -0.38398814 0.96880311
2.0708594 7.6644039 -0.38520518 0.96870583
2.1742187 7.6632614 -0.38648936 0.96860307
2.2783203 7.6621094 -0.38784453 0.96849471
2.8108203 7.6562304 -0.39571652 0.96786571
3.0303125 7.6537986 -0.39940211 0.96757132
3.1179101 7.5946383 -0.39833197 0.96765697
3.4954295 7.4281836 -0.39832032 0.96765792
3.8641014 7.2429686 -0.39830893 0.96765888
3.9548047 7.1937594 -0.3983061 0.96765918
4.0448632 7.1434765 -0.39830333 0.96765929
4.1342578 7.0920215 -0.39830059 0.96765959
4.2230468 7.0394726 -0.39829788 0.96765971
4.3985744 6.9310446 -0.39829245 0.96766007
4.5712891 6.8182125 -0.39828715 0.96766055
4.6565819 6.7601852 -0.39828452 0.96766078
4.7411327 6.7010937 -0.39828193 0.96766096
4.8249216 6.6409664 -0.39827934 0.96766114
4.9079294 6.5797262 -0.39827681 0.96766156
5.0716796 6.4542379 -0.39827183 0.96766186
5.3112497 6.2583985 -0.3982645 0.96766239
5.3894529 6.191113 -0.39826208 0.96766263
5.4667773 6.1228709 -0.39825973 0.96766281
5.6935544 5.9123731 -0.39825287 0.96766341
5.9122849 5.6934862 -0.39824623 0.96766382
5.9833007 5.6187205 -0.39824405 0.96766406
6.0534372 5.5430565 -0.39824191 0.96766412
6.190742 5.3891406 -0.39823776 0.96766448
6.2579293 5.3108888 -0.39823577 0.96766472
6.3241405 5.2317772 -0.39823374 0.9676649
6.3893747 5.1518846 -0.3982318 0.96766496
6.4535546 5.0711522 -0.39822987 0.96766526
6.5167575 4.9896483 -0.39822796 0.96766531
1.260332 0.94011718 -0.076289631 0.99372303
1.2604687 0.91580075 -0.075595357 0.99377996
1.2605859 0.89189452 -0.074925534 0.99383503
1.2608594 0.84535152 -0.073654138 0.99393922
1.2609766 0.82266599 -0.073051602 0.99398863
1.2611914 0.77833009 -0.071908377 0.99408251
1.2613086 0.75667965 -0.071366884 0.99412692
1.2914063 0.70994139 -0.071501844 0.99411571
1.3719531 0.70993161 -0.074951589 0.99383283
1.6127148 0.70995116 -0.08549457 0.99296826
1.7293164 0.70995116 -0.090701021 0.99254167
1.7931055 0.70994139 -0.093572617 0.99230653
1.9337305 0.70995116 -0.099947661 0.99178451
2.0230467 0.68554688 -0.10363945 0.99148226
10.098495 2.1907423 -0.5013693 0.95946234
10.125196 2.0636718 -0.50136858 0.95946246
10.150273 1.9362695 -0.50136793 0.9594627
10.173789 1.8085449 -0.50136733 0.95946276
10.216055 1.5523144 -0.50136626 0.95946264
10.251797 1.2950976 -0.50136542 0.95946282
10.281113 1.0370703 -0.50136477 0.95946276
10.29332 0.9078027 -0.50136453 0.95946282
10.303906 0.77836913 -0.50136429 0.95946282
10.320214 0.51916993 -0.50136411 0.95946282
10.325918 0.38946289 -0.50136405 0.95946288
10.33 0.25968748 -0.50136405 0.95946288
10.333242 -0 -0.50136423 0.95946294
10.330039 -0.25967774 -0.50136465 0.9594627
10.31291 -0.64882809 -0.5013656 0.9594627
10.303946 -0.7783789 -0.50136602 0.9594627
10.267265 -1.1661816 -0.50136757 0.95946276
10.173906 -1.8085938 -0.5013712 0.95946229
10.150391 -1.9362793 -0.50137204 0.95946223
10.125235 -2.0636914 -0.50137299 0.95946234
10.098516 -2.1907616 -0.50137395 0.95946229
10.070253 -2.3174999 -0.50137496 0.95946205
10.040351 -2.443877 -0.50137609 0.95946193
9.9758005 -2.6954198 -0.50137836 0.95946181
9.9411716 -2.820586 -0.50137955 0.95946169
9.9049997 -2.9452929 -0.50138086 0.95946145
9.8672457 -3.069541 -0.50138217 0.95946133
2.0232031 -0.71407223 -0.10409908 0.99144465
1.8611327 -0.70995116 -0.096647605 0.99205458
1.7931249 -0.70996094 -0.093572386 0.99230641
1.7293359 -0.70994139 -0.090700641 0.99254161
1.6127148 -0.70995116 -0.08549457 0.99296826
1.5592773 -0.70994139 -0.083127975 0.99316227
1.4607617 -0.70996094 -0.07880348 0.99351686
1.4152539 -0.70997071 -0.076823309 0.99367923
1.3307031 -0.70996094 -0.07318043 0.99397808
1.2913672 -0.70996094 -0.071501806 0.99411583
1.2615234 -0.71431637 -0.070340119 0.99421114
1.2614257 -0.73537105 -0.070844114 0.99416971
1.2610937 -0.80033201 -0.072469823 0.99403638
1.2609766 -0.82266599 -0.073051453 0.99398863
1.2608594 -0.84538084 -0.073654018 0.99393916
1.2604687 -0.91581053 -0.075595662 0.99377996
1.260332 -0.94013667 -0.076289862 0.99372298
6.0949998 -4.7894239 -0.37610573 0.9694339
5.9537497 -4.8006544 -0.37108099 0.96983594
5.9062304 -4.8860645 -0.37191749 0.969769
6.1252341 -5.4688964 -0.39841247 0.96765053
5.9859376 -5.621172 -0.39841706 0.96765012
5.8428516 -5.7698827 -0.3984217 0.96764976
5.7699218 -5.8428807 -0.39842406 0.96764958
5.6960545 -5.9149609 -0.39842644 0.96764946
5.5457029 -6.0562987 -0.3984313 0.96764904
5.3918357 -6.1938376 -0.39843631 0.96764857
5.2345309 -6.3274512 -0.39844137 0.96764827
4.9924412 -6.5203905 -0.39844921 0.96764755
4.9100976 -6.5826464 -0.39845186 0.96764743
4.7432032 -6.7040625 -0.39845726 0.96764696
4.4005466 -6.9341211 -0.39846823 0.96764588
4.1361132 -7.0951657 -0.39847672 0.96764547
3.6825781 -7.3411617 -0.39849123 0.96764421
3.4969726 -7.4314938 -0.39849716 0.9676438
3.214453 -7.5581832 -0.39850619 0.96764308
3.1192577 -7.5980468 -0.3985092 0.96764278
3.0235741 -7.6366892 -0.39851227 0.96764255
2.9274023 -7.67416 -0.39851531 0.96764225
2.6361523 -7.7792187 -0.39852461 0.96764147
2.5381835 -7.8117771 -0.39852771 0.96764135
2.4398828 -7.8431249 -0.39853084 0.967641
2.3411329 -7.8732419 -0.39853397 0.9676407
2.2419922 -7.9020801 -0.39853713 0.96764058
2.0427735 -7.9560156 -0.39854342 0.96764016
1.842207 -8.0050192 -0.3985498 0.96763951
1.7415038 -8.0275974 -0.39855295 0.96763921
1.6404883 -8.0488958 -0.39855617 0.96763903
1.4377344 -8.0877142 -0.39856261 0.96763849
1.2340429 -8.1214056 -0.39856902 0.96763808
1.1318945 -8.1363668 -0.39857224 0.96763772
0.92708981 -8.1623535 -0.3985787 0.96763724
0.82445312 -8.1734371 -0.39858195 0.96763694
0.72167969 -8.1832323 -0.3985852 0.96763664
0.61878908 -8.1917086 -0.39858845 0.96763647
0.51582032 -8.198926 -0.39859167 0.96763611
0.41277343 -8.2047949 -0.39859489 0.96763593
0.30960935 -8.2094135 -0.39859816 0.96763563
0.20644531 -8.2127247 -0.39860141 0.96763539
-1.953125e-05 -8.2154493 -0.39860788 0.96763486
-0.30964842 -8.2098045 -0.39861763 0.96763414
-0.61886716 -8.1925097 -0.39862731 0.96763331
-0.72179687 -8.1841497 -0.39863056 0.96763307
-0.8245703 -8.1745119 -0.39863375 0.96763277
