# .PCD v0.7 - Point Cloud Data file format
VERSION 0.7
FIELDS x y z intensity
SIZE 4 4 4 4
TYPE F F F F
COUNT 1 1 1 1
WIDTH 1084
HEIGHT 1
VIEWPOINT 0 0 0 1 0 0 0
POINTS 1084
DATA ascii
4.3183985 7.6266503 -0.25501716 0.96553552
4.4450779 7.6252637 -0.25681868 0.96529639
4.7039452 7.6224022 -0.26062244 0.96479154
4.9707813 7.6194625 -0.26470989 0.96424925
5.1074023 7.617949 -0.26686621 0.96396333
5.3875585 7.6148434 -0.27141702 0.96336031
5.5312696 7.6132517 -0.2738162 0.9630425
5.677578 7.6116405 -0.27630299 0.9627133
8.7678518 11.157998 -0.41290694 0.94479543
8.8878908 10.472832 -0.39967442 0.94651651
9.0192966 10.360859 -0.39969388 0.94651371
9.1491404 10.247138 -0.39971304 0.94651163
9.2776556 10.131894 -0.39973211 0.94650888
9.4046869 10.01498 -0.39975092 0.94650644
9.5302343 9.8964548 -0.39976951 0.94650406
9.6542969 9.7763672 -0.3997879 0.94650167
9.5296679 9.4107122 -0.38969994 0.94781572
9.8978119 9.5315132 -0.39982399 0.94649702
10.017207 9.4067574 -0.3998417 0.94649494
10.135117 9.2806149 -0.39985916 0.94649231
10.251367 9.1529102 -0.39987639 0.94649017
10.194687 8.6518354 -0.38905823 0.94789934
10.590351 8.7611036 -0.39992666 0.94648379
10.700058 8.627676 -0.39994296 0.94648165
10.808085 8.4928999 -0.399959 0.94647944
10.914374 8.3567476 -0.39997476 0.94647741
1.2663672 0.94458979 -0.045970075 0.99369788
1.2666211 0.87247068 -0.044752348 0.99386418
1.2666796 0.84923828 -0.044374425 0.99391592
1.266875 0.78181636 -0.043317948 0.9940604
1.2669727 0.76003903 -0.042990301 0.9941051
1.2671094 0.71744138 -0.042369001 0.99418998
1.3719336 0.70991212 -0.04494831 0.99383754
1.4152734 0.70992184 -0.04607071 0.99368393
1.5086914 0.70991212 -0.048516538 0.99334991
1.5592773 0.70992184 -0.049851645 0.9931674
1.6692773 0.70992184 -0.052781563 0.99276733
1.7293164 0.70991212 -0.054392926 0.99254727
1.7931055 0.70992184 -0.056114845 0.99231231
1.9337499 0.70991212 -0.059938584 0.99179065
2.0082421 0.70877928 -0.061966971 0.99151403
2.0081639 0.680498 -0.061694983 0.99155098
2.0080469 0.65243161 -0.061435468 0.99158651
16.724491 4.5188379 -0.50408447 0.93302226
16.88377 3.885498 -0.50410855 0.93301898
16.931543 3.6730762 -0.50411582 0.93301797
16.976582 3.460078 -0.50412267 0.93301713
17.018906 3.2465136 -0.50412911 0.93301642
17.095547 2.8178711 -0.50414085 0.93301475
17.129824 2.6028612 -0.50414616 0.93301398
17.161327 2.3874316 -0.50415099 0.93301338
17.190117 2.1716015 -0.50415546 0.93301284
17.216171 1.9554297 -0.50415951 0.93301237
17.239452 1.7389355 -0.50416315 0.93301213
17.260078 1.5221875 -0.50416642 0.93301165
17.278008 1.3051953 -0.50416929 0.933011
17.293047 1.0879492 -0.50417173 0.933011
17.321991 0.43540037 -0.50417668 0.93301016
17.326153 0.21771485 -0.50417751 0.93300998
17.326132 -0.21776366 -0.50417799 0.93301004
17.322031 -0.43545899 -0.50417763 0.93300998
17.293104 -1.087998 -0.50417405 0.93301076
17.278008 -1.3052441 -0.50417209 0.933011
17.260195 -1.5222363 -0.5041697 0.93301117
17.239649 -1.7390039 -0.5041669 0.93301135
17.216249 -1.9554784 -0.50416368 0.93301207
17.190214 -2.1716504 -0.50416011 0.93301249
17.161465 -2.3874805 -0.50415611 0.93301284
17.095781 -2.8179393 -0.50414687 0.93301386
17.058788 -3.0325291 -0.50414169 0.93301475
16.976835 -3.4601758 -0.50413007 0.93301612
16.931738 -3.6731737 -0.50412369 0.93301713
16.884043 -3.8856151 -0.50411689 0.93301791
16.780565 -4.3085546 -0.50410211 0.93301988
16.274921 -4.6176462 -0.49224144 0.93454272
2.0080469 -0.65249997 -0.061435547 0.99158645
2.0082421 -0.70881832 -0.061966702 0.99151397
1.9337499 -0.70998043 -0.059938468 0.99179053
1.8610938 -0.70997071 -0.057959061 0.99206066
1.7931055 -0.70998043 -0.056115072 0.99231225
1.6692969 -0.70998043 -0.052781638 0.99276716
1.6126952 -0.7099902 -0.051270943 0.99297357
1.4152343 -0.70998043 -0.046070747 0.99368399
1.2670312 -0.73864257 -0.042673912 0.99414825
1.2666016 -0.8725 -0.044752538 0.99386418
1.2665625 -0.89615232 -0.045144156 0.99381047
1.2663672 -0.94465816 -0.04597 0.9936977
10.812929 -8.4967279 -0.40013888 0.94645607
11.326679 -9.1329975 -0.42336357 0.94343764
11.210567 -9.2742186 -0.42334664 0.9434399
5.1012888 -4.7904687 -0.20361997 0.97238469
4.8492575 -4.7887301 -0.1982967 0.97309613
4.782578 -4.8431249 -0.19805063 0.97312993
4.7975388 -5.1088672 -0.20390838 0.9723444
8.1621485 -8.9137011 -0.35167089 0.95278597
7.1791797 -8.040801 -0.3136403 0.95778131
7.0662889 -8.1174507 -0.31314918 0.95784712
7.1736522 -8.8968067 -0.33249107 0.95529604
7.054863 -8.9780951 -0.33223629 0.95533568
8.5441208 -11.760049 -0.42295703 0.94349015
8.245039 -11.969833 -0.42291328 0.94349575
5.6814451 -8.4740725 -0.29686007 0.95999539
5.5272655 -8.472353 -0.2943438 0.96032768
5.3756247 -8.4706831 -0.2919156 0.96064848
4.9350977 -8.4658298 -0.28512993 0.96154529
4.6523633 -8.4626856 -0.2809982 0.96209204
4.5140233 -8.4611616 -0.27904108 0.9623509
4.2428708 -8.4581738 -0.27533725 0.96284115
3.5941796 -8.4509954 -0.26721546 0.96391737
3.4688671 -8.4496193 -0.26577204 0.96410865
3.3448436 -8.4482517 -0.26438549 0.96429253
2.9802539 -8.4442282 -0.26055706 0.96480042
2.7428124 -8.4415913 -0.25826558 0.96510434
2.509336 -8.4390039 -0.2561762 0.9653818
2.3939648 -8.4377441 -0.25520325 0.96551085
1.8290625 -8.4315033 -0.25103843 0.96606416
1.7181835 -8.4302635 -0.25033918 0.96615708
1.498125 -8.4278517 -0.24907039 0.9663257
0.84935546 -8.4206839 -0.24626075 0.96669912
0.52951169 -8.4171381 -0.24539833 0.96681374
0.31732422 -8.4148045 -0.24501999 0.96686405
0.21146484 -8.4136324 -0.24488862 0.96688145
0.10566406 -8.4124603 -0.24479821 0.96689367
-0.10574219 -8.4101171 -0.24472915 0.96690273
-0.21142578 -8.4089451 -0.24475268 0.96689957
-0.84755856 -8.4019337 -0.24571252 0.96677202
-0.95421875 -8.4007416 -0.24600895 0.96673256
-1.0611523 -8.39956 -0.24634494 0.96668786
-1.2760156 -8.3971872 -0.24713823 0.96658242
-1.3839843 -8.3960056 -0.2475951 0.96652156
-1.601211 -8.3935938 -0.24863206 0.9663837
-1.8204297 -8.391181 -0.24983849 0.96622354
-1.9308789 -8.3899603 -0.2505047 0.96613503
-2.1536329 -8.3875093 -0.25196666 0.96594054
-2.4929881 -8.38375 -0.2544989 0.96560442
-2.6077149 -8.3824806 -0.25543517 0.96548009
-2.7232811 -8.3812008 -0.25641903 0.9653495
-2.8397655 -8.3799124 -0.25745037 0.96521246
-3.1951952 -8.3759861 -0.26084667 0.96476173
-3.4376171 -8.3733006 -0.26337126 0.96442688
-4.0661716 -8.3663568 -0.27066413 0.96346003
-4.3278708 -8.3634663 -0.27400371 0.96301764
-4.4611912 -8.3619823 -0.27577063 0.96278375
-4.7331834 -8.3589745 -0.27950653 0.96228915
-5.3008595 -8.352705 -0.28785053 0.96118557
-6.2229295 -8.3425198 -0.30283517 0.95920652
-6.38625 -8.3407125 -0.30565828 0.95883417
-6.5526757 -8.3388767 -0.30858511 0.95844841
-6.7223239 -8.3369923 -0.31161565 0.95804894
-6.8954101 -8.3350973 -0.31475949 0.95763487
-7.0720701 -8.3331442 -0.31801701 0.95720589
-7.4366794 -8.3291111 -0.32489422 0.95630091
-7.817656 -8.324892 -0.33229086 0.95532864
-8.0147848 -8.3227148 -0.33619815 0.95481545
-8.2166405 -8.320488 -0.34025225 0.95428324
-8.8529882 -8.313447 -0.35336867 0.95256346
-1.0355859 -0.948291 -0.040855866 0.99439669
-1.0356835 -0.92469722 -0.040397566 0.99445939
-1.0357813 -0.90165037 -0.039955862 0.99451977
-1.0359374 -0.85700196 -0.03911911 0.99463427
-1.0360937 -0.81415039 -0.038339879 0.99474084
-1.0361524 -0.79335934 -0.03797077 0.99479139
-1.03625 -0.77295899 -0.037614439 0.99484003
-1.0882422 -0.70998043 -0.037806511 0.99481386
-1.1187109 -0.70998043 -0.038552396 0.99471188
-1.1504102 -0.70996094 -0.039334182 0.99460495
-1.4608008 -0.70997071 -0.047258262 0.99352157
-1.6127343 -0.70998043 -0.051270865 0.99297345
-1.6693164 -0.70997071 -0.052781865 0.9927671
-1.7800976 -0.67906249 -0.055435065 0.99240488
-12.854941 -4.5370407 -0.39665303 0.94690973
-12.910684 -4.3750486 -0.39664465 0.9469108
-13.101367 -4.2569141 -0.40082803 0.94636619
-14.882792 -4.2226462 -0.45013678 0.9399702
-16.369179 -4.2029004 -0.49174318 0.93460703
-16.765272 -3.6370702 -0.49916667 0.93365335
-16.809452 -3.4260645 -0.4991599 0.93365413
-16.850977 -3.2145116 -0.49915361 0.9336549
-16.889805 -3.0024805 -0.49914768 0.9336558
-16.959608 -2.5770409 -0.49913695 0.93365699
-16.990507 -2.3636913 -0.49913219 0.93365753
-17.04418 -1.9359277 -0.49912384 0.9336589
-17.067089 -1.7216015 -0.49912021 0.93365914
-17.147812 -0.4310742 -0.49910697 0.93366092
-17.151875 -0.21557617 -0.49910614 0.93366092
-15.667578 -2.9296874e-05 -0.49932426 0.93922317
-15.666327 0.19686523 -0.49932426 0.93922323
-15.623222 1.180166 -0.49932951 0.93922263
-15.607226 1.3764257 -0.49933165 0.93922234
-15.56789 1.7682031 -0.49933705 0.93922168
-15.544512 1.9636914 -0.49934027 0.93922138
-15.490507 2.3537695 -0.49934778 0.93922043
-15.459844 2.5482421 -0.4993521 0.93921989
-15.426797 2.7423437 -0.49935675 0.93921918
-15.391269 2.9360156 -0.49936178 0.93921858
-15.353281 3.1292186 -0.49936718 0.9392181
-14.894082 3.824121 -0.49006829 0.94031537
-13.410801 3.8049705 -0.44427019 0.94573879
-12.784883 3.8015916 -0.42508388 0.9480201
-12.210586 3.7984667 -0.40754354 0.9501105
-11.736269 4.1421876 -0.39664724 0.95141166
-1.7808789 0.65380859 -0.060460508 0.99243647
-1.7809374 0.67933595 -0.060747299 0.99240071
-1.415293 0.70991212 -0.050461233 0.9936834
-1.3719921 0.70992184 -0.049231946 0.99383682
-1.253828 0.70992184 -0.045919877 0.99425024
-1.2178906 0.70992184 -0.044926148 0.99437422
-1.1834375 0.70993161 -0.043981817 0.99449223
-1.1504102 0.70991212 -0.043082733 0.99460459
-1.1187109 0.70992184 -0.042226102 0.99471152
-1.0354491 0.79276365 -0.041560706 0.99479461
-1.0352734 0.8347168 -0.04238281 0.99469197
-1.0351562 0.85632813 -0.04281662 0.99463791
-1.0351171 0.87839842 -0.043266065 0.99458164
-1.035 0.9009375 -0.043731917 0.99452347
-1.0349219 0.92397457 -0.04421505 0.99446309
-7.859375 7.7612305 -0.35202429 0.95675772
-7.4698825 7.7569237 -0.34320343 0.95781803
-7.0991797 7.7528219 -0.33502027 0.95880282
-6.2436523 7.7433786 -0.31700906 0.96097368
-6.0833201 7.7415915 -0.3137835 0.96136314
-5.3268747 7.733242 -0.29926935 0.96311694
-5.1837497 7.7316599 -0.29666319 0.96343207
-5.0430861 7.7301168 -0.29414749 0.9637363
-4.768672 7.7270703 -0.28938043 0.96431357
-4.6346874 7.7256055 -0.28712025 0.96458721
-4.5028124 7.7241602 -0.28494075 0.9648512
-4.3728905 7.7227049 -0.28283703 0.96510607
-4.244863 7.7212791 -0.28080997 0.96535182
-4.1185937 7.7198825 -0.27885547 0.96558893
-3.9941015 7.7185154 -0.27697042 0.96581745
-3.6301951 7.7144918 -0.27172023 0.96645445
-3.5118945 7.7131739 -0.27009767 0.96665132
-3.3949609 7.7118945 -0.26853719 0.96684074
-3.051914 7.7081051 -0.26420987 0.96736634
-2.9399023 7.7068748 -0.26287991 0.96752787
-2.8290625 7.7056251 -0.26160422 0.96768284
-2.7192578 7.7044334 -0.26038197 0.96783125
-2.502578 7.7020311 -0.25809368 0.96810949
-2.3956249 7.7008591 -0.25702569 0.96823943
-2.2895899 7.6996775 -0.25600582 0.9683634
-2.1843359 7.6985254 -0.2550343 0.96848148
-2.0798438 7.6973729 -0.25411001 0.9685939
-1.8730859 7.6950779 -0.25240144 0.96880186
-1.6689062 7.692822 -0.2508713 0.968988
-1.5677735 7.6916895 -0.25017273 0.96907306
-1.3669921 7.6894822 -0.24890472 0.96922737
-1.2673438 7.6883788 -0.24833319 0.96929687
-1.168125 7.687295 -0.24780431 0.96936125
-1.0693359 7.6861911 -0.2473159 0.96942067
-0.87281251 7.6840329 -0.24646285 0.96952456
-0.77503902 7.6829391 -0.24609584 0.96956921
-0.58027345 7.6807909 -0.24548297 0.96964395
-0.48324218 7.6797266 -0.24523477 0.96967405
0.096367188 7.6733007 -0.24456589 0.96975559
0.1928125 7.672246 -0.24459049 0.96975261
0.28925779 7.6711912 -0.24465251 0.96974498
0.67609376 7.666904 -0.24529091 0.96966732
1.1641015 7.6615038 -0.24697345 0.96946251
1.3615038 7.6593356 -0.24792783 0.96934623
1.4608203 7.6582422 -0.24846727 0.9692806
1.6608202 7.6560349 -0.24967173 0.96913403
2.1705468 7.6503906 -0.25343964 0.96867555
2.2744532 7.6492577 -0.25432926 0.96856743
2.6980078 7.6445603 -0.25836012 0.96807736
2.9151561 7.6421676 -0.26067361 0.96779615
3.136328 7.6397166 -0.26319644 0.96748966
3.2485547 7.6384864 -0.26453876 0.96732652
3.3619921 7.6372361 -0.2659376 0.96715659
3.7097654 7.6333885 -0.27048427 0.96660471
4.0702343 7.6294041 -0.27558687 0.96598548
4.1934767 7.6280465 -0.27741921 0.96576321
4.3183985 7.6266599 -0.27932116 0.96553266
4.4450583 7.6252637 -0.28129309 0.96529353
4.5735741 7.623857 -0.28333899 0.96504551
4.7039452 7.6224022 -0.28546035 0.96478862
4.836328 7.6209373 -0.28765801 0.9645223
5.1073828 7.617949 -0.29229897 0.96396035
5.2462692 7.616406 -0.29474679 0.96366417
5.5312696 7.6132517 -0.29991162 0.96303946
5.8266211 7.6100097 -0.3054561 0.96236902
8.0027924 10.184375 -0.41279548 0.94948447
8.2569332 9.9809179 -0.41283301 0.94948012
8.3821096 9.8768654 -0.41285154 0.94947767
8.5059376 9.7711916 -0.41286987 0.94947547
8.628437 9.6639547 -0.41288802 0.94947332
8.7495308 9.5551662 -0.41290596 0.94947135
8.6983986 9.0326366 -0.3996481 0.95105314
8.9233198 8.8119135 -0.39968139 0.95104939
9.3563471 8.3537693 -0.39974558 0.95104164
9.7657814 7.8743453 -0.39980632 0.95103419
9.9612494 7.6269627 -0.39983535 0.95103097
1.2659374 0.82585937 -0.048172493 0.9939692
1.2661523 0.7595703 -0.047057074 0.99410838
1.3307031 0.70991212 -0.048068311 0.9939822
1.6692773 0.70992184 -0.057811622 0.99276674
1.7293164 0.70991212 -0.059576642 0.99254668
1.9337499 0.70991212 -0.065650329 0.99178994
2.0103514 0.7095117 -0.06794399 0.99150443
15.09584 4.6960154 -0.50384468 0.9386903
15.153906 4.5060449 -0.50385344 0.93868929
15.209609 4.3153415 -0.50386184 0.93868822
15.31371 3.931875 -0.50387758 0.93868643
15.362089 3.7391796 -0.50388485 0.93868572
15.601269 2.5715723 -0.50392133 0.9386813
15.6325 2.3753514 -0.5039261 0.93868071
15.711288 1.7845019 -0.50393832 0.93867934
15.732577 1.5869433 -0.50394166 0.93867892
15.751445 1.3891308 -0.50394464 0.93867832
15.767695 1.1910937 -0.50394726 0.93867815
15.781523 0.99287105 -0.50394952 0.93867779
15.801562 0.59596676 -0.50395286 0.93867749
15.807812 0.39736328 -0.50395399 0.93867749
15.811602 0.19867188 -0.50395477 0.93867731
15.812851 -3.9062499e-05 -0.50395519 0.93867731
15.811621 -0.19873047 -0.50395519 0.93867725
15.732695 -1.5869921 -0.50394505 0.9386785
15.687617 -1.9818358 -0.50393885 0.93867934
15.661366 -2.1787987 -0.50393522 0.93867975
15.632695 -2.3754101 -0.50393116 0.93867999
15.531601 -2.9628417 -0.50391698 0.93868172
15.451875 -3.3521287 -0.50390565 0.93868315
15.362383 -3.7392774 -0.5038929 0.93868458
15.263164 -4.1240821 -0.50387871 0.93868607
15.209883 -4.3154688 -0.50387108 0.93868709
15.15414 -4.5061717 -0.50386304 0.93868834
1.9337499 -0.70998043 -0.065650597 0.99178982
1.8610938 -0.70997071 -0.06348297 0.99206001
1.7931055 -0.70998043 -0.061462898 0.9923116
1.7292968 -0.70998043 -0.05957653 0.99254662
1.6126952 -0.7099902 -0.056157034 0.99297297
1.5592577 -0.70998043 -0.054602697 0.9931668
1.4607812 -0.70998043 -0.051762044 0.99352109
1.4152734 -0.70998043 -0.05046108 0.99368334
1.3307421 -0.70997071 -0.048068237 0.99398196
1.266289 -0.71706051 -0.046377447 0.99419308
1.2660742 -0.78136718 -0.047415692 0.99406356
1.2658594 -0.84874022 -0.048571166 0.99391925
1.265625 -0.91955078 -0.049856681 0.99375874
1.2654883 -0.94402343 -0.050316505 0.99370146
9.965703 -7.6304197 -0.40001333 0.95100951
9.669961 -7.9997263 -0.39997023 0.95101476
9.5683594 -8.1203318 -0.39995539 0.95101637
9.4652147 -8.2396193 -0.39994037 0.9510181
9.3605661 -8.3575783 -0.39992511 0.95102
9.2544136 -8.4742184 -0.39990959 0.95102191
5.0996876 -4.7889843 -0.22295558 0.97239089
4.990664 -4.8060255 -0.22081542 0.97265267
4.8472266 -4.7866697 -0.21710663 0.97310513
4.782578 -4.8431249 -0.21692361 0.97312772
8.1621284 -8.9137011 -0.38518286 0.95278209
7.1792188 -8.040801 -0.34352034 0.95777774
7.0548434 -8.9780855 -0.36390004 0.9553321
8.06668 -10.535596 -0.42288551 0.94828182
7.525703 -10.925517 -0.42280632 0.94829142
5.5272655 -8.472353 -0.32239428 0.96032441
5.3756247 -8.4706831 -0.31973451 0.9606452
5.2264647 -8.4690237 -0.31716815 0.9609549
5.0796876 -8.4674025 -0.3146916 0.9612537
4.7927146 -8.4642477 -0.30999851 0.96182036
4.109961 -8.4566889 -0.29966006 0.96306998
3.9786718 -8.4552441 -0.29781222 0.96329337
3.7208397 -8.4524021 -0.29432425 0.96371537
3.5941601 -8.4509859 -0.29267937 0.96391445
3.4688475 -8.4496088 -0.29109946 0.96410573
3.3448632 -8.4482422 -0.28958088 0.96428955
3.2221289 -8.4468746 -0.28812322 0.96446609
3.1005859 -8.4455471 -0.28672621 0.96463531
2.8610156 -8.4429007 -0.28410468 0.96495289
2.7427928 -8.4415817 -0.28287867 0.96510154
2.3939648 -8.4377346 -0.27952582 0.96550798
2.052793 -8.4339743 -0.27663821 0.96585804
1.940625 -8.432724 -0.27577582 0.96596265
1.8290625 -8.4314938 -0.27496186 0.96606135
1.718164 -8.4302731 -0.27419603 0.96615422
1.4981641 -8.4278412 -0.27280638 0.9663229
1.2801952 -8.4254293 -0.27160004 0.96646923
1.0640429 -8.423027 -0.27057582 0.96659362
0.95652342 -8.4218359 -0.27013078 0.96664774
0.84935546 -8.4206734 -0.26972866 0.96669638
0.63587892 -8.4183006 -0.26905617 0.9667781
0.42333984 -8.4159565 -0.26855621 0.96683878
0.31732422 -8.4147949 -0.26836991 0.96686131
0.21146484 -8.4136229 -0.26822716 0.96687871
0.10566406 -8.4124508 -0.26812682 0.96689099
-0.10576171 -8.4101076 -0.26805133 0.96690005
-0.31718749 -8.407793 -0.26814723 0.96688843
-0.84757811 -8.4019232 -0.26912835 0.96676928
-0.95423824 -8.400732 -0.26945305 0.96672988
-1.2760156 -8.3971777 -0.27069098 0.96657968
-1.6012304 -8.3935843 -0.27232832 0.96638095
-2.1535938 -8.3874807 -0.27597988 0.96593785
-2.265996 -8.38624 -0.27685404 0.96583182
-2.3791015 -8.3849897 -0.27777776 0.96571976
-2.4929881 -8.3837404 -0.27875203 0.96560162
-2.6076953 -8.3824511 -0.27977753 0.96547735
-2.8397655 -8.3799124 -0.28198585 0.9652096
-3.3158202 -8.3746386 -0.28705844 0.96459496
-3.4376171 -8.373291 -0.28847 0.96442395
-3.8105857 -8.3691893 -0.29307106 0.96386683
-3.9376366 -8.3677731 -0.29473135 0.9636659
-4.1962304 -8.3649311 -0.29825193 0.96323991
-4.3278708 -8.3634663 -0.30011693 0.96301454
-4.4611912 -8.3619823 -0.30204988 0.96278065
-4.5962696 -8.3604879 -0.30405951 0.96253788
-4.7331834 -8.3589745 -0.30614313 0.962286
-5.1557422 -8.3542967 -0.31287238 0.96147335
-5.4482031 -8.3510838 -0.31777966 0.96088094
-5.597949 -8.3494234 -0.32036835 0.96056861
-5.9049802 -8.3460255 -0.32582989 0.95991004
-6.2229295 -8.3425198 -0.33169472 0.95920318
-6.3862305 -8.3407125 -0.33478811 0.95883077
-6.5526562 -8.3388577 -0.3379938 0.95844507
-6.722363 -8.3370113 -0.34131351 0.9580453
-6.8954101 -8.3350973 -0.34475678 0.95763135
-7.072031 -8.3331251 -0.34832457 0.95720249
-7.2524219 -8.3311424 -0.35202339 0.9567579
-7.4366794 -8.3291111 -0.35585746 0.95629728
-7.817656 -8.3248825 -0.36395898 0.95532495
-8.2166595 -8.3204784 -0.37267914 0.95427942
-8.4234371 -8.318203 -0.37728804 0.9537273
-8.6354885 -8.3158493 -0.38207301 0.95315427
-8.8529882 -8.3134375 -0.38704368 0.95255959
-1.0350195 -0.90100586 -0.043732069 0.99452323
-1.0351171 -0.87844723 -0.043266106 0.99458146
-1.0351952 -0.85638672 -0.042816468 0.99463767
-1.0352539 -0.83478516 -0.042382851 0.99469185
-1.0353515 -0.81359375 -0.041964531 0.99474412
-1.0354102 -0.79280269 -0.041560479 0.99479467
-1.0355078 -0.77242184 -0.041170653 0.99484324
-1.0356641 -0.73277342 -0.040431481 0.99493557
-1.0589453 -0.7099902 -0.040630303 0.99491066
-1.0882422 -0.70998043 -0.041409492 0.99481338
-1.1187109 -0.70998043 -0.042226255 0.9947114
-1.1504102 -0.70996094 -0.043082807 0.99460447
-1.1834375 -0.70998043 -0.043981895 0.99449211
-1.253828 -0.70997071 -0.045919836 0.99425012
-1.3719921 -0.70998043 -0.049232025 0.9938367
-1.4608008 -0.70997071 -0.051762044 0.99352103
-1.50875 -0.70998043 -0.053140104 0.99334902
-1.6127343 -0.70998043 -0.056157112 0.99297285
-1.6693164 -0.70997071 -0.057811696 0.9927665
-12.094101 -4.2685056 -0.40873799 0.94996786
-13.627617 -4.239326 -0.45483854 0.94448441
-14.229921 -4.2313185 -0.47312894 0.94231755
-14.882812 -4.2226367 -0.49303386 0.93996519
-15.270351 -3.5142381 -0.49938643 0.93921596
-15.353477 -3.1293163 -0.49937379 0.93921733
-15.460019 -2.5483203 -0.49935752 0.93921924
-15.490703 -2.353828 -0.49935278 0.93921965
-15.518887 -2.1589649 -0.49934843 0.93922031
-15.568007 -1.7682617 -0.4993408 0.9392212
-15.623281 -1.1802245 -0.49933204 0.9392224
-15.64789 -0.78722656 -0.49932799 0.93922281
-15.656562 -0.59052736 -0.4993265 0.93922275
-14.418593 -1.953125e-05 -0.49950799 0.94392461
-14.414042 0.36231443 -0.49950826 0.94392461
-14.400391 0.72442383 -0.49950987 0.94392461
-14.377812 1.0860938 -0.49951285 0.94392395
-14.363047 1.2666894 -0.49951479 0.94392383
-14.326836 1.627246 -0.49951977 0.94392323
-14.196895 2.5237012 -0.49953791 0.94392133
-14.129257 2.8797557 -0.49954748 0.94392025
-14.092109 3.0570996 -0.49955276 0.94391972
-14.052714 3.2339842 -0.49955836 0.94391918
-14.011132 3.410332 -0.49956432 0.94391853
-13.967382 3.5861719 -0.49957052 0.94391775
-13.921406 3.7614746 -0.49957713 0.94391698
-12.765586 3.7958496 -0.46137926 0.94809186
-11.167812 3.7844141 -0.40850052 0.95390165
-1.7817968 0.6796484 -0.066065595 0.99239641
-1.6692969 0.70991212 -0.062842675 0.99276602
-1.5593164 0.70991212 -0.059354287 0.99316609
-1.50875 0.70992184 -0.057764739 0.99334848
-1.415293 0.70991212 -0.054852407 0.9936828
-1.3719921 0.70992184 -0.053516235 0.99383622
-1.3307421 0.70991212 -0.052251358 0.99398154
-1.2914063 0.70991212 -0.051053047 0.99411917
-1.1504102 0.70991212 -0.046831895 0.99460411
-1.0882422 0.70991212 -0.045013085 0.99481308
-1.0350391 0.71291989 -0.043540001 0.99498236
-1.0347265 0.79221678 -0.0451461 0.99479777
-1.0344532 0.85573238 -0.04650959 0.99464107
-1.034375 0.8777734 -0.046997488 0.99458498
-1.0342578 0.90029293 -0.047503319 0.99452692
-1.0341406 0.92332029 -0.048027724 0.99446666
-7.8593946 7.7612305 -0.3826583 0.95675379
-7.662168 7.7590528 -0.37777305 0.95729393
-7.0991797 7.7528319 -0.3641741 0.95879906
-6.920332 7.7508688 -0.35996819 0.95926511
-6.7455468 7.7489257 -0.35591263 0.95971459
-6.5746093 7.7470508 -0.35200298 0.96014816
-6.4073629 7.7451854 -0.34823382 0.96056652
-5.9261327 7.7398629 -0.33770376 0.96173573
-5.7720704 7.7381735 -0.33443981 0.96209854
-5.4725389 7.7348633 -0.32824606 0.96278709
-5.3268747 7.733242 -0.32531083 0.96311361
-4.9047461 7.7285933 -0.31710809 0.96402675
-4.7686329 7.7270703 -0.31456274 0.96431041
-4.6346874 7.7256055 -0.3121067 0.96458399
-4.1186328 7.719902 -0.30312204 0.96558571
-3.8712499 7.7171578 -0.29909942 0.96603465
-3.7499804 7.7158103 -0.29719752 0.96624696
-3.5118945 7.7131739 -0.29360276 0.96664834
-3.3949609 7.7118945 -0.29190686 0.96683776
-3.1650391 7.7093554 -0.28870729 0.96719509
-2.8290625 7.7056346 -0.28437042 0.96767992
-2.7192578 7.704443 -0.28304186 0.96782833
-2.5025976 7.7020407 -0.2805545 0.96810657
-2.3956444 7.7008495 -0.2793934 0.96823657
-2.2895899 7.6996875 -0.27828479 0.96836048
-2.1843359 7.6985254 -0.27722964 0.96847862
-1.9761328 7.6962109 -0.27526987 0.96869785
-1.8730859 7.6950779 -0.2743656 0.96879905
-1.3670117 7.6894922 -0.27056482 0.96922451
-1.2673438 7.6883788 -0.26994464 0.96929407
-1.168125 7.687295 -0.26936969 0.96935844
-0.87281251 7.6840429 -0.26791048 0.96952176
-0.6775586 7.6818748 -0.26715693 0.96960616
-0.48324218 7.6797266 -0.26657656 0.96967131
-0.38636717 7.6786523 -0.26634929 0.9696967
-0.28960937 7.677578 -0.26616448 0.96971738
0.1928125 7.672246 -0.26587597 0.96974987
0.28925779 7.6711912 -0.26594356 0.96974224
0.3858203 7.6701169 -0.26605332 0.9697299
0.4824414 7.6690426 -0.26620513 0.96971291
0.5791797 7.6679978 -0.26640007 0.96969098
0.87050778 7.6647558 -0.26723936 0.9695971
1.0658984 7.6625977 -0.26801345 0.96951038
1.2626171 7.6604395 -0.26896331 0.96940398
1.3615234 7.6593261 -0.26950377 0.96934348
1.4608203 7.6582518 -0.27009019 0.9692778
1.6608202 7.6560349 -0.27139929 0.96913123
1.7615625 7.654912 -0.27212328 0.96905029
1.8628906 7.6538181 -0.27289352 0.96896386
2.0673437 7.6515427 -0.2745792 0.96877521
2.4845507 7.646914 -0.27854782 0.96833134
2.6980078 7.6445603 -0.280844 0.9680745
3.0251954 7.6409569 -0.28470036 0.9676432
3.2485547 7.6384864 -0.28756031 0.96732354
3.4766016 7.6359668 -0.29066297 0.96697682
3.7097654 7.6333885 -0.29402208 0.96660167
3.8284373 7.6320701 -0.2958017 0.96640301
4.0702343 7.6294041 -0.2995685 0.96598238
4.1934767 7.6280465 -0.30156052 0.96576011
4.836328 7.6209373 -0.31269085 0.96451908
5.1073828 7.617949 -0.31773657 0.96395713
5.2462692 7.616406 -0.32039687 0.9636609
5.3875585 7.6148434 -0.32315275 0.96335393
5.5313087 7.6132712 -0.32601142 0.96303594
5.8266211 7.6100097 -0.33203766 0.96236563
7.5941405 9.1797361 -0.41273642 0.95343524
7.8230662 8.9867477 -0.41277027 0.95343149
7.9357028 8.8880758 -0.41278693 0.9534297
8.2660742 8.5837202 -0.41283593 0.9534241
8.3735743 8.4794722 -0.41285178 0.95342249
8.5074215 7.7901659 -0.39962131 0.95488071
8.6049213 7.6829004 -0.39963576 0.95487928
1.2646484 0.94330078 -0.054657858 0.99370527
1.2648437 0.89489257 -0.053677328 0.99381787
1.2649219 0.87128901 -0.053212203 0.99387133
1.2650195 0.84811521 -0.052763518 0.99392283
1.2651953 0.80290037 -0.051912155 0.99402052
1.2652735 0.7808398 -0.051508978 0.99406683
1.2653515 0.75907224 -0.051119652 0.9941116
1.2654883 0.71653318 -0.050381888 0.99419636
1.3719336 0.70991212 -0.053516272 0.99383646
1.5086914 0.70991212 -0.057764661 0.99334872
1.5592773 0.70992184 -0.059354361 0.99316621
1.7293164 0.70991212 -0.064761125 0.99254596
1.7931055 0.70992184 -0.066811711 0.992311
1.8610938 0.70991212 -0.069007225 0.99205935
1.9337499 0.70991212 -0.071363524 0.99178916
2.0122657 0.65378904 -0.073299557 0.99156743
13.935859 4.1438475 -0.50367463 0.94347018
13.986992 3.968457 -0.50368237 0.94346958
14.082676 3.6158006 -0.5036968 0.94346809
14.247304 2.9038184 -0.50372177 0.94346523
14.34707 2.3648338 -0.50373703 0.94346356
14.375742 2.1843848 -0.50374144 0.94346321
14.402206 2.0035741 -0.5037455 0.94346267
14.426367 1.8224511 -0.50374925 0.94346219
14.448222 1.6410253 -0.50375265 0.94346184
14.467734 1.4593555 -0.50375575 0.94346172
14.500039 1.0953418 -0.50376087 0.94346094
14.523046 0.73060542 -0.50376463 0.9434607
14.531152 0.54804689 -0.50376606 0.94346046
14.541582 -2.9296874e-05 -0.50376815 0.94346011
14.54039 -0.18276367 -0.50376821 0.94346023
14.536972 -0.36544922 -0.50376791 0.94346017
14.485117 -1.2774999 -0.50376123 0.943461
14.448261 -1.6410742 -0.50375617 0.94346166
14.426445 -1.8225098 -0.50375313 0.94346189
14.402305 -2.0036328 -0.50374979 0.94346225
14.375898 -2.184453 -0.50374609 0.94346261
14.347207 -2.3649023 -0.5037421 0.94346303
14.316211 -2.5449998 -0.50373769 0.94346356
14.282988 -2.724668 -0.50373304 0.94346398
14.247499 -2.9038963 -0.50372797 0.94346446
14.209745 -3.0826659 -0.50372261 0.94346499
14.169687 -3.2609472 -0.50371689 0.94346577
14.08293 -3.6159179 -0.50370449 0.94346708
13.987266 -3.9685936 -0.50369084 0.94346845
13.936074 -4.1439548 -0.50368351 0.94346929
13.882656 -4.3186913 -0.50367582 0.94347024
2.0123632 -0.68197262 -0.073610075 0.99153185
1.8610938 -0.70997071 -0.069007106 0.99205923
1.7931055 -0.70998043 -0.066811711 0.99231088
1.7292968 -0.70998043 -0.064761393 0.99254596
1.6692969 -0.70998043 -0.06284298 0.9927659
1.5592577 -0.70998043 -0.059354436 0.99316621
1.2655078 -0.71660155 -0.050381772 0.99419618
1.2654296 -0.7377246 -0.050743941 0.99415457
1.2649609 -0.87134767 -0.05321224 0.99387109
1.2647265 -0.91891599 -0.054158896 0.99376255
1.2646484 -0.94336909 -0.054657783 0.99370515
8.9853516 -7.2450976 -0.3998687 0.95485342
8.893281 -7.3571973 -0.39985529 0.95485491
8.7049999 -7.5778613 -0.39982784 0.95485783
8.6088085 -7.6863475 -0.3998138 0.95485944
5.098125 -4.7875094 -0.24228361 0.97239673
4.9886327 -4.8040528 -0.23993024 0.9726612
4.8451171 -4.7846484 -0.23589677 0.97311407
4.8136911 -4.9987106 -0.24041219 0.97260696
4.7910156 -5.1019726 -0.24246018 0.97237647
7.1791797 -8.0407906 -0.37341705 0.95777404
7.8980079 -9.3064747 -0.42285937 0.95232046
7.780117 -9.4045897 -0.42284214 0.95232236
7.1736326 -8.8967772 -0.39588478 0.95528841
7.054863 -8.978076 -0.3955653 0.95532805
7.2965231 -9.782011 -0.42277139 0.95233011
7.1727343 -9.8724899 -0.42275327 0.95233214
7.0478125 -9.9614162 -0.42273501 0.95233411
5.3756247 -8.4706831 -0.34755981 0.96064168
5.2264647 -8.4690237 -0.34476975 0.96095139
4.9351172 -8.4658108 -0.33948046 0.96153861
4.6523633 -8.4626856 -0.33455977 0.96208549
4.2428904 -8.4581738 -0.32782009 0.96283472
4.109961 -8.4566889 -0.32573566 0.9630667
3.5941601 -8.4509859 -0.31814998 0.96391118
3.3448632 -8.4482422 -0.31478176 0.96428633
3.2221289 -8.4468746 -0.31319726 0.96446288
3.1005859 -8.4455471 -0.31167862 0.96463215
2.9802928 -8.4442186 -0.31022239 0.96479428
2.7427928 -8.4415817 -0.30749553 0.96509838
2.6255662 -8.4403028 -0.30622229 0.9652403
2.2794335 -8.4364643 -0.3027496 0.96562773
1.8290625 -8.4314938 -0.2988905 0.96605825
1.718164 -8.4302731 -0.29805699 0.96615118
1.6078906 -8.4290524 -0.29727677 0.96623832
1.4981641 -8.4278412 -0.29654732 0.96631986
1.3889452 -8.426631 -0.29586709 0.9663958
1.2801952 -8.4254293 -0.29523638 0.96646619
0.84935546 -8.4206734 -0.29320192 0.9666934
0.63587892 -8.4183006 -0.2924709 0.96677512
0.52951169 -8.4171286 -0.29217541 0.96680802
-3.9062499e-05 -8.4112787 -0.29139659 0.96689504
-0.31718749 -8.407793 -0.29148078 0.96688539
-0.52890623 -8.4054489 -0.29176944 0.96685332
-0.63492185 -8.4042768 -0.29198217 0.96682948
-0.74115235 -8.4030952 -0.29224142 0.96680051
-0.84757811 -8.4019232 -0.29254836 0.96676624
-0.95423824 -8.400732 -0.29290232 0.96672684
-1.0611719 -8.3995504 -0.29330245 0.96668208
-1.3839648 -8.3959961 -0.29479197 0.96651584
-1.6012304 -8.3935843 -0.2960268 0.96637791
-1.7105469 -8.3923826 -0.29671845 0.96630061
-1.9308593 -8.3899508 -0.29825392 0.96612918
-2.0418944 -8.388711 -0.29909983 0.96603495
-2.1535938 -8.3874807 -0.29999697 0.96593475
-2.3791015 -8.3849897 -0.30195153 0.96571666
-2.6076953 -8.3824511 -0.30412412 0.96547425
-2.957207 -8.378603 -0.30781153 0.96506292
-3.0756836 -8.3772945 -0.30915943 0.96491265
-3.4376171 -8.373291 -0.31357422 0.96442074
-3.5606639 -8.3719435 -0.31517369 0.9642424
-3.6849608 -8.3705664 -0.31684017 0.96405679
-3.8105857 -8.3691893 -0.31857476 0.96386355
-3.9376366 -8.3677731 -0.32037941 0.96366262
-4.3278708 -8.3634663 -0.32623339 0.96301121
-4.7331834 -8.3589745 -0.33278522 0.9622826
-4.8719921 -8.3574514 -0.3351337 0.96202141
-5.1557422 -8.3542967 -0.34009898 0.96146989
-5.3008595 -8.352705 -0.34271827 0.96117884
-5.7501559 -8.3477535 -0.35116345 0.9602415
-5.9049802 -8.3460255 -0.35418558 0.9599064
-6.2228904 -8.3425093 -0.3605606 0.95919961
-6.38625 -8.340703 -0.36392197 0.95882708
-6.5526757 -8.3388472 -0.36740533 0.95844132
-6.8954296 -8.3350878 -0.37475815 0.95762753
-7.2524219 -8.3311329 -0.3826572 0.95675403
-7.4366794 -8.3291111 -0.386825 0.95629334
-7.625 -8.3270111 -0.39114806 0.95581597
-7.817656 -8.3248825 -0.39563286 0.95532095
-8.1610737 -8.0591888 -0.39734724 0.95513147
-8.2613869 -7.9556346 -0.3973324 0.95513332
-1.034043 -0.94688475 -0.048571356 0.99440402
-1.0341601 -0.92334956 -0.048027419 0.99446648
-1.0342578 -0.9003613 -0.047503166 0.99452674
-1.034336 -0.87784177 -0.04699745 0.99458492
-1.0344532 -0.85579097 -0.046509665 0.99464095
-1.0345508 -0.83420897 -0.046038818 0.99469501
-1.0346484 -0.81304687 -0.045584753 0.99474716
-1.0347265 -0.79226559 -0.045146178 0.99479765
-1.0348047 -0.77190429 -0.044723205 0.99484628
-1.0349804 -0.73227537 -0.043920629 0.99493843
-1.0589453 -0.7099902 -0.044166144 0.99491024
-1.0882422 -0.70998043 -0.045013238 0.99481291
-1.1187109 -0.70998043 -0.04590103 0.99471092
-1.3307617 -0.70998043 -0.05225151 0.9939813
-1.3719921 -0.70998043 -0.05351631 0.9938361
-1.4608008 -0.70997071 -0.056266516 0.99352044
-1.50875 -0.70998043 -0.057764892 0.99334842
-1.6127343 -0.70998043 -0.061044045 0.9929722
-12.072109 -4.2607617 -0.44350153 0.95005202
-12.552265 -4.2536035 -0.45914289 0.94833696
-13.070078 -4.2467284 -0.47609317 0.94648159
-13.823066 -4.1103516 -0.49959999 0.94391459
-13.873515 -3.9362988 -0.49959239 0.94391507
-13.967597 -3.5862987 -0.49957815 0.9439168
-14.011289 -3.4104199 -0.49957153 0.94391787
-14.164335 -2.7020214 -0.49954829 0.94392025
-14.2275 -2.3451562 -0.4995386 0.94392127
-14.255664 -2.1661718 -0.49953425 0.94392192
-14.305409 -1.8071972 -0.49952659 0.94392264
-14.326933 -1.6272851 -0.49952322 0.94392288
-14.363125 -1.2667285 -0.4995175 0.94392353
-14.390312 -0.90538085 -0.49951312 0.94392395
-14.400508 -0.72446287 -0.49951139 0.94392413
-14.40836 -0.54344726 -0.49951008 0.94392455
-14.414062 -0.3623535 -0.49950904 0.94392455
-14.41746 -0.18120117 -0.49950835 0.94392461
-13.353827 -9.7656248e-06 -0.49966463 0.94795078
-13.352773 0.16779296 -0.4996646 0.94795078
-13.349609 0.3355664 -0.4996649 0.94795078
-13.344375 0.50329101 -0.49966547 0.94795066
-13.33705 0.67093748 -0.49966636 0.94795048
-13.327637 0.83847654 -0.49966758 0.94795018
-13.316015 1.0058887 -0.4996691 0.9479503
-13.302382 1.1731347 -0.49967092 0.94795007
-13.28664 1.3402148 -0.49967307 0.94794989
-13.248945 1.6737012 -0.49967825 0.94794923
-13.148417 2.3373241 -0.49969232 0.94794804
-13.08582 2.6670702 -0.49970123 0.94794691
-13.051406 2.8313184 -0.49970612 0.94794643
-13.014882 2.9951172 -0.4997113 0.94794607
-12.893242 3.4836719 -0.49972868 0.9479441
-12.848594 3.6454589 -0.49973506 0.94794351
-12.177031 3.7880371 -0.4771688 0.95023477
-11.636348 3.7808299 -0.45780659 0.952205
-11.142851 3.7759471 -0.44022506 0.95399779
-10.693359 3.7740722 -0.42430604 0.95562375
-1.7826171 0.65441406 -0.071052857 0.99242771
-1.7826562 0.67999023 -0.071390033 0.99239194
-1.4608008 0.70991212 -0.060771901 0.9935199
-1.3719921 0.70992184 -0.057801358 0.99383563
-1.3307421 0.70991212 -0.056435242 0.99398094
-1.2914063 0.70991212 -0.055140954 0.99411857
-1.253828 0.70992184 -0.05391258 0.99424911
-1.2178906 0.70992184 -0.052746579 0.99437314
-1.1187109 0.70992184 -0.049576264 0.99471051
-1.0589062 0.70991212 -0.047702294 0.99491
-1.034375 0.71244138 -0.046995275 0.99498516
-1.0342578 0.73172849 -0.04740566 0.99494159
-1.0341015 0.77129883 -0.048271101 0.99484944
-1.0339843 0.79166991 -0.048727531 0.99480093
-1.0339062 0.81239253 -0.049200363 0.99475056
-1.0338281 0.83354491 -0.049690247 0.99469835
-1.0333788 0.92262691 -0.05183544 0.99447018
-1.0332617 0.94611329 -0.052421797 0.99440783
-7.738945 7.267334 -0.39723197 0.95839542
-7.6472263 7.3642478 -0.39724532 0.95839417
-7.4602733 7.5545897 -0.39727265 0.95839143
-7.3650193 7.648037 -0.39728656 0.95838988
-6.920332 7.7508688 -0.38879097 0.95926112
-6.5746288 7.7470508 -0.38019028 0.96014422
-6.4073825 7.7451949 -0.37611678 0.96056259
-6.0833006 7.7416015 -0.36840019 0.96135592
-5.7720313 7.7381735 -0.36121807 0.9620949
-5.6208982 7.7364941 -0.35781386 0.96244526
-5.4725585 7.7348633 -0.35452992 0.9627834
-5.3268747 7.733242 -0.3513599 0.96310997
-5.0430861 7.7301168 -0.34534901 0.9637295
-4.9047461 7.7285933 -0.34249991 0.96402323
-4.7686329 7.7270703 -0.3397499 0.96430689
-4.3728905 7.7227049 -0.33207011 0.96509945
-4.244863 7.7212791 -0.32968894 0.96534532
-4.1185937 7.7198825 -0.32739314 0.96558243
-3.9941015 7.7185154 -0.32518113 0.96581095
-3.8712499 7.7171578 -0.32304847 0.96603131
-3.6301951 7.7144918 -0.31901589 0.96644813
-3.3949609 7.7118945 -0.31527966 0.96683449
-3.2793553 7.7106347 -0.31351817 0.96701664
-3.165 7.7093554 -0.31182528 0.96719193
-2.8290625 7.7056346 -0.30714014 0.9676767
-2.7192578 7.704443 -0.30570608 0.96782517
-2.5025976 7.7020407 -0.30301848 0.96810341
-2.3956444 7.7008495 -0.30176461 0.96823341
-2.0798438 7.6973534 -0.29834223 0.96858805
-1.9760936 7.6962109 -0.29731184 0.96869481
-1.8730859 7.6950779 -0.29633513 0.96879601
-1.7706835 7.6939354 -0.29541048 0.9688918
-1.4671289 7.6906052 -0.29294926 0.96914691
-1.3670117 7.6894922 -0.29222989 0.96922153
-1.2673438 7.6883788 -0.29156002 0.96929103
-0.58027345 7.6808004 -0.28821269 0.96963817
-0.48322263 7.6797361 -0.28792137 0.96966827
-0.19304687 7.6765137 -0.28732434 0.96973032
0.28925779 7.6711912 -0.28723791 0.96973926
0.3858203 7.6701169 -0.28735721 0.96972692
0.57921875 7.6679783 -0.28773272 0.96968806
0.6761328 7.6669235 -0.28798723 0.96966147
0.77320313 7.6658492 -0.28828961 0.96963018
1.0658984 7.6625977 -0.28947431 0.9695074
1.2626171 7.6604395 -0.29049933 0.969401
1.3615234 7.6593261 -0.2910839 0.96934044
1.4608203 7.6582518 -0.29171723 0.96927476
1.5605859 7.6571383 -0.2923986 0.96920407
1.7616016 7.654912 -0.29391238 0.96904719
2.0673437 7.6515427 -0.29656568 0.96877217
2.1705468 7.6503906 -0.29755539 0.96866965
2.2744532 7.6492577 -0.29859877 0.96856147
2.5908594 7.645752 -0.30206168 0.96820271
2.9151366 7.6421776 -0.30604628 0.96779007
3.0251954 7.6409569 -0.30749634 0.96764004
3.3619921 7.6372461 -0.31222665 0.96715033
3.4766405 7.6359668 -0.31393757 0.96697348
3.7097654 7.6333885 -0.31756562 0.96659839
3.8284373 7.6320896 -0.31948769 0.96639961
3.9485545 7.6307516 -0.32148361 0.96619332
4.3183985 7.6266599 -0.32794052 0.96552616
4.4450583 7.6252637 -0.33025578 0.96528697
4.5735741 7.623857 -0.33265907 0.96503896
4.7039452 7.6224022 -0.33514845 0.964782
4.836328 7.6209373 -0.33773017 0.96451557
5.1073828 7.617949 -0.34317869 0.96395361
5.2463083 7.616406 -0.34605134 0.96365726
5.3875585 7.6148434 -0.34902877 0.96335036
5.5313087 7.6132712 -0.35211506 0.96303231
5.6776171 7.6116405 -0.35531172 0.96270311
6.9221482 8.5848532 -0.41263816 0.95681739
7.0297656 8.4975195 -0.4126541 0.95681572
7.2416015 8.318779 -0.41268542 0.95681274
7.5508204 8.0408201 -0.41273123 0.95680803
7.6515622 7.9456153 -0.41274616 0.95680642
7.7833786 7.3090625 -0.3995153 0.95816159
8.0541792 7.01125 -0.39955547 0.9581573
8.1418753 6.9096971 -0.39956847 0.95815611
8.2283392 6.8070703 -0.39958128 0.95815468
8.4798822 6.4927244 -0.39961863 0.95815074
1.2641015 0.87072265 -0.057434957 0.99387467
1.264375 0.80238277 -0.056032486 0.9940238
1.2645313 0.75860351 -0.055177495 0.99411476
1.2646093 0.737207 -0.054772489 0.99415785
1.2646874 0.71609372 -0.054381903 0.9941994
1.2913672 0.70992184 -0.055140913 0.99411869
1.3307031 0.70991212 -0.056435164 0.99398106
1.4152734 0.70992184 -0.059244536 0.99368221
1.4607617 0.70992184 -0.060771827 0.99352002
1.5086914 0.70991212 -0.062390134 0.99334806
1.7293164 0.70991212 -0.069946595 0.99254525
1.8610938 0.70991212 -0.074532658 0.99205858
1.9337499 0.70991212 -0.077077709 0.99178839
2.0146093 0.71102536 -0.079939537 0.99148488
2.014375 0.6544922 -0.079251938 0.99155778
12.849375 3.9971874 -0.50351495 0.94756037
12.898749 3.835459 -0.5035224 0.94755971
12.991405 3.510205 -0.50353634 0.94755834
13.115 3.0181932 -0.50355512 0.94755632
13.152031 2.853164 -0.50356072 0.94755578
13.186992 2.687705 -0.50356603 0.94755518
13.219844 2.5218163 -0.50357103 0.94755471
13.352578 1.6867968 -0.50359148 0.94755292
13.372851 1.5189062 -0.50359464 0.94755244
13.390937 1.3507519 -0.5035975 0.9475522
13.406953 1.182373 -0.5036 0.94755185
13.458202 0.16909179 -0.50360864 0.94755077
13.459296 -2.9296874e-05 -0.50360894 0.94755065
13.458202 -0.16916016 -0.50360894 0.94755077
13.455 -0.33825195 -0.5036087 0.94755083
13.449668 -0.50730467 -0.50360811 0.94755089
13.442148 -0.67626953 -0.50360715 0.94755125
13.432558 -0.84511715 -0.5036059 0.94755137
13.406992 -1.1824316 -0.5036025 0.94755167
13.352754 -1.6868652 -0.50359505 0.94755226
13.33039 -1.8545214 -0.50359195 0.94755268
13.305976 -2.0218749 -0.50358856 0.94755286
13.279375 -2.1888964 -0.5035848 0.94755346
13.250742 -2.3555663 -0.50358075 0.94755375
13.21996 -2.5218651 -0.5035764 0.94755429
13.187148 -2.6877735 -0.50357175 0.94755459
13.076055 -3.1827929 -0.50355595 0.9475562
12.898945 -3.8355858 -0.50353062 0.94755888
12.84955 -3.9972949 -0.50352353 0.9475596
2.014375 -0.65455079 -0.079251863 0.99155772
2.014492 -0.68270504 -0.079587862 0.99152207
1.9337499 -0.70998043 -0.077077828 0.99178827
1.8610938 -0.70997071 -0.074532852 0.99205846
1.7931055 -0.70998043 -0.0721616 0.99231011
1.7292968 -0.70998043 -0.069946863 0.99254525
1.6692969 -0.70998043 -0.067874871 0.99276519
1.6126952 -0.7099902 -0.065931663 0.9929716
1.5087109 -0.70998043 -0.062389906 0.99334788
1.4152734 -0.70998043 -0.059244804 0.99368215
1.3719531 -0.70998043 -0.057801474 0.99383563
1.2913672 -0.70998043 -0.055140913 0.99411857
1.2644531 -0.78038085 -0.055597458 0.99406999
1.2642969 -0.82483399 -0.056483611 0.9939757
1.264082 -0.87079102 -0.057434883 0.99387461
1.2637695 -0.94271481 -0.058994293 0.99370885
8.4010153 -6.6014743 -0.39978206 0.95813411
8.3171873 -6.7063379 -0.39976984 0.95813519
8.2319918 -6.8100977 -0.39975744 0.9581365
8.1455078 -6.9127831 -0.39974478 0.95813781
7.9686913 -7.1148534 -0.399719 0.95814043
7.878418 -7.2142086 -0.39970583 0.95814168
4.811738 -4.9966602 -0.25955674 0.97261524
4.7877731 -5.0985155 -0.26171139 0.9723922
7.2124219 -7.8764744 -0.39960855 0.95815182
7.1125975 -7.9662204 -0.39959398 0.95815325
6.8065233 -8.2277241 -0.39954925 0.95815784
6.5971093 -8.3955173 -0.39951864 0.958161
6.7543359 -9.055088 -0.42269087 0.95578867
6.6397266 -9.1388569 -0.42267409 0.95579052
6.5241013 -9.2212009 -0.42265716 0.95579225
6.4074411 -9.3020802 -0.42264012 0.95579404
5.6814451 -8.474062 -0.38174826 0.95998454
5.5272655 -8.472353 -0.37851137 0.9603169
5.3756247 -8.4706831 -0.37538895 0.96063781
5.079668 -8.467412 -0.369468 0.96124643
4.5140233 -8.4611616 -0.35883376 0.96234065
4.3775392 -8.4596481 -0.35640785 0.9625904
4.2428708 -8.4581738 -0.35406983 0.96283108
4.1099806 -8.4567089 -0.35181984 0.96306294
3.9787109 -8.4552441 -0.34965059 0.9632864
3.4688475 -8.4496088 -0.34176928 0.96409899
3.3448632 -8.4482422 -0.33998638 0.96428281
3.2221289 -8.4468746 -0.33827621 0.96445936
3.100625 -8.4455271 -0.33663586 0.9646287
2.9802928 -8.4442186 -0.3350631 0.96479082
2.8610156 -8.4429007 -0.33355713 0.96494627
2.7427928 -8.4415817 -0.3321178 0.96509492
2.5093164 -8.4389944 -0.32942975 0.96537244
2.1657813 -8.435215 -0.32586142 0.96574098
2.0528319 -8.4339743 -0.32479203 0.96585155
1.8290625 -8.4314938 -0.32282391 0.96605492
1.718164 -8.4302731 -0.32192367 0.96614784
1.4981641 -8.4278412 -0.32029194 0.96631652
1.2801952 -8.4254389 -0.31887701 0.96646285
1.1718946 -8.4242287 -0.31824884 0.96652782
0.95652342 -8.4218359 -0.3171497 0.96664143
0.84935546 -8.4206734 -0.31667861 0.96669012
0.74248046 -8.4194822 -0.31625891 0.96673363
0.52951169 -8.4171286 -0.31557092 0.9668048
-0.21142578 -8.4089451 -0.31474176 0.96689057
-0.42300782 -8.406621 -0.31495172 0.9668687
-0.52890623 -8.4054489 -0.3151314 0.96685004
-0.63492185 -8.4042768 -0.31536224 0.96682626
-1.0611719 -8.3995504 -0.31678733 0.96667886
-1.1683984 -8.3983784 -0.31727189 0.96662873
-1.3839648 -8.3959961 -0.31839588 0.96651256
-1.7105469 -8.3923826 -0.32047695 0.96629733
-1.9308593 -8.3899508 -0.32213631 0.96612585
-2.1535938 -8.3874807 -0.32401785 0.96593142
-2.3791015 -8.3849897 -0.32612786 0.96571326
-2.4929881 -8.3837404 -0.32727262 0.96559513
-2.8397655 -8.3799124 -0.33106929 0.96520305
-3.1951756 -8.3759766 -0.335437 0.96475226
-3.3158202 -8.3746386 -0.33702508 0.96458828
-3.9376366 -8.3677731 -0.34603339 0.96365911
-4.4611912 -8.3619823 -0.35462707 0.96277362
-5.0128512 -8.3558788 -0.36460197 0.96174681
-5.7501755 -8.3477535 -0.37928241 0.96023756
-6.2229295 -8.3425093 -0.389431 0.95919555
-6.38625 -8.340703 -0.39306259 0.95882303
-6.5526757 -8.3388472 -0.39682484 0.95843726
-6.6693554 -8.2713375 -0.39756694 0.95836109
-6.7725 -8.1865625 -0.39755169 0.9583627
-7.0754294 -7.9245801 -0.39750683 0.95836735
-7.1742187 -7.8347754 -0.3974922 0.95836872
-7.557734 -7.4633789 -0.3974354 0.95837444
-7.742363 -7.2705665 -0.39740801 0.95837736
-1.0332812 -0.9461621 -0.052421875 0.99440765
-1.0333984 -0.92267579 -0.051835213 0.99447
-1.034121 -0.77136719 -0.048271332 0.99484921
-1.0342578 -0.73178709 -0.047405623 0.99494141
-1.034336 -0.71249998 -0.0469952 0.99498516
-1.0882422 -0.70998043 -0.048617668 0.99481243
-1.1834375 -0.70998043 -0.051637456 0.9944911
-1.253828 -0.70997071 -0.053912848 0.99424905
-1.2914063 -0.7099902 -0.055140991 0.99411839
-1.3307617 -0.70998043 -0.05643547 0.99398071
-1.4152734 -0.70997071 -0.059244994 0.99368215
-1.7293359 -0.70998043 -0.06994728 0.99254507
-1.7827344 -0.70584959 -0.071741596 0.99235445
-1.7826171 -0.65447265 -0.071052626 0.99242765
-12.702793 -4.1273923 -0.49976477 0.94794059
-12.848789 -3.6455564 -0.49974281 0.94794273
-12.893437 -3.4837694 -0.49973604 0.94794333
-13.015038 -2.9952049 -0.49971765 0.94794542
-13.051523 -2.8314061 -0.49971208 0.94794589
-13.085957 -2.6671581 -0.49970686 0.94794637
-13.118281 -2.5024707 -0.49970195 0.94794697
-13.148594 -2.3374023 -0.4996973 0.94794732
-13.176797 -2.1719627 -0.49969298 0.94794786
-13.286718 -1.3402538 -0.49967593 0.94794959
-13.302422 -1.1731933 -0.49967346 0.94794989
-13.327617 -0.83851558 -0.49966937 0.94795024
-13.344453 -0.50333983 -0.49966654 0.94795036
-12.43539 -1.953125e-05 -0.49979973 0.95143706
-12.434414 0.15624022 -0.49979973 0.95143706
-12.431445 0.31248045 -0.4998 0.95143718
-12.419706 0.62478513 -0.49980137 0.951437
-12.387461 1.0924511 -0.49980563 0.95143652
-12.337617 1.5585644 -0.49981245 0.95143598
-12.317128 1.7134961 -0.49981532 0.95143574
-12.270351 2.0225196 -0.49982184 0.95143509
-12.244042 2.1765723 -0.49982557 0.95143479
-12.153632 2.6365623 -0.49983835 0.95143354
-12.119629 2.7890918 -0.49984321 0.95143318
-12.08375 2.9412012 -0.49984831 0.9514327
-12.006289 3.2440233 -0.49985939 0.95143163
-11.137753 3.7742283 -0.47265032 0.95401353
-10.676406 3.7680957 -0.45504564 0.95568782
-1.7834765 0.65472656 -0.076357685 0.9924233
-1.7835156 0.68030274 -0.076720275 0.99238753
-1.7835547 0.70613277 -0.077098653 0.99235022
-1.7293359 0.70991212 -0.07513351 0.99254435
-1.6692969 0.70991212 -0.072907753 0.99276453
-1.6127343 0.70990235 -0.070820428 0.99297088
-1.50875 0.70992184 -0.067016222 0.99334711
-1.3719921 0.70992184 -0.062087476 0.99383497
-1.3307421 0.70991212 -0.060619887 0.99398029
-1.2178906 0.70992184 -0.05665756 0.99437255
-1.1834375 0.70993161 -0.055466268 0.99449056
-1.1504102 0.70991212 -0.054332428 0.99460298
-1.1187109 0.70992184 -0.053252563 0.99470997
-1.0589062 0.70991212 -0.051239509 0.99490947
-1.0336719 0.71197265 -0.050446548 0.99498796
-1.0335938 0.73123044 -0.050886687 0.99494433
-1.0333984 0.77078122 -0.051815413 0.99485236
-1.0331055 0.83294922 -0.053337362 0.9947015
-1.0328906 0.87652344 -0.054446638 0.99459159
-1.0327734 0.89898437 -0.055031583 0.99453366
-1.0326172 0.92193359 -0.055638235 0.9944737
-7.2061329 6.7669821 -0.39731085 0.9611994
-7.0342188 6.9463477 -0.39733595 0.96119714
-6.9466209 7.0344434 -0.39734879 0.96119583
-6.8578906 7.1214161 -0.3973617 0.96119457
-6.7681251 7.2072754 -0.39737484 0.9611932
-6.5852928 7.3755469 -0.39740154 0.96119076
-6.2072654 7.6982031 -0.39745679 0.9611854
-6.0833006 7.7416015 -0.39571831 0.96135181
-5.7720313 7.7381735 -0.3880035 0.96209091
-5.3268747 7.7332516 -0.37741423 0.96310604
-5.1837301 7.7316794 -0.37412703 0.96342134
-5.043047 7.7301269 -0.37095797 0.96372569
-4.9047265 7.7286034 -0.36789623 0.96401948
-4.7686329 7.7270799 -0.3649433 0.96430314
-4.5027733 7.7241406 -0.35934561 0.96484101
-3.9941015 7.7185154 -0.34929404 0.96580738
-3.8712499 7.7171578 -0.34700346 0.96602774
-3.6301951 7.7144918 -0.34267193 0.96644461
-3.5118945 7.7131739 -0.34062645 0.96664155
-3.3949609 7.7118945 -0.33865759 0.96683097
-3.2793553 7.7106347 -0.3367655 0.96701318
-3.165 7.7093554 -0.33494696 0.96718848
-3.0518944 7.7081151 -0.33320051 0.96735668
-2.5025976 7.7020407 -0.32548827 0.96810007
-2.3956444 7.7008495 -0.32414109 0.96823007
-2.0798438 7.6973534 -0.32046428 0.96858472
-1.8730469 7.6950779 -0.31830931 0.96879274
-1.6689062 7.692822 -0.31637973 0.96897882
-1.5677344 7.691699 -0.31549785 0.96906388
-1.4671093 7.6906052 -0.31467137 0.96914363
-1.2673438 7.6883788 -0.31317911 0.96928781
-1.168125 7.687295 -0.31251204 0.96935219
-1.0693555 7.6862206 -0.31189612 0.96941155
-0.97089839 7.6851268 -0.31133261 0.96946603
-0.87281251 7.6840429 -0.3108193 0.9695155
-0.77503902 7.6829491 -0.31035846 0.96956021
-0.6775586 7.6818748 -0.309946 0.96959996
-0.48322263 7.6797361 -0.30927059 0.96966505
-0.38636717 7.6786618 -0.30900785 0.9696905
