# .PCD v0.7 - Point Cloud Data file format
VERSION 0.7
FIELDS x y z intensity
SIZE 4 4 4 4
TYPE F F F F
COUNT 1 1 1 1
WIDTH 1102
HEIGHT 1
VIEWPOINT 0 0 0 1 0 0 0
POINTS 1102
DATA ascii
-0.67621094 7.6668944 0.28798705 0.96966153
-0.48228514 7.6647654 0.28736037 0.9697265
-0.096328124 7.6604881 0.28665718 0.96979958
0.096210934 7.6583591 0.28657639 0.96980786
0.1924414 7.6572852 0.28660506 0.969805
0.3850781 7.6551757 0.28679696 0.96978503
0.48152342 7.6541014 0.28696167 0.96976799
0.86878902 7.6498141 0.28807518 0.96965253
1.0638672 7.6476755 0.28890976 0.96956587
1.2601757 7.6455078 0.28993353 0.96945971
1.4579687 7.6433005 0.29114822 0.96933383
1.9610156 7.6377635 0.29505256 0.96892887
2.0633202 7.636621 0.29598701 0.96883208
2.2700195 7.634326 0.29801702 0.96862185
2.4797461 7.6320214 0.30026481 0.96838886
2.5858006 7.6308594 0.30147299 0.96826369
2.6927538 7.6296582 0.30273926 0.96813256
3.0192969 7.6260643 0.30689627 0.96770209
3.1301951 7.624824 0.30840704 0.96754593
3.5855467 7.6198044 0.31510031 0.9668532
3.7025585 7.6185055 0.31694618 0.96666235
3.8210156 7.6172071 0.31886321 0.96646398
3.9408984 7.6158786 0.32085669 0.96625799
4.0623045 7.6145411 0.32292527 0.96604419
4.1852732 7.6131735 0.32507256 0.9658224
4.4364061 7.6104002 0.32961226 0.96535343
10.734023 16.453417 0.73507077 0.92437649
11.014766 16.428808 0.74009854 0.9238795
1.3116602 0.95295894 0.060665891 0.99353129
1.3112891 0.92775387 0.060104787 0.99359095
1.3108984 0.90298826 0.059563216 0.99364859
1.3105664 0.87866211 0.059041176 0.99370408
1.3099023 0.83129883 0.058051679 0.99380922
1.3096093 0.80819333 0.057582892 0.99385899
1.3092968 0.78546876 0.057131194 0.99390703
1.3090234 0.7630859 0.05669548 0.99395329
1.3087305 0.74104488 0.056275673 0.99399799
1.3084766 0.71930665 0.05587101 0.99404103
1.3719531 0.70992184 0.057801437 0.99383575
1.5086719 0.70992184 0.062390059 0.99334812
1.6126952 0.70993161 0.06593208 0.99297172
1.6692773 0.70992184 0.067874983 0.99276537
1.7292968 0.70992184 0.069947317 0.99254531
1.9500781 0.71592772 0.077730104 0.99171931
1.9503906 0.68835938 0.077391125 0.99175519
21.690702 6.4497752 0.84672827 0.91340065
1.9503906 -0.6884082 0.0773912 0.99175513
1.7930859 -0.70997071 0.072161295 0.99231023
1.7292773 -0.70996094 0.069947049 0.99254531
1.6692578 -0.70998043 0.067874409 0.99276531
1.6126952 -0.7099902 0.065931551 0.9929716
1.5592382 -0.70997071 0.064107016 0.99316561
1.5086914 -0.70998043 0.062389981 0.99334794
1.4607812 -0.70997071 0.060771789 0.99351984
1.3719336 -0.70998043 0.057801437 0.99383575
1.3084375 -0.71938473 0.055870857 0.99404103
1.3087305 -0.74109375 0.056275673 0.99399793
1.3099219 -0.83134764 0.058051489 0.99380904
1.3108984 -0.90303707 0.05956329 0.99364847
1.3116602 -0.95302731 0.060666237 0.99353117
9.0196095 -7.8516989 0.44745079 0.9532606
9.0683203 -8.0966311 0.45487922 0.95250344
9.0655861 -8.3013086 0.45993719 0.95198792
9.0807619 -8.967412 0.47751075 0.95019823
7.8109765 -8.9729004 0.4451322 0.95349711
7.4186716 -8.9676857 0.43548277 0.95448166
3.7061327 -4.8404589 0.22810905 0.9758929
3.6183202 -4.8508496 0.22643723 0.9760673
3.5192969 -4.8438964 0.22402343 0.9763186
5.7558398 -8.3560839 0.37965971 0.96019888
5.7528515 -8.580596 0.38654372 0.95949185
5.7430272 -8.8031054 0.39328697 0.95880014
5.7029686 -8.9864845 0.39824423 0.95829159
4.1172657 -8.4717379 0.35244513 0.96299857
3.9858007 -8.470293 0.35027304 0.96322227
3.7275 -8.4674311 0.34617117 0.9636451
3.6005664 -8.4660158 0.34423614 0.9638446
3.4749999 -8.4646292 0.34237662 0.96403635
3.3507812 -8.4632711 0.34059164 0.96422046
3.2278514 -8.4619045 0.33887687 0.96439731
3.1061327 -8.460556 0.33723348 0.96456689
2.9855664 -8.4592381 0.33565888 0.96472937
2.5137889 -8.4540033 0.33001593 0.96531194
2.3982422 -8.4527435 0.32876456 0.96544117
1.9440625 -8.4477148 0.32435507 0.96589673
1.8323046 -8.4464846 0.32339758 0.96599561
1.7212499 -8.4452639 0.32249695 0.96608865
1.6107421 -8.4440327 0.32165152 0.96617603
1.3914453 -8.4416208 0.32012612 0.96633369
1.2824805 -8.4404202 0.31944358 0.9664042
1.1740234 -8.4392185 0.31881431 0.96646923
1.0659375 -8.4380274 0.31823859 0.96652883
0.95824218 -8.4368258 0.31771514 0.96658307
0.74378902 -8.4344625 0.31682074 0.96667546
0.53042966 -8.4321194 0.31613249 0.96674669
0.31792969 -8.4297552 0.31564429 0.96679711
0.1058789 -8.4274216 0.31535819 0.9668268
-3.9062499e-05 -8.4262495 0.31528908 0.96683389
-0.42371094 -8.4215717 0.31551155 0.96681076
-0.5298242 -8.4204006 0.3156926 0.96679205
-0.9559375 -8.4156933 0.31691855 0.96666533
-1.0630664 -8.4145021 0.31735167 0.9666205
-1.3864453 -8.4109278 0.31896216 0.96645397
-1.7135937 -8.4072943 0.32104713 0.96623844
-1.9342773 -8.4048634 0.32270956 0.96606666
-2.1574414 -8.4023829 0.32459441 0.96587193
-2.3833203 -8.3999023 0.32670912 0.96565336
-2.6123438 -8.3973827 0.32906127 0.96541041
-2.7281249 -8.3960838 0.33032858 0.96527964
-2.8448045 -8.394805 0.33165732 0.96514231
-3.2008789 -8.3908691 0.33603263 0.96469069
-3.4437499 -8.3881836 0.33928588 0.96435511
-3.5669725 -8.3868256 0.34101662 0.96417654
-3.9446678 -8.3826466 0.34665006 0.96359563
-4.0733981 -8.3812304 0.34868056 0.96338636
-4.6051755 -8.3766403 0.357676 0.96245974
-5.4653516 -8.3773241 0.37426719 0.96075302
-9.1700191 -8.6111908 0.47068909 0.95089382
-9.1676559 -8.3946772 0.46511596 0.9514609
-1.0741796 -0.88863277 0.052162856 0.99443519
-1.0738086 -0.86583984 0.051612586 0.99449378
-1.073457 -0.84352535 0.051082075 0.99455017
-1.0727735 -0.8002246 0.050077017 0.99465716
-1.071875 -0.73833984 0.048699569 0.99480367
-1.1187109 -0.70998043 0.049576454 0.99471039
-1.1504296 -0.70997071 0.050582275 0.99460334
-1.2179102 -0.7099902 0.052746926 0.99437296
-1.415293 -0.70997071 0.059244994 0.99368209
-1.4608203 -0.70997071 0.060772285 0.99351972
-1.5592968 -0.70996094 0.064107247 0.99316543
-1.6127539 -0.70998043 0.065932155 0.99297142
-1.7382617 -0.71364254 0.070308149 0.99250674
-1.7385546 -0.68835938 0.069965169 0.99254322
-1.7388672 -0.66333008 0.06963627 0.99257809
-1.7433593 0.66499025 0.064640351 0.99255979
-1.742793 0.71543944 0.06526573 0.99248815
-1.6693164 0.70991212 0.062843397 0.99276596
-1.6127148 0.70992184 0.061044272 0.99297237
-1.5593164 0.70993161 0.059354894 0.99316609
-1.50875 0.70991212 0.057765119 0.99334854
-1.4153124 0.70991212 0.054853056 0.99368274
-1.3719921 0.70992184 0.053516652 0.99383622
-1.2914063 0.70991212 0.051053464 0.99411917
-1.2538671 0.70992184 0.049916267 0.99424958
-1.2178906 0.70992184 0.048836555 0.99437374
-1.1504296 0.70991212 0.046832465 0.99460399
-1.1187109 0.70992184 0.045901299 0.99471104
-1.0882422 0.70991212 0.045013618 0.99481308
-1.0691211 0.71674806 0.044591408 0.99486154
-1.0693749 0.73656249 0.044984855 0.99481636
-1.0705469 0.81962889 0.046708908 0.99461818
-1.0711719 0.86367184 0.047669105 0.99450791
-1.071875 0.9095996 0.048702125 0.99438924
-7.090117 7.7429295 0.36370909 0.95885062
-6.909121 7.7382812 0.35938385 0.95932984
-6.7324219 7.7338281 0.35521978 0.95979142
-6.5617967 7.7319431 0.35131842 0.96022427
-6.071445 7.7265038 0.34042448 0.96143353
-5.9146094 7.7247949 0.33704627 0.96180874
-5.7608204 7.7230859 0.33378768 0.96217102
-5.609961 7.721406 0.330641 0.96252072
-5.0332618 7.7150292 0.3191227 0.96380246
-4.8951755 7.7135057 0.31649062 0.96409571
-4.6256638 7.7105269 0.31149894 0.96465188
-4.364336 7.7076559 0.3068524 0.96516979
-4.2365818 7.7062206 0.30465332 0.96541512
-4.1105857 7.7048435 0.30253205 0.96565169
-3.7426562 7.7007809 0.29661912 0.96631157
-3.6231248 7.6994529 0.29479042 0.96651572
-3.505039 7.698154 0.29303017 0.96671218
-3.3883202 7.6968455 0.29133734 0.96690136
-3.0459375 7.6930857 0.28664237 0.96742594
-2.9341795 7.6918454 0.28519964 0.96758723
-2.8235741 7.6906152 0.28381681 0.96774185
-2.7139452 7.689414 0.282491 0.96789008
-2.6053514 7.6882029 0.28122261 0.96803206
-2.4977343 7.6870213 0.28000876 0.96816772
-2.0757811 7.682363 0.27568617 0.96865135
-1.9722265 7.681211 0.27473313 0.96875793
-1.869414 7.680068 0.27383164 0.96885896
-1.6656835 7.6778221 0.27217177 0.96904469
-1.4642578 7.6755958 0.2707032 0.96920919
-1.3643163 7.6744919 0.27003744 0.96928364
-1.1658593 7.6723046 0.26884383 0.96941727
-1.0672656 7.6712108 0.26831505 0.96947658
-0.67621094 7.6668944 0.26663741 0.96966451
-0.48228514 7.6647654 0.26605704 0.96972948
-0.38558593 7.663691 0.2658312 0.96975487
-0.19263671 7.6615624 0.26550454 0.96979135
-7.8124998e-05 7.6594138 0.26534766 0.96980911
0.3850781 7.6551757 0.26553467 0.96978796
0.48152342 7.6541014 0.26568824 0.96977097
0.7716797 7.6508884 0.26639602 0.96969151
0.86878902 7.6498141 0.26671812 0.96965551
1.1618359 7.6465816 0.26794273 0.9695183
1.2601563 7.6454883 0.26843864 0.96946281
1.3588672 7.6444039 0.26897904 0.96940231
1.4579687 7.6433005 0.26956406 0.96933681
1.557539 7.6422067 0.2701937 0.96926624
1.6575781 7.6410937 0.27086991 0.96919054
1.758164 7.6399999 0.27159247 0.96910959
1.8592772 7.6388769 0.27236176 0.96902347
1.9609765 7.6377635 0.27317894 0.96893197
2.1663282 7.635488 0.27495977 0.96873277
2.3744726 7.6331735 0.27693769 0.9685114
2.4797461 7.6320214 0.27800497 0.96839201
2.6927538 7.6296582 0.28029481 0.96813571
2.8006248 7.6284862 0.28152245 0.96799839
2.9094532 7.6272655 0.28280479 0.96785504
3.1301951 7.624824 0.28554261 0.96754909
3.2422459 7.6235838 0.2869989 0.96738625
3.3554296 7.6223435 0.28851691 0.96721661
3.4698436 7.6210642 0.29009598 0.96704012
3.5855467 7.6198044 0.29174063 0.96685648
3.7025585 7.6185055 0.29344872 0.96666563
3.8210156 7.6172071 0.29522553 0.96646726
3.9408593 7.615869 0.29707009 0.96626145
4.3099999 7.6117969 0.30303612 0.96559548
4.4364061 7.6104002 0.30517563 0.96535683
10.734297 16.453848 0.6805951 0.92438185
11.014844 16.428925 0.68523496 0.9238863
11.07164 11.790088 0.56030911 0.93731725
1.307539 0.87665039 0.054538649 0.99371916
1.3072265 0.85282224 0.054074362 0.99377245
1.3069531 0.82941407 0.053626593 0.99382377
1.3063867 0.78372067 0.052778244 0.99392116
1.3056054 0.71776366 0.051616475 0.99405456
1.3719531 0.70992184 0.053516388 0.9938364
1.4607617 0.70992184 0.056266744 0.99352062
1.5592577 0.70992184 0.059354667 0.99316627
1.6126952 0.70993161 0.061044082 0.99297243
1.6692773 0.70992184 0.062842943 0.99276608
1.7292968 0.70992184 0.064761773 0.99254602
1.8611132 0.70993161 0.06900768 0.99205923
1.9553125 0.69009763 0.071834944 0.99173528
1.9555858 -0.66272461 0.071533084 0.99176979
1.955039 -0.71779293 0.072150268 0.9916991
1.7930859 -0.70997071 0.066811562 0.992311
1.7292773 -0.70996094 0.064761505 0.99254608
1.3719336 -0.70998043 0.053516388 0.99383634
1.3061328 -0.76145506 0.052376706 0.99396712
1.3082227 -0.92562497 0.055518646 0.99360639
1.3085546 -0.95078123 0.056036148 0.99354702
9.0271482 -7.6610351 0.41017058 0.95371765
9.0195894 -7.8517089 0.41427267 0.95326519
9.0656252 -8.3012991 0.42583969 0.95199251
7.8109961 -8.9728804 0.41212982 0.95350164
7.6126952 -8.9702444 0.40758422 0.95400268
7.4186716 -8.9676857 0.40319693 0.95448613
6.8572655 -8.5044241 0.37846488 0.95721745
3.5178516 -4.8419333 0.20734054 0.97633046
3.4273827 -4.8442869 0.20557792 0.976529
3.4945703 -5.0732813 0.21341896 0.97564518
4.1172657 -8.4717379 0.326316 0.9630022
3.8558788 -8.4688568 0.32236877 0.96344131
3.7275 -8.4674416 0.32050675 0.96364862
3.6005664 -8.4660254 0.31871644 0.96384811
3.4750195 -8.4646292 0.31699494 0.96403986
3.3507812 -8.4632807 0.31534195 0.96422392
3.1061327 -8.4605665 0.3122319 0.96457034
2.9855859 -8.4592476 0.31077483 0.96473277
2.8661132 -8.4579201 0.30937773 0.96488845
2.7476561 -8.4566212 0.30804396 0.96503729
2.6302733 -8.4553223 0.30676726 0.9651795
2.5138085 -8.4540138 0.30555159 0.96531528
2.3982422 -8.4527435 0.30439124 0.96544456
2.1696093 -8.4502344 0.30224037 0.96568441
2.0564454 -8.4489841 0.30124748 0.96579522
1.9440625 -8.4477243 0.30030808 0.96590006
1.8323241 -8.4464941 0.29942274 0.96599895
1.7212304 -8.4452829 0.29858878 0.96609193
1.2824805 -8.4404202 0.29576194 0.96640754
1.1740234 -8.4392185 0.29518026 0.96647251
1.0659375 -8.4380274 0.29464522 0.96653211
0.95824218 -8.4368258 0.2941606 0.96658635
0.74378902 -8.4344625 0.2933335 0.96667868
0.63699216 -8.4332809 0.29299057 0.96671695
0.53046876 -8.4321194 0.29269448 0.96674991
0.31792969 -8.4297552 0.29224402 0.96680039
0.21185547 -8.4285936 0.29208878 0.96681774
-0.21179686 -8.4239159 0.2919265 0.96683586
-0.31773436 -8.4227438 0.29200089 0.96682751
-0.5298242 -8.4204006 0.29228896 0.96679533
-0.9559375 -8.4156933 0.29342422 0.96666861
-1.0630664 -8.4145021 0.29382384 0.96662378
-1.1704882 -8.4133205 0.29427359 0.96657366
-1.3864453 -8.4109278 0.29531622 0.96645731
-1.6040624 -8.4085255 0.29655325 0.96631908
-1.7135937 -8.4073048 0.29724663 0.96624172
-1.8236718 -8.4061031 0.29799095 0.96615863
-1.9342968 -8.4048634 0.29878455 0.96607
-2.0455663 -8.4036522 0.2996321 0.96597546
-2.1574218 -8.4023924 0.30053085 0.96587527
-2.3833203 -8.3999119 0.30248877 0.9656567
-2.6123438 -8.3973923 0.30466667 0.96541375
-2.7281249 -8.3960934 0.305839 0.96528298
-2.9624803 -8.3935156 0.30836037 0.96500182
-3.0811327 -8.3921967 0.30970961 0.96485138
-3.2008593 -8.3908787 0.3111212 0.96469408
-3.3217382 -8.3895502 0.31259513 0.96452981
-3.4437304 -8.3881931 0.31413221 0.96435857
-3.8173633 -8.3840723 0.31914246 0.96380049
-3.9446678 -8.3826466 0.32095015 0.96359921
-4.0733981 -8.3812399 0.3228302 0.96338987
-4.4691405 -8.3768654 0.32892081 0.96271229
-4.741621 -8.3738375 0.333377 0.96221679
-4.880703 -8.3723145 0.33573258 0.96195507
-5.0217967 -8.3707514 0.33817336 0.96168375
-5.6079297 -8.3642673 0.3488678 0.96049631
-9.1700001 -8.6111622 0.43579474 0.95089871
-9.1413279 -8.3705664 0.42939788 0.95160162
-1.071875 -0.90966797 0.04870205 0.99438906
-1.0715039 -0.88644528 0.048176076 0.99444956
-1.0708789 -0.84148437 0.047180288 0.99456382
-1.0705469 -0.81966794 0.046708755 0.99461806
-1.0702343 -0.79832029 0.04625427 0.99467033
-1.0699414 -0.77735353 0.045815695 0.99472076
-1.0693749 -0.73664063 0.044984892 0.99481618
-1.0691016 -0.71681637 0.044591177 0.99486148
-1.0882422 -0.70996094 0.04501358 0.99481297
-1.1504296 -0.70997071 0.046832349 0.99460387
-1.183457 -0.70998043 0.047809523 0.99449158
-1.2179102 -0.7099902 0.048836403 0.9943735
-1.2538476 -0.70997071 0.049916267 0.99424952
-1.2914453 -0.7099902 0.05105339 0.99411887
-1.415293 -0.70997071 0.054852903 0.99368268
-1.5087304 -0.70998043 0.057765007 0.99334848
-1.5592968 -0.70996094 0.059354819 0.99316609
-1.7430859 -0.69014645 0.064946443 0.99252462
-1.7433593 -0.66504884 0.064640231 0.99255973
-1.6127148 0.70992184 0.056157339 0.99297303
-1.5593164 0.70993161 0.054602928 0.99316669
-1.50875 0.70991212 0.053140868 0.99334913
-1.4608008 0.70991212 0.051762808 0.99352109
-1.4153124 0.70991212 0.050461728 0.99368334
-1.3307421 0.70992184 0.048068959 0.99398208
-1.183457 0.70992184 0.04398201 0.99449217
-1.1504296 0.70991212 0.043083075 0.99460453
-1.0666797 0.71509767 0.040927581 0.99487376
-1.0674218 0.77547848 0.042048834 0.99473375
-1.0676953 0.79637694 0.042450216 0.9946835
-1.0679883 0.81765622 0.042866476 0.99463153
-1.0682422 0.83938473 0.043298032 0.99457771
-1.0685546 0.86155272 0.043745499 0.9945218
-1.0688672 0.88418943 0.044209518 0.99446386
-1.0691797 0.90733397 0.044691123 0.99440372
-1.0695117 0.93097657 0.045190658 0.99434143
-7.6472263 7.7439256 0.34685364 0.95737922
-7.268086 7.7397265 0.33837509 0.95839906
-6.9068356 7.7357616 0.33050552 0.95934653
-6.2314844 7.728281 0.31639206 0.96104825
-6.071445 7.7265038 0.31317183 0.96143705
-5.609961 7.7213964 0.30417168 0.96252412
-4.8951755 7.7135253 0.29115281 0.96409887
-4.4940233 7.7090917 0.28438607 0.96491855
-4.364336 7.7076559 0.28228736 0.96517289
-3.9863281 7.7034664 0.27643105 0.9658829
-3.3883398 7.6968551 0.26801339 0.96690434
-3.1588476 7.6943359 0.26507735 0.96726096
-3.0459375 7.6930857 0.2636953 0.96742892
-2.9341795 7.6918454 0.26236799 0.96759015
-2.8235741 7.6906152 0.26109505 0.96774477
-2.7139452 7.689414 0.25987625 0.967893
-2.4977343 7.6870213 0.25759178 0.96817064
-2.3910155 7.6858301 0.25652587 0.96830034
-2.1800389 7.6835155 0.25453758 0.96854198
-2.0757811 7.682363 0.25361541 0.96865416
-1.869414 7.680068 0.25190932 0.96886182
-1.767246 7.6789451 0.25112417 0.9689573
-1.5646875 7.6766992 0.24968497 0.96913236
-1.1658593 7.6723046 0.24732147 0.96942002
-0.77355468 7.6679587 0.24561653 0.96962762
-0.67621094 7.6668944 0.24529083 0.96966732
-0.57916015 7.6658201 0.2450048 0.96970218
-0.2890625 7.6626172 0.24437957 0.96977824
-0.096328124 7.6604881 0.24415824 0.9698053
0.096171871 7.6583591 0.24409042 0.96981359
0.28871092 7.6562304 0.24417579 0.96980309
0.57806641 7.6530175 0.24459648 0.96975207
0.67476559 7.6519527 0.24481353 0.96972555
0.9662109 7.6487303 0.24570206 0.96961737
1.3588672 7.6444039 0.2474459 0.96940506
1.4579687 7.6433005 0.2479834 0.96933961
1.557539 7.6422067 0.24856323 0.96926904
2.2700195 7.634326 0.25383294 0.96862781
2.3744726 7.6331735 0.25476646 0.96851426
2.4797461 7.6320214 0.25574845 0.96839488
2.5858006 7.6308594 0.2567775 0.96826965
2.6927538 7.6296582 0.25785583 0.96813858
2.8006248 7.6284862 0.25898528 0.96800131
2.9094532 7.6272655 0.26016486 0.96785796
3.0192969 7.6260643 0.26139662 0.96770817
3.1301951 7.624824 0.26268256 0.96755201
3.2422459 7.6235838 0.26402327 0.96738917
3.9408593 7.615869 0.27328634 0.96626449
4.0623045 7.6145411 0.27504921 0.96605062
4.4364061 7.6104002 0.28074461 0.96535999
10.735234 16.455235 0.62616032 0.92438239
11.062871 16.500566 0.63312697 0.92357421
11.07164 11.790088 0.51545227 0.93732285
1.3051758 0.9234277 0.050955351 0.99362195
1.3045703 0.87465817 0.050057333 0.99373394
1.3042969 0.85090816 0.049632452 0.99378693
1.3039844 0.82752925 0.049221992 0.99383831
1.3034961 0.7819531 0.048445359 0.99393517
1.3030078 0.73779297 0.047723044 0.99402535
1.5592577 0.70992184 0.054603081 0.99316692
1.6126952 0.70993161 0.056157224 0.99297309
1.7931249 0.70992184 0.061463583 0.9923116
1.9599999 0.71958005 0.066543199 0.99167889
1.9605078 0.66433591 0.065972477 0.99175
21.946991 6.2269139 0.72705609 0.9127444
1.9605078 -0.6643945 0.065972254 0.99174988
1.9602538 -0.69190431 0.066251449 0.99171519
1.7930859 -0.70997071 0.061462745 0.99231166
1.7292773 -0.70996094 0.059576642 0.99254674
1.6126952 -0.7099902 0.056156918 0.99297297
1.5592382 -0.70997071 0.054602392 0.99316692
1.4152343 -0.70997071 0.050461233 0.99368346
1.3719336 -0.70998043 0.049232025 0.99383688
1.3307031 -0.70996094 0.048068542 0.99398214
1.3027734 -0.71624023 0.047381286 0.99406791
1.3030078 -0.73785156 0.047722928 0.99402523
1.3034766 -0.78202146 0.048445281 0.99393511
1.3042969 -0.85095704 0.049632378 0.99378687
1.3045703 -0.87469727 0.050057411 0.99373382
1.3048437 -0.89886719 0.05049812 0.99367893
1.3054687 -0.94852537 0.051428717 0.99356282
9.0271482 -7.661025 0.37733275 0.95372182
9.0196095 -7.8517284 0.38109687 0.9532693
9.0683203 -8.0966501 0.38743758 0.95251226
9.0656252 -8.3012991 0.39175019 0.9519968
9.0807619 -8.967392 0.40672019 0.95020759
7.9936132 -8.952939 0.38253456 0.95310211
7.8109961 -8.9728804 0.37913689 0.95350581
6.8543553 -8.7229195 0.35355675 0.95657361
3.5164061 -4.8399611 0.19066864 0.9763422
3.4273436 -4.8442869 0.18912049 0.97653127
3.4916992 -5.0691309 0.19616935 0.97566712
5.7528515 -8.5806055 0.32923582 0.95949948
5.7430272 -8.8031054 0.33497962 0.95880789
4.1172657 -8.4717474 0.3001914 0.96300548
3.7275 -8.4674416 0.29484862 0.9636519
3.6005664 -8.4660254 0.29320082 0.96385139
3.3507812 -8.4632807 0.29009634 0.9642272
2.8660936 -8.4579201 0.28461066 0.96489161
2.7476561 -8.4566212 0.28338143 0.96504045
2.5138085 -8.4540138 0.28108984 0.96531838
2.3982422 -8.4527435 0.28002188 0.96544766
2.283535 -8.4514837 0.27900818 0.96557069
2.0564454 -8.4489841 0.27712998 0.96579832
1.9440625 -8.4477243 0.27626702 0.9659031
1.8323241 -8.4464941 0.27545157 0.96600199
1.7212499 -8.4452734 0.2746855 0.96609503
1.1739843 -8.4392385 0.27154869 0.96647549
1.0659375 -8.4380274 0.27105743 0.96653515
0.95820308 -8.4368458 0.27061141 0.96658933
0.85085934 -8.4356537 0.27020875 0.96663815
0.74378902 -8.4344625 0.26985076 0.96668172
0.63701171 -8.4332905 0.26953512 0.96671993
0.31792969 -8.4297552 0.26884758 0.96680337
0.21185547 -8.4285936 0.26870453 0.96682078
0.1058789 -8.4274216 0.26860413 0.96683306
-0.1059375 -8.4250784 0.26852858 0.96684211
-0.31773436 -8.4227438 0.2686238 0.96683055
-0.42373046 -8.4215717 0.26873565 0.96681702
-0.74246091 -8.418047 0.26932487 0.96674544
-0.84910154 -8.4168749 0.26960692 0.9667111
-0.9559375 -8.4156933 0.26993316 0.96667159
-1.1704882 -8.4133205 0.27071455 0.9665767
-1.2782812 -8.4120998 0.27117142 0.96652126
-1.3864453 -8.4109278 0.27167365 0.96646029
-1.4950196 -8.4097261 0.27222008 0.96639401
-1.8236718 -8.4061031 0.27413443 0.96616173
-1.9343359 -8.4048824 0.27486649 0.96607298
-2.0455663 -8.4036522 0.27564514 0.9659785
-2.1574218 -8.4023924 0.27647093 0.96587831
-2.2700195 -8.4011526 0.27734777 0.96577209
-2.3833594 -8.3999119 0.27827215 0.9656598
-2.4974217 -8.3986521 0.27924812 0.96554148
-2.6123438 -8.3973923 0.28027549 0.96541691
-2.7281249 -8.3960934 0.28135505 0.96528614
-2.9624803 -8.3934956 0.28367355 0.9650051
-3.3217382 -8.3895502 0.28756925 0.96453303
-3.9446678 -8.3826466 0.29525679 0.96360248
-4.0733981 -8.3812399 0.296985 0.96339321
-4.2036915 -8.3797846 0.29878324 0.96317583
-4.3355665 -8.3783197 0.30065048 0.96295011
-4.6044726 -8.3753805 0.30460128 0.96247238
-4.741621 -8.373847 0.30668831 0.96222019
-4.8806834 -8.372324 0.30885321 0.96195847
-5.3102732 -8.3675585 0.31584305 0.9611147
-5.6079493 -8.3642769 0.32093909 0.96049976
-6.3976169 -8.355547 0.33538276 0.95875907
-6.5643358 -8.3537111 0.33859527 0.95837259
-6.7342968 -8.3518257 0.34192297 0.95797235
-6.9076953 -8.3499022 0.34536934 0.95755762
-7.0846286 -8.3479586 0.34894317 0.95712793
-7.2653122 -8.3459568 0.3526496 0.95668274
-8.8203907 -8.7101955 0.39506897 0.95160031
-8.7388277 -8.4153509 0.38664681 0.95260721
-8.8903122 -8.348506 0.3886759 0.95236439
-9.3522654 -8.3500881 0.39956939 0.95106256
-1.0695312 -0.93103516 0.045190621 0.99434119
-1.0691992 -0.90737301 0.04469116 0.9944036
-1.0688672 -0.88426757 0.044209745 0.99446362
-1.0677148 -0.79643553 0.042450409 0.99468333
-1.0674218 -0.77554685 0.042048644 0.99473357
-1.067168 -0.75502926 0.041661415 0.99478197
-1.0669141 -0.7349121 0.041287839 0.99482864
-1.0882422 -0.70996094 0.04140991 0.99481344
-1.1187109 -0.70998043 0.042226449 0.9947114
-1.2179102 -0.7099902 0.044926718 0.99437404
-1.3307421 -0.70998043 0.04806881 0.99398196
-1.3720117 -0.70998043 0.049232293 0.99383664
-1.415293 -0.70997071 0.050461728 0.99368328
-1.4608203 -0.70997071 0.05176235 0.99352098
-1.6127539 -0.70998043 0.056157455 0.99297279
-1.6693358 -0.70997071 0.05781227 0.99276644
-1.7476171 -0.69194335 0.059902687 0.99250597
-20.468525 4.4403806 0.60942692 0.91960233
-1.7524219 0.66843748 0.054573402 0.9925226
-1.4608008 0.70991212 0.047258947 0.99352169
-1.3307421 0.70992184 0.043886449 0.99398255
-1.2178906 0.70992184 0.041017797 0.99437469
-1.1187109 0.70992184 0.038552511 0.994712
-1.0882422 0.70991212 0.037807044 0.99481398
-1.0649219 0.77367187 0.038300056 0.99474645
-1.0651562 0.79448241 0.038665123 0.99469656
-1.0657032 0.83735347 0.039435234 0.99459112
-8.2535934 7.7506442 0.32944319 0.95570278
-8.0460939 7.7483397 0.32502264 0.95628411
-7.8440623 7.7461033 0.32076949 0.95684373
-7.4553123 7.7417965 0.31273094 0.95790207
-7.268086 7.7397265 0.30893326 0.95840251
-6.9068356 7.7357516 0.30174971 0.95934993
-6.7324219 7.7338181 0.29834977 0.95979846
-6.3948827 7.7300973 0.29191154 0.96064866
-6.071445 7.7265038 0.28592277 0.96144021
-5.609961 7.721416 0.27770674 0.96252716
-5.3164845 7.718164 0.27269766 0.96319056
-5.0332618 7.7150292 0.2680316 0.96380877
-4.7593751 7.7120113 0.26368758 0.96438479
-4.6256638 7.7105269 0.26162842 0.96465802
-4.2365818 7.7062206 0.25587776 0.96542108
-4.1105857 7.7048435 0.25409728 0.96565765
-3.9863281 7.7034664 0.25237885 0.9658857
-3.7426562 7.7007809 0.24912994 0.96631742
-3.6231248 7.6994529 0.24759574 0.9665215
-3.5050781 7.698154 0.24611603 0.9667179
-3.158828 7.6943359 0.24201393 0.9672637
-2.9341795 7.6918454 0.23953941 0.96759284
-2.7139258 7.6894336 0.23726456 0.96789563
-2.3909764 7.6858497 0.23420569 0.96830297
-2.0757616 7.6823826 0.23154831 0.96865672
-1.9722265 7.681211 0.2307495 0.96876335
-1.767246 7.6789646 0.22927383 0.96895981
-1.4642578 7.6756148 0.22736388 0.9692145
-1.3642968 7.6745114 0.22680473 0.96928895
-1.2648437 7.673408 0.22628494 0.96935827
-1.1658202 7.6723242 0.22580299 0.96942252
-1.0672265 7.6712303 0.22535796 0.96948183
-0.87109375 7.6690426 0.22457977 0.9695856
-0.48226562 7.6647654 0.22346169 0.96973473
-0.2890625 7.6626172 0.22311698 0.96978074
0.096191406 7.6583591 0.22285202 0.96981609
0.1924414 7.6573043 0.22287345 0.96981317
0.77171874 7.650908 0.22374618 0.9696967
0.86882812 7.6498337 0.2240168 0.9696607
1.0638672 7.6476951 0.22466575 0.96957403
1.1618359 7.6465816 0.22504531 0.96952361
1.4580078 7.6433201 0.22640732 0.96934205
1.557539 7.6422262 0.22693573 0.96927148
1.6576171 7.6411133 0.22750388 0.96919584
1.758164 7.6399999 0.22811073 0.96911496
1.9610156 7.6377831 0.22944328 0.96893728
2.2700586 7.6343455 0.2317479 0.96863031
2.3744726 7.633193 0.23260017 0.96851677
2.4797461 7.632041 0.23349579 0.96839744
2.6927538 7.6296778 0.2354206 0.9681412
2.800586 7.6284862 0.23645103 0.96800399
3.019336 7.6260643 0.23865341 0.96771079
3.1302342 7.6248436 0.23982765 0.96755463
3.5855467 7.6198044 0.24503227 0.9668622
3.7025585 7.6185055 0.24646872 0.96667141
3.8210156 7.6172071 0.24795929 0.96647304
3.9408593 7.615869 0.24950859 0.96626729
4.0623045 7.6145411 0.25111723 0.96605343
4.1852927 7.6131639 0.25278792 0.9658317
11.107851 16.567696 0.58039206 0.92328179
11.07164 11.790088 0.47060469 0.93732798
1.3018554 0.89674801 0.045998078 0.99369401
1.3010937 0.82567382 0.044838674 0.9938525
1.3003711 0.75804687 0.043798178 0.99399477
1.3001562 0.73618162 0.043475837 0.99403888
1.2999609 0.71466798 0.043165244 0.99408126
1.3307031 0.70991212 0.043886259 0.99398273
1.4152734 0.70992184 0.046071127 0.99368393
1.5086719 0.70992184 0.048516616 0.99334997
1.5592577 0.70992184 0.049852103 0.99316752
1.6126952 0.70993161 0.051271208 0.99297363
1.7931249 0.70992184 0.056115303 0.99231225
1.9648438 0.66580075 0.060364418 0.99173254
21.690722 6.4497948 0.65844625 0.91342348
22.207558 6.000361 0.66934294 0.91205537
1.9647266 -0.69347656 0.060624428 0.99169707
1.8610547 -0.70997071 0.057959326 0.99206078
1.7930859 -0.70997071 0.056115225 0.99231231
1.5592382 -0.70997071 0.049851876 0.99316746
1.5086914 -0.70998043 0.048516538 0.99334979
1.4607812 -0.70997071 0.047258377 0.99352163
1.3719336 -0.70998043 0.0449485 0.99383742
1.3307031 -0.70996094 0.043886032 0.99398261
1.2999609 -0.71470702 0.043165319 0.99408114
1.3006054 -0.78027344 0.044132423 0.993949
1.3008593 -0.80284178 0.044479027 0.99390143
1.3021485 -0.92132813 0.046413343 0.99363708
1.3024218 -0.94630855 0.046843987 0.99357837
9.0656252 -8.3013182 0.35766295 0.95200074
9.0599804 -8.7247267 0.36597961 0.95091271
9.0487499 -8.9358006 0.37003401 0.95038271
7.9935741 -8.952939 0.34926039 0.95310611
7.8109961 -8.9728804 0.34614792 0.95350969
7.6126561 -8.9702635 0.34232801 0.95401067
3.5149608 -4.8379979 0.17400306 0.9763537
5.7528515 -8.580615 0.30059028 0.95950276
5.7430468 -8.8031054 0.30583182 0.95881122
5.7029686 -8.9865131 0.3096894 0.9583028
4.2504101 -8.4732227 0.27582785 0.9627763
4.1172657 -8.4717474 0.27407265 0.96300858
3.9857812 -8.4703026 0.27238494 0.96323222
3.8558397 -8.4688473 0.2707586 0.96344775
3.7275 -8.4674416 0.26919502 0.96365494
3.6005664 -8.4660254 0.26768944 0.96385437
3.3507812 -8.4632807 0.2648561 0.96423012
3.1061327 -8.4605665 0.26224479 0.96457648
2.9855468 -8.4592285 0.26102012 0.96473902
2.7476561 -8.4566212 0.25872529 0.96504337
2.5138085 -8.4540138 0.25663215 0.9653213
2.3982422 -8.4527435 0.25565818 0.96545058
2.283535 -8.4514837 0.25473174 0.96557355
2.1696093 -8.4502344 0.25385186 0.96569037
1.9440625 -8.4477243 0.25222901 0.96590596
1.8323241 -8.4464941 0.25148553 0.96600485
1.3914062 -8.4416409 0.24894042 0.96634281
1.2824805 -8.4404202 0.24841064 0.96641332
0.85087889 -8.4356642 0.24669807 0.96664089
0.53042966 -8.4321194 0.24583419 0.96675569
0.42410156 -8.4309273 0.24562553 0.96678352
0.31792969 -8.4297552 0.24545524 0.96680611
0.21185547 -8.4285936 0.24532455 0.96682352
0.1058789 -8.4274216 0.245233 0.9668358
-0.5298242 -8.4204006 0.24549384 0.96680111
-0.74246091 -8.418047 0.24589096 0.96674818
-0.84910154 -8.4168749 0.24614936 0.96671391
-0.9559375 -8.4156933 0.2464463 0.96667439
-1.1704882 -8.4133205 0.24716072 0.96657944
-1.3864453 -8.4109278 0.24803641 0.96646309
-1.9343359 -8.4048824 0.25095055 0.96607578
-2.1574218 -8.4023924 0.25241515 0.96588117
-2.2700391 -8.4011526 0.25321594 0.96577489
-2.3833594 -8.3999119 0.25406075 0.96566266
-3.2008593 -8.3908787 0.26131096 0.96470022
-3.3217382 -8.3895502 0.26254898 0.96453595
-3.4437304 -8.3881931 0.26383987 0.96436477
-3.5669725 -8.3868361 0.26518568 0.96418619
-3.8173828 -8.3840723 0.26804802 0.96380675
-4.2036915 -8.3797846 0.27278748 0.96317887
-4.3355665 -8.3783197 0.27449197 0.96295315
-4.6044726 -8.3753805 0.27809921 0.96247548
-5.0217772 -8.3707619 0.28403229 0.96169037
-5.3102927 -8.367568 0.2883625 0.96111786
-5.4579296 -8.3659277 0.29064673 0.96081591
-5.7604294 -8.3625975 0.29546776 0.96017903
-5.9155078 -8.3608885 0.29801124 0.95984334
-6.0732813 -8.3591309 0.30064446 0.95949578
-6.2339649 -8.3573532 0.30337456 0.95913559
-6.5643358 -8.3537207 0.30913407 0.95837599
-6.7342968 -8.3518362 0.31217253 0.9579758
-6.9076953 -8.3499022 0.31532019 0.95756114
-7.084609 -8.3479681 0.31858313 0.95713151
-7.2653513 -8.3459568 0.32196707 0.9566862
-7.4498825 -8.3439064 0.32547432 0.95622498
-7.8315625 -8.3397064 0.33288306 0.95525092
-8.2312498 -8.3352833 0.34085906 0.95420384
-8.8687496 -8.3282518 0.35399824 0.95248103
-1.0671484 -0.95280272 0.04162544 0.99429148
-1.0668359 -0.92869139 0.041154519 0.99435586
-1.065957 -0.85949218 0.039841995 0.99453545
-1.0657032 -0.83741212 0.039435118 0.994591
-1.0649219 -0.77371091 0.038300171 0.99474639
-1.0646875 -0.75328124 0.037948113 0.99479449
-1.0642577 -0.71353513 0.037281189 0.99488568
-1.183457 -0.70998043 0.04015518 0.99449253
-1.2538476 -0.70997071 0.041924704 0.99425054
-1.2914453 -0.7099902 0.04287979 0.99411988
-1.3720117 -0.70998043 0.044948768 0.99383718
-1.415293 -0.70997071 0.046071012 0.99368382
-1.4608203 -0.70997071 0.04725872 0.99352151
-1.5087304 -0.70998043 0.048516806 0.99334967
-1.5592968 -0.70996094 0.049852256 0.99316728
-1.7519531 -0.71924806 0.055104177 0.99245006
-1.7524219 -0.66850585 0.054573555 0.99252254
-20.468252 4.4403319 0.5513519 0.91960925
-21.768652 7.9920797 0.61045015 0.91138518
-1.7569921 0.67017579 0.049501989 0.99250376
-1.7565234 0.72109371 0.049984742 0.99243104
-1.6127148 0.70992184 0.046386145 0.99297416
-1.5593164 0.70993161 0.045102272 0.99316776
-1.50875 0.70991212 0.043894041 0.99335021
-1.4608008 0.70991212 0.042755775 0.99352217
-1.3307421 0.70992184 0.039704703 0.99398303
-1.2538671 0.70992184 0.037930105 0.99425101
-1.2178906 0.70992184 0.037109487 0.99437511
-1.1187109 0.70992184 0.034878958 0.99471235
-1.0882422 0.70991212 0.034204599 0.9948144
-1.0619922 0.7315039 0.033947144 0.99485332
-1.062207 0.75149411 0.034252625 0.99480706
-1.0624413 0.77185547 0.034569625 0.99475908
-1.0626172 0.79260743 0.034898262 0.99470955
-1.0631055 0.83533204 0.035591543 0.99460465
-1.0636133 0.87984371 0.036337469 0.99449188
-1.0638672 0.90282226 0.036731184 0.99443239
-8.4667969 7.7529688 0.30221099 0.95510238
-7.4553123 7.7417965 0.28293321 0.95790523
-6.7324219 7.7338181 0.26992217 0.95980144
-6.3948827 7.7300973 0.26409644 0.96065158
-6.2314844 7.728281 0.26133895 0.96105438
-6.071445 7.7265038 0.25867951 0.96144313
-5.9145899 7.7247849 0.25611252 0.96181828
-5.3164845 7.718164 0.2467144 0.9631933
-5.1736717 7.7165918 0.24456543 0.96350777
-5.0332227 7.7150488 0.2424929 0.96381152
-4.759336 7.7120309 0.23856185 0.96438754
-4.1105857 7.7048631 0.22988532 0.96566015
-3.6231248 7.6994724 0.2240023 0.966524
-3.505039 7.6981735 0.22266632 0.9667204
-3.3883202 7.6968746 0.22137938 0.96690953
-2.9341795 7.6918454 0.2167154 0.96759528
-2.8235352 7.6906347 0.21566398 0.96774983
-2.6053514 7.6882224 0.21369269 0.96803993
-2.4976952 7.6870408 0.2127703 0.96817565
-2.3909764 7.6858497 0.2118891 0.96830535
-2.1800585 7.6835055 0.21024863 0.96854699
-2.0757811 7.682373 0.20948577 0.9686591
-1.9722265 7.681211 0.20876235 0.96876574
-1.7672266 7.6789551 0.20742705 0.96896219
-1.4642383 7.6756148 0.20569915 0.96921682
-1.0672461 7.6712203 0.20388435 0.96948415
-0.96902341 7.6701365 0.20351608 0.96953845
-0.67621094 7.666904 0.2026097 0.96967208
-0.38558593 7.6636815 0.2019973 0.96976244
-0.28904295 7.6626072 0.20185691 0.96978307
-0.19261718 7.6615524 0.20174873 0.96979892
-0.096308589 7.6604781 0.20167327 0.96981013
-3.9062499e-05 7.6594238 0.20162886 0.96981657
0.67478514 7.6519723 0.20221573 0.96973026
0.86880857 7.6498241 0.20267189 0.96966302
0.9662109 7.6487498 0.20294853 0.96962214
1.0638866 7.6476855 0.20325896 0.96957636
1.1618555 7.6465721 0.20360237 0.96952593
1.3588672 7.6444139 0.20438896 0.96940988
1.8592968 7.6388865 0.20696068 0.96903116
2.1663282 7.635498 0.20893295 0.96874052
2.9094532 7.627285 0.21489456 0.96786296
3.4698436 7.6210837 0.22043578 0.96704829
3.5855467 7.6198239 0.22168487 0.96686465
3.7025585 7.618525 0.22298363 0.96667385
3.8209765 7.6172071 0.22433296 0.96647567
3.9408984 7.6158886 0.22573471 0.96626967
4.0623045 7.6145411 0.22719002 0.96605599
4.1852927 7.6131835 0.22870064 0.9658342
4.3099999 7.6118164 0.23026878 0.96560401
4.4364061 7.6104198 0.23189354 0.96536541
10.734882 16.454737 0.51719391 0.92439634
11.034062 16.457607 0.52159947 0.92377722
1.2993749 0.9440527 0.042281225 0.99359393
1.2988671 0.89468747 0.041519545 0.99370891
1.2983594 0.84704101 0.040811043 0.99381614
1.298164 0.8238281 0.040475197 0.99386674
1.2979492 0.80098629 0.040151518 0.99391568
1.2977539 0.77851564 0.039839208 0.99396276
1.297539 0.7563867 0.039538231 0.9940083
1.2973437 0.73460937 0.03924774 0.99405211
1.3307031 0.70991212 0.039704587 0.99398315
1.3719531 0.70992184 0.040665664 0.99383795
1.4152734 0.70992184 0.0416811 0.99368447
1.4607617 0.70992184 0.042755544 0.99352229
1.6692773 0.70992184 0.047752455 0.99276787
1.7292968 0.70992184 0.049210243 0.99254793
1.8611132 0.70993161 0.052436866 0.99206126
1.9666601 0.72202146 0.055151097 0.99165207
1.9668359 0.66649413 0.054668732 0.99172479
21.690742 6.4497948 0.59570545 0.91342974
21.947031 6.2269235 0.60054684 0.91275769
22.207577 6.000361 0.60556608 0.91206175
1.9668359 -0.66653317 0.054668996 0.99172473
1.9667578 -0.69418943 0.054904442 0.99168915
1.8610547 -0.70997071 0.05243656 0.99206138
1.7930859 -0.70997071 0.050768469 0.99231291
1.7292773 -0.70996094 0.049210507 0.99254793
1.6126952 -0.7099902 0.046385575 0.9929741
1.4152343 -0.70997071 0.0416811 0.99368447
1.3719336 -0.70998043 0.040665589 0.99383789
1.2973437 -0.73464841 0.03924774 0.99405205
1.297539 -0.75642574 0.039538231 0.99400824
1.298164 -0.82387692 0.040475272 0.99386662
1.2986327 -0.87071288 0.041158982 0.99376327
1.2991016 -0.91918945 0.041893385 0.9936524
9.0683203 -8.0966597 0.32001984 0.95251971
9.0656252 -8.3013182 0.32358277 0.95200431
9.0628319 -8.5105858 0.32727364 0.9514702
9.0487499 -8.9358006 0.33477515 0.9503864
7.9935937 -8.9529486 0.31596786 0.95310956
3.613203 -4.8439746 0.15908095 0.97610915
3.4859765 -5.0608301 0.16176948 0.97571039
5.752871 -8.5806246 0.27194962 0.95950574
5.7430468 -8.8031054 0.2766912 0.95881432
5.7029686 -8.9865131 0.28018174 0.9583059
3.8558397 -8.4688473 0.24495979 0.96345049
3.7275 -8.4674416 0.24354438 0.96365768
3.2278905 -8.4619141 0.23841338 0.96440953
3.1061327 -8.4605665 0.23725623 0.96457916
2.8661132 -8.4579 0.23508766 0.96489722
2.7476952 -8.4566011 0.2340721 0.96504605
2.2834961 -8.4514837 0.23046035 0.96557617
2.0564842 -8.4489651 0.22890976 0.96580374
1.944082 -8.4477243 0.22819702 0.96590853
1.8323437 -8.4464941 0.22752234 0.96600735
1.6107616 -8.4440231 0.22629479 0.96618783
1.5008203 -8.442812 0.2257386 0.96626943
1.3914062 -8.4416208 0.22521956 0.96634543
1.2825 -8.4404001 0.22474059 0.96641594
1.0659375 -8.4380074 0.22389282 0.96654052
0.63703126 -8.4332619 0.22263542 0.96672535
0.42410156 -8.4309082 0.22222175 0.96678615
0.31789061 -8.4297552 0.22206764 0.96680868
0.1058789 -8.4274216 0.22186568 0.9668383
-0.1059375 -8.4250584 0.22180404 0.96684742
-0.21183594 -8.4238863 0.22182631 0.96684426
-0.31773436 -8.4227247 0.2218827 0.96683586
-0.42373046 -8.4215527 0.2219741 0.96682233
-0.8490625 -8.4168549 0.22269469 0.96671647
-0.9558984 -8.4156733 0.22296432 0.96667695
-1.2782812 -8.4120998 0.22398689 0.96652663
-1.8236718 -8.4060841 0.22643447 0.96616715
-2.0455272 -8.4036322 0.2276815 0.96598399
-2.1574218 -8.4023924 0.22836441 0.96588373
-2.2700195 -8.4011326 0.22908889 0.96577758
-2.3833399 -8.3999119 0.2298532 0.96566522
-2.6123438 -8.3973732 0.23150696 0.96542245
-2.7281249 -8.3960934 0.23239875 0.96529162
-3.0811131 -8.3921967 0.23534088 0.9648602
-3.3217382 -8.3895311 0.23753181 0.96453869
-3.4437108 -8.3881741 0.23870055 0.96436751
-3.5669336 -8.386816 0.23991805 0.96418905
-3.8173633 -8.3840523 0.24250679 0.96380955
-4.0733981 -8.3812399 0.24531005 0.96339899
-4.2036915 -8.3797846 0.24679451 0.96318167
-4.3355665 -8.3783197 0.2483355 0.96295595
-4.4691405 -8.3768749 0.24993797 0.96272153
-4.6044726 -8.3753805 0.2515991 0.96247834
-4.8806834 -8.372324 0.2551133 0.96196449
-5.0217772 -8.3707619 0.25696784 0.96169329
-5.4579296 -8.3659277 0.26295325 0.96081889
-5.6079493 -8.3642673 0.26509407 0.96050608
-5.9155078 -8.3608885 0.26961464 0.95984638
-6.3975973 -8.355547 0.2770282 0.95876563
-6.5643358 -8.3537207 0.27967909 0.95837915
-6.9076953 -8.3499022 0.28527457 0.95756429
-7.4499021 -8.343935 0.29446083 0.95622814
-7.6385937 -8.341836 0.29775169 0.95574999
-8.2312307 -8.3352928 0.30837983 0.9542073
-8.4384174 -8.3329878 0.31219468 0.95365429
-8.6508198 -8.3306446 0.31615454 0.95308042
-8.8687496 -8.3282318 0.32026747 0.95248467
-9.0924025 -8.3257618 0.32454008 0.95186621
-1.0628515 -0.81381834 0.035238724 0.99465793
-1.0626172 -0.79265624 0.03489811 0.99470943
-1.0624218 -0.77191406 0.03456955 0.99475902
-1.0622265 -0.75153321 0.034252699 0.99480695
-1.1187109 -0.70998043 0.034878958 0.99471223
-1.183457 -0.70998043 0.036329038 0.99449295
-1.3720117 -0.70998043 0.040665779 0.99383759
-1.415293 -0.70997071 0.041681137 0.99368429
-1.5087695 -0.70998043 0.043893967 0.99335003
-1.5592968 -0.70996094 0.045101967 0.99316782
-1.6693358 -0.70997071 0.047752533 0.99276763
-1.7567577 -0.69556642 0.049738389 0.99246812
-20.467978 4.4402733 0.49328423 0.91961563
-22.541836 7.9559374 0.56301457 0.90878654
-1.7615625 0.67194337 0.044404984 0.99248481
-1.6127539 0.70992184 0.041501198 0.99297446
-1.4608008 0.70991212 0.038253594 0.99352258
-1.4153124 0.70991212 0.03729225 0.99368477
-1.3720312 0.70992184 0.036383551 0.99383807
-1.3307421 0.70992184 0.035523489 0.99398345
-1.2914063 0.70991212 0.034708861 0.99412102
-1.2179102 0.70992184 0.033201713 0.99437547
-1.1187109 0.70992184 0.031206168 0.99471277
-1.0882422 0.70991212 0.030602608 0.99481475
-1.0593749 0.71026367 0.030040091 0.99490982
-1.0597656 0.74974608 0.030574875 0.9948194
-1.0599414 0.77005857 0.030857086 0.99477172
-1.0601562 0.79074216 0.031149559 0.99472219
-1.0607812 0.8552832 0.032093164 0.9945628
-8.2535934 7.7506347 0.26666617 0.9557091
-7.4553123 7.7417965 0.25313851 0.95790803
-7.2681251 7.7397361 0.25006455 0.9584083
-6.7323828 7.7338376 0.24149787 0.95980424
-6.5617967 7.7319531 0.23884407 0.96023685
-6.3948827 7.7300973 0.23628646 0.96065426
-6.0714254 7.7265234 0.23143867 0.96144575
-5.7608204 7.7230954 0.22692695 0.96218294
-5.609961 7.721416 0.22478843 0.96253252
-5.461875 7.7197948 0.22272399 0.96287
-5.3164649 7.7181835 0.22073279 0.9631958
-5.0332227 7.7150488 0.21695678 0.96381396
-4.759336 7.7120309 0.2134397 0.96438992
-4.3643751 7.7076464 0.2086148 0.96518075
-3.8636913 7.7021289 0.20294838 0.96611041
-3.7426171 7.7007909 0.20165771 0.9663223
-3.6231053 7.6994629 0.20041434 0.96652633
-3.505039 7.698164 0.19921836 0.96672273
-3.3883202 7.6968651 0.19806786 0.96691179
-3.2729688 7.6955957 0.19696029 0.96709359
-3.0459375 7.6930957 0.19487496 0.96743625
-2.9341795 7.6918554 0.19389488 0.96759748
-2.8235157 7.6906247 0.19295394 0.9677521
-2.0757811 7.682373 0.18742652 0.96866125
-1.9722265 7.681211 0.18677826 0.96876788
-1.6656445 7.6778316 0.18503693 0.96905452
-1.5646679 7.6767087 0.18452187 0.96913934
-1.0672461 7.6712203 0.18241569 0.96948624
-0.96902341 7.6701365 0.18208519 0.96954054
-0.67621094 7.666904 0.1812754 0.96967411
-0.48226562 7.6647558 0.18088004 0.96973914
-0.19265625 7.6615524 0.18050422 0.96980101
0.096210934 7.6583495 0.18038642 0.96982044
0.19246094 7.6572948 0.18040466 0.96981752
0.28871092 7.65624 0.18045028 0.96980989
0.38505858 7.6551657 0.18052459 0.96979761
0.4815039 7.6540918 0.18062919 0.96978062
0.77171874 7.6508985 0.18111092 0.96970111
0.9662109 7.6487498 0.18157761 0.96962422
1.1618359 7.6465917 0.18216248 0.96952796
1.3588672 7.6444139 0.18286529 0.96941197
1.4580078 7.6433105 0.18326332 0.96934652
1.5575585 7.6422167 0.18369208 0.96927595
1.8592968 7.6388865 0.18516517 0.96903324
1.9610156 7.637773 0.18572181 0.96894175
2.1663282 7.635498 0.18693161 0.96874267
2.2700391 7.634336 0.18758713 0.96863484
2.3744922 7.6331835 0.18827698 0.9685213
2.4797657 7.632031 0.18900192 0.96840197
2.5858202 7.6308494 0.18976226 0.96827686
2.8006053 7.6284766 0.19139495 0.96800864
2.9094532 7.627275 0.19226554 0.96786523
3.3554296 7.6223536 0.19614922 0.96722698
3.5855467 7.6198144 0.19834106 0.96686691
3.7025781 7.6185155 0.19950187 0.96667612
4.3099999 7.6118064 0.20602004 0.96560639
4.4364061 7.6104102 0.20747444 0.96536779
10.734941 16.454834 0.46273261 0.92440093
11.07166 11.790127 0.38092849 0.93733668
1.2960937 0.91701168 0.037395209 0.9936676
1.2952343 0.82198238 0.036132202 0.99388093
1.2950586 0.79920894 0.035843659 0.99392956
1.2943749 0.71157223 0.034789503 0.99410748
1.3307031 0.70991212 0.035523377 0.99398357
1.5592577 0.70992184 0.040352438 0.99316847
1.9687109 0.72277343 0.049394719 0.99164402
1.9687694 0.69484371 0.04917362 0.99168134
1.9688672 0.66716796 0.048962288 0.99171686
21.690742 6.4497752 0.53297651 0.91343546
22.207577 6.0003514 0.54179615 0.91206753
1.7292773 -0.70996094 0.044028167 0.99254847
1.6692578 -0.70998043 0.042724036 0.99276835
1.6126952 -0.7099902 0.041501008 0.99297458
1.5086914 -0.70998043 0.039271392 0.99335074
1.4152343 -0.70997071 0.037291907 0.99368495
1.3719336 -0.70998043 0.036383513 0.99383831
1.294336 -0.71163082 0.034789581 0.99410754
1.2952734 -0.82203126 0.036132123 0.99388069
1.2954491 -0.84517574 0.036431123 0.99383032
1.2956641 -0.86873043 0.036741026 0.99377793
1.2958984 -0.89268553 0.037062302 0.99372363
1.2963476 -0.94190425 0.037740324 0.99360913
9.0271482 -7.6610351 0.27885589 0.95373219
9.0683393 -8.0966702 0.28632164 0.95252281
9.0599995 -8.7247458 0.29623765 0.95091963
7.810957 -8.9729099 0.28018782 0.9535163
7.6126561 -8.970273 0.27709618 0.95401722
7.4186521 -8.9676952 0.27411482 0.9545005
7.2287498 -8.9651556 0.27123916 0.9549669
7.0427537 -8.9626951 0.26846617 0.95541698
3.6119139 -4.8422656 0.14227547 0.97611916
3.4273436 -4.8442869 0.13976288 0.97653657
3.483789 -5.0576267 0.14465225 0.97572714
5.7029881 -8.9865332 0.25067702 0.95830864
3.9858007 -8.4702826 0.22047919 0.96323752
3.6005468 -8.4660254 0.2166806 0.96385956
3.1061327 -8.4605665 0.21227257 0.96458155
2.8661327 -8.4579 0.21033157 0.9648996
2.7477148 -8.4566011 0.20942505 0.96504837
2.6302538 -8.4553127 0.20855689 0.96519059
2.5138085 -8.4540234 0.20772949 0.96532619
2.283535 -8.4514742 0.20619239 0.9655785
2.1696484 -8.4502249 0.2054792 0.96569526
1.8323437 -8.4465036 0.20356376 0.96600962
1.6107616 -8.4440231 0.20246445 0.9661901
1.5008203 -8.4428225 0.20196693 0.9662717
1.3914062 -8.4416304 0.20150436 0.96634763
1.0659375 -8.4380178 0.20031631 0.96654278
0.95824218 -8.4368353 0.19998612 0.9665969
0.85087889 -8.4356346 0.19968933 0.96664578
0.63703126 -8.4332619 0.19919051 0.96672761
0.42412108 -8.4309082 0.19882141 0.96678841
-7.8124998e-05 -8.4262304 0.19845887 0.96684772
-0.1059375 -8.4250584 0.1984475 0.96684968
-0.52980465 -8.4203806 0.19871375 0.96680593
-0.63605469 -8.4192085 0.19885863 0.96678209
-0.74246091 -8.4180269 0.19903511 0.96675307
-0.8490625 -8.4168653 0.19924438 0.96671873
-0.9558984 -8.4156733 0.1994857 0.96667922
-1.0630468 -8.4144917 0.19975814 0.96663439
-1.1704882 -8.4133101 0.20006309 0.96658427
-1.2782812 -8.4121094 0.20040046 0.96652883
-1.3864453 -8.4109373 0.2007708 0.96646786
-1.495 -8.4097166 0.20117569 0.96640164
-1.6040429 -8.408515 0.20161277 0.96632981
-1.7135937 -8.4073048 0.20208503 0.96625245
-2.0455077 -8.4036427 0.20370597 0.96598631
-2.27 -8.4011421 0.20496437 0.9657799
-2.4974217 -8.3986425 0.20636955 0.96554929
-2.6123438 -8.3973732 0.20712775 0.96542478
-2.7281249 -8.3960934 0.20792556 0.965294
-2.9624608 -8.3935061 0.20963997 0.96501297
-3.0811327 -8.3922071 0.21055816 0.96486253
-3.2008593 -8.3908596 0.21151672 0.96470535
-3.3217382 -8.3895311 0.21251808 0.96454114
-3.4437304 -8.3881741 0.21356368 0.96436995
-3.5669725 -8.386816 0.21465439 0.96419144
-3.8173633 -8.3840523 0.21697006 0.96381199
-3.9446287 -8.3826466 0.21819915 0.96361077
-4.0733981 -8.3812208 0.21947829 0.96340156
-4.2036915 -8.3797655 0.22080673 0.96318424
-4.3355665 -8.3783007 0.22218513 0.96295851
-4.741621 -8.373847 0.22664833 0.96222872
-4.8806834 -8.3723049 0.22824912 0.96196717
-5.0217772 -8.3707418 0.22990753 0.96169591
-5.4579296 -8.3659077 0.23526405 0.96082157
-5.9154882 -8.3608694 0.24122398 0.95984918
-6.0733204 -8.3591499 0.24335524 0.95950145
-6.3975973 -8.355547 0.24785407 0.95876837
-6.5643358 -8.3537207 0.2502282 0.95838195
-6.7342968 -8.3518362 0.25268662 0.95798182
-6.9077148 -8.3499022 0.25523421 0.95756716
-7.084609 -8.3479681 0.25787544 0.95713764
-7.6385937 -8.341836 0.26639631 0.95575297
-7.8315625 -8.3397064 0.26945037 0.9552573
-8.0290623 -8.3375092 0.27262008 0.95474333
-8.2312307 -8.3352928 0.27590683 0.95421034
-8.4384174 -8.3329878 0.27931997 0.95365739
-8.8687305 -8.3282318 0.28654236 0.95248789
-1.06125 -0.90063477 0.032781638 0.99444634
-1.0610156 -0.87772459 0.032431107 0.99450558
-1.0607812 -0.85533202 0.032093275 0.99456269
-1.059961 -0.77009761 0.0308572 0.99477154
-1.0595703 -0.72986329 0.03030262 0.9948653
-1.0593749 -0.71026367 0.030040016 0.99490982
-1.1187109 -0.70998043 0.031206168 0.99471259
-1.1504296 -0.70997071 0.031839371 0.99460566
-1.183457 -0.70998043 0.032503434 0.99449331
-1.2538476 -0.70997071 0.03393589 0.99425137
-1.3307421 -0.70998043 0.03552372 0.99398333
-1.415293 -0.70997071 0.037292022 0.99368471
-1.4608203 -0.70997071 0.03825321 0.99352241
-1.5592968 -0.70996094 0.04035259 0.99316829
-1.6127539 -0.70998043 0.04150131 0.9929744
-1.761582 -0.67198241 0.044404943 0.99248469
-20.467686 4.4402246 0.43522543 0.91962141
-1.7648828 0.67319334 0.039252434 0.99247122
-1.7648437 0.69871092 0.039443891 0.99243462
-1.7648046 0.72446287 0.039643593 0.99239653
-1.6127539 0.70992184 0.036617242 0.99297488
-1.5593164 0.70993161 0.035603981 0.99316865
-1.50875 0.70991212 0.034650419 0.99335104
-1.3307421 0.70992184 0.031343192 0.99398381
-1.2914063 0.70991212 0.030624237 0.99412137
-1.1504296 0.70993161 0.028092308 0.99460602
-1.1187109 0.70994139 0.027533911 0.99471301
-1.0882422 0.70993161 0.027001152 0.99481505
-1.0576562 0.78888673 0.027419357 0.99473494
-1.0578125 0.80990231 0.027685508 0.99468398
-1.0580078 0.83133787 0.027961425 0.99463111
-1.0581836 0.85322261 0.02824791 0.99457633
-1.0585938 0.89834958 0.02885231 0.99446058
-1.0588086 0.92167968 0.029171446 0.99439943
-1.0590625 0.94552732 0.02950264 0.99433595
-7.8440623 7.7461228 0.22908759 0.95685244
-7.6472263 7.7439256 0.22616401 0.95739138
