# .PCD v0.7 - Point Cloud Data file format
VERSION 0.7
FIELDS x y z intensity
SIZE 4 4 4 4
TYPE F F F F
COUNT 1 1 1 1
WIDTH 1102
HEIGHT 1
VIEWPOINT 0 0 0 1 0 0 0
POINTS 1102
DATA ascii
-1.0653906 -0.81573242 0.039043237 0.99464482
-1.0648828 -0.77370113 0.038300171 0.99474651
-1.0642188 -0.71350586 0.037281342 0.99488586
-1.0882226 -0.70993161 0.037806816 0.99481404
-1.1503906 -0.70995116 0.039334372 0.994605
-1.1834179 -0.70996094 0.04015518 0.99449271
-1.2178515 -0.70997071 0.041017797 0.99437475
-1.4607812 -0.70994139 0.047258489 0.99352169
-1.5087109 -0.70994139 0.048516769 0.99334979
-1.5592577 -0.70995116 0.049852066 0.99316746
-1.6126952 -0.70995116 0.051271096 0.99297363
-1.751914 -0.71921873 0.055104256 0.99245024
-1.7521484 -0.69374019 0.054833259 0.99248719
-1.7523828 -0.66846681 0.054573286 0.99252272
-21.994188 8.0749216 0.61677593 0.91050935
-1.7569531 0.67021483 0.049501915 0.99250388
-1.7564844 0.72112304 0.049984854 0.99243116
-1.6692969 0.70994139 0.047752913 0.99276781
-1.5592773 0.70996094 0.045101967 0.99316788
-1.5087109 0.70996094 0.04389412 0.99335027
-1.4607812 0.70994139 0.04275566 0.99352217
-1.4152343 0.70996094 0.041681252 0.99368453
-1.3307031 0.70997071 0.039704781 0.99398309
-1.2913672 0.70996094 0.038794022 0.99412066
-1.1186719 0.70995116 0.034879189 0.99471247
-1.0882031 0.70994139 0.034204673 0.99481446
-1.0617774 0.71187496 0.033652343 0.99489796
-1.0619531 0.73153317 0.033947144 0.99485338
-1.0623828 0.77187496 0.034569662 0.9947592
-1.0626172 0.79263669 0.03489811 0.99470949
-1.062832 0.81378907 0.035238683 0.99465805
-1.0633203 0.85740232 0.035957869 0.99454927
-1.0638281 0.90284181 0.036731299 0.99443245
-8.0433979 7.74582 0.29395568 0.95630151
-7.6446872 7.741416 0.28640473 0.95739961
-7.4528513 7.7393064 0.28283921 0.95791864
-7.2657027 7.7372265 0.2794053 0.95841891
-6.9045506 7.733242 0.27290678 0.95936602
-6.7301755 7.7313085 0.26983199 0.95981437
-6.5596485 7.7294235 0.26686865 0.96024686
-6.229414 7.725791 0.26125449 0.96106684
-6.0694141 7.7240133 0.25859442 0.96145546
-5.4600782 7.7172656 0.24885689 0.96287942
-5.1719141 7.7140818 0.24448456 0.96351957
-4.7577734 7.7095213 0.23848419 0.96439892
-4.6241407 7.7080469 0.23662147 0.96467191
-4.4925389 7.7066016 0.23482452 0.9649353
-4.2351561 7.7037401 0.23142067 0.96543479
-4.109199 7.7023535 0.22980994 0.96567124
-3.8623827 7.6996288 0.22675987 0.96611905
-3.5038671 7.6956639 0.22259307 0.96673113
-3.2718749 7.6930957 0.22007042 0.96710187
-3.0449219 7.6905956 0.21773925 0.96744448
-2.8226171 7.6881442 0.21559349 0.96776015
-2.7130272 7.6869235 0.21458618 0.96790832
-2.6044726 7.6857128 0.21362244 0.96805024
-2.1792967 7.681025 0.2101796 0.96855706
-1.9715625 7.6787305 0.20869385 0.96877569
-1.8687891 7.6775975 0.20800757 0.9688766
-1.7666405 7.676455 0.20735954 0.96897215
-1.665078 7.6753516 0.2067472 0.96906227
-1.5641406 7.6742282 0.20617187 0.96914709
-1.4637109 7.6731052 0.20563202 0.96922678
-1.1654297 7.6698337 0.20422095 0.96943462
-1.066875 7.6687403 0.20381813 0.96949387
-0.77324218 7.6654882 0.20281219 0.9696421
-0.67595702 7.6644235 0.20254341 0.96968174
-0.57892579 7.6633496 0.20230719 0.96971661
-0.38542968 7.6612206 0.20193115 0.96977204
-0.28894532 7.6601462 0.20179184 0.96979266
0 7.6569333 0.20156372 0.96982628
0.096171871 7.6558886 0.2015512 0.96982795
0.19242187 7.6548142 0.20157142 0.96982509
0.28863281 7.6537595 0.20162246 0.96981746
0.57791013 7.6505566 0.20197013 0.96976644
0.67458981 7.6494823 0.2021492 0.96973997
0.77146482 7.6484079 0.2023616 0.96970874
0.86859375 7.6473632 0.20260635 0.96967262
0.96591794 7.6462693 0.20288216 0.96963185
1.0635546 7.645195 0.20319244 0.96958613
1.358457 7.6419334 0.20432265 0.96941966
1.4575391 7.6408396 0.20476645 0.96935415
1.5570703 7.6397362 0.20524558 0.96928364
1.6570898 7.6386328 0.20575942 0.969208
1.8586718 7.6364059 0.20689255 0.96904105
1.960371 7.635283 0.20751259 0.96894962
2.37375 7.6307225 0.21036765 0.96852916
2.585 7.6283789 0.2120285 0.96828479
2.7997265 7.6260056 0.213851 0.96801662
3.0183594 7.6235838 0.21584259 0.96772355
3.1292186 7.6223731 0.2169046 0.96756738
3.2412109 7.6211228 0.21801162 0.96740466
3.3543749 7.6198826 0.21916382 0.96723515
3.5843749 7.6173239 0.22161193 0.96687531
3.9396484 7.6134176 0.22566146 0.9662804
4.0609765 7.6120701 0.22711571 0.96606684
4.1839843 7.6107225 0.22862647 0.96584499
10.459453 16.481445 0.51385862 0.92486465
10.833164 16.605381 0.52192724 0.92373127
1.2993749 0.94406247 0.042281114 0.99359387
1.2989062 0.89470702 0.041519545 0.99370879
1.2983984 0.84708983 0.04081089 0.9938159
1.2982031 0.82383788 0.040475234 0.99386656
1.2980077 0.80101562 0.040151518 0.99391538
1.2977539 0.77855468 0.039839286 0.99396271
1.2973828 0.73460937 0.039247818 0.99405199
1.2971874 0.71312499 0.038967971 0.99409431
1.3719921 0.70995116 0.040665664 0.99383771
1.4153124 0.70994139 0.041681059 0.99368429
1.4608008 0.70994139 0.042755622 0.99352211
1.5087304 0.70996094 0.043894004 0.99335021
1.5592968 0.70995116 0.045101967 0.99316782
1.6693164 0.70996094 0.04775257 0.99276769
1.7293164 0.70993161 0.049210507 0.99254787
1.7931249 0.70994139 0.050768469 0.99231279
1.8611327 0.70995116 0.052436903 0.99206114
1.9667969 0.69415039 0.054904707 0.99168903
21.271719 6.6172752 0.58643568 0.91471773
21.776289 6.1784863 0.59587651 0.91340613
22.034824 5.9536815 0.60085529 0.91271502
1.966875 -0.66650391 0.054668959 0.99172461
1.9667187 -0.72205079 0.055151138 0.99165183
1.7931445 -0.70994139 0.050768316 0.99231273
1.6692969 -0.70996094 0.047752492 0.99276775
1.5087109 -0.70995116 0.043893851 0.99335027
1.4607812 -0.70996094 0.042755354 0.99352217
1.4152734 -0.70995116 0.041680947 0.99368441
1.3719921 -0.70994139 0.040665358 0.99383777
1.3307421 -0.70993161 0.039704476 0.99398303
1.2975781 -0.75641602 0.039538 0.99400812
1.2977734 -0.77853513 0.039839402 0.99396265
1.2982031 -0.82385743 0.040475272 0.99386656
1.2984375 -0.84708983 0.040811002 0.99381578
1.2986523 -0.87068355 0.041158903 0.99376327
1.2991406 -0.9191699 0.041893691 0.99365234
1.2993749 -0.94406247 0.042281114 0.99359387
8.800683 -7.6611133 0.30715737 0.95438457
8.8363476 -8.5093555 0.32293639 0.95209849
8.8223238 -8.9338379 0.33052185 0.95100075
7.615293 -8.9732714 0.30981705 0.95399886
7.2312303 -8.968174 0.30326682 0.9549489
6.6348243 -8.66541 0.28729865 0.95726961
6.6274219 -8.8848438 0.29178962 0.9566164
3.5096092 -4.8305664 0.15718086 0.97639126
3.4273827 -4.8442383 0.15621208 0.97653502
3.254199 -4.8537107 0.15383178 0.97688854
3.1735547 -4.8644528 0.15289581 0.97702742
5.4896483 -8.895381 0.27516854 0.95903641
3.60166 -8.4685154 0.24225555 0.96384662
3.4760742 -8.4671192 0.24094665 0.96403837
3.1071093 -8.4630566 0.23732665 0.96456879
2.8669922 -8.4604101 0.23515792 0.96488696
2.5145702 -8.4565134 0.23224846 0.96531379
2.2842188 -8.4539747 0.23052849 0.96556616
2.1702929 -8.4526949 0.2297319 0.9656831
2.0571094 -8.4514551 0.22897772 0.96579385
1.9446679 -8.4502144 0.22826347 0.96589863
1.8329101 -8.4489841 0.22759154 0.96599752
1.7217969 -8.4477539 0.22695708 0.96609056
1.6112499 -8.4465332 0.22636299 0.96617794
1.501289 -8.445303 0.2258065 0.96625966
1.2828906 -8.4429102 0.22480774 0.96640611
1.1743749 -8.4417086 0.22436462 0.96647114
0.85117185 -8.4381342 0.22325836 0.9666338
0.63724607 -8.4357615 0.22270286 0.96671563
0.53064454 -8.4345894 0.2224775 0.9667486
0.42423826 -8.4334173 0.22228789 0.96677643
0.3180078 -8.4322357 0.22213364 0.96679902
0.21195312 -8.4310646 0.22201568 0.96681648
0.1059375 -8.4298925 0.22193168 0.9668287
0 -8.4287205 0.22188285 0.96683586
-0.10591797 -8.4275484 0.22187018 0.96683782
-0.21185547 -8.4263868 0.22189163 0.96683455
-0.31779295 -8.4252148 0.22194885 0.9668262
-0.42382812 -8.4240332 0.22204123 0.96681273
-0.52996093 -8.4228706 0.22216903 0.96679401
-0.63621092 -8.4216795 0.22233093 0.96677023
-0.74261719 -8.420517 0.22252829 0.96674114
-0.84929687 -8.4193459 0.22276099 0.96670681
-0.95617187 -8.4181643 0.22302963 0.96666729
-1.0633398 -8.4169722 0.22333519 0.96662247
-1.714082 -8.4097948 0.22593682 0.96624035
-1.8241796 -8.4085741 0.22650176 0.96615732
-1.9348437 -8.4073439 0.22710541 0.96606863
-2.0461133 -8.4061232 0.22774939 0.96597415
-2.1580079 -8.4048729 0.22843215 0.9658739
-2.2706444 -8.4036226 0.22915535 0.96576768
-2.3840039 -8.4023829 0.22992073 0.96565539
-2.4981444 -8.401103 0.23072661 0.96553707
-2.8456445 -8.3972845 0.23340362 0.96514428
-3.2017772 -8.3933496 0.23648246 0.96469271
-3.4447265 -8.3906736 0.23877136 0.96435714
-3.5680077 -8.3893061 0.23998924 0.96417856
-3.8184764 -8.3865232 0.24257956 0.96379912
-4.0745897 -8.3836908 0.24538337 0.9633885
-4.3368163 -8.3808107 0.24841003 0.96294522
-5.023242 -8.3732128 0.25704491 0.96168226
-5.1664648 -8.3716307 0.25896963 0.96140105
-5.3118553 -8.370039 0.26096404 0.96110952
-5.60957 -8.3667383 0.26517349 0.9604947
-5.7621093 -8.3650484 0.26739472 0.96017063
-5.9172654 -8.3633394 0.26969489 0.95983481
-6.2358007 -8.3598042 0.27454987 0.95912689
-6.3994727 -8.3579979 0.27710935 0.95875376
-6.5662498 -8.3561716 0.27976173 0.95836723
-6.7362499 -8.3542871 0.28251022 0.95796692
-6.9097071 -8.3523731 0.28536025 0.95755213
-7.2674217 -8.3484077 0.29137421 0.9566772
-7.4520702 -8.3463764 0.29454932 0.95621568
-8.0314064 -8.3399801 0.30479559 0.95472729
-8.2336721 -8.3377438 0.30847228 0.95419407
-8.8713474 -8.3307028 0.32036254 0.95247096
-1.0641016 -0.92632812 0.03713974 0.9943707
-1.0635546 -0.87988281 0.036337394 0.99449193
-1.0633203 -0.85739255 0.035957947 0.99454927
-1.0630664 -0.83537108 0.035591848 0.99460465
-1.0628515 -0.81378907 0.035238609 0.99465799
-1.0626172 -0.79263669 0.034898069 0.99470949
-1.0621874 -0.75152344 0.034252815 0.99480706
-1.0619922 -0.73153317 0.033947065 0.99485326
-1.0617774 -0.71189451 0.033652116 0.9948979
-1.0882226 -0.70993161 0.034204446 0.9948144
-1.1187109 -0.70995116 0.034878995 0.99471229
-1.1503906 -0.70995116 0.035586432 0.99460542
-1.1834179 -0.70996094 0.036329038 0.99449313
-1.2537891 -0.70996094 0.037930183 0.99425119
-1.3307226 -0.70996094 0.039704666 0.99398303
-1.4152734 -0.70994139 0.041681211 0.99368441
-1.4607812 -0.70994139 0.042755544 0.99352217
-1.5087109 -0.70994139 0.043893967 0.99335027
-1.5592968 -0.70995116 0.045101929 0.99316782
-1.6126952 -0.70995116 0.046385918 0.99297416
-1.6692969 -0.70994139 0.047752798 0.99276781
-1.7565038 -0.72111326 0.049984816 0.9924311
-1.7567382 -0.69554687 0.0497385 0.99246818
-1.756914 -0.67019528 0.049502105 0.992504
-20.726776 4.4964552 0.49952263 0.91864169
-1.7617188 0.6468066 0.044201124 0.9925192
-1.7615234 0.67196286 0.044404831 0.99248493
-1.7611523 0.72301757 0.044838943 0.99241167
-1.6692969 0.70994139 0.042724151 0.99276829
-1.6126952 0.70995116 0.04150131 0.99297464
-1.5592773 0.70996094 0.040352516 0.99316835
-1.5087109 0.70996094 0.03927185 0.99335074
-1.3719531 0.70996094 0.036383439 0.99383831
-1.3307031 0.70997071 0.035523567 0.99398351
-1.2913672 0.70996094 0.034708634 0.99412107
-1.2537891 0.70995116 0.033935737 0.99425161
-1.1186719 0.70995116 0.031206168 0.99471283
-1.0597266 0.74976563 0.030574875 0.99481946
-1.0599219 0.7700879 0.030857086 0.99477172
-1.0601171 0.79076171 0.031149711 0.99472231
-1.0616992 0.94793946 0.03352249 0.99432141
-8.4640036 7.7504687 0.27029839 0.95511973
-8.0433979 7.74582 0.26300132 0.95630443
-7.8414841 7.7435937 0.25955978 0.9568637
-7.6446872 7.741416 0.25624678 0.95740247
-7.4528513 7.7393064 0.25305679 0.9579215
-7.2657027 7.7372265 0.24998198 0.95842171
-6.5596485 7.7294235 0.23876677 0.9602496
-6.3927732 7.7275681 0.23620865 0.96066689
-6.229414 7.725791 0.23374267 0.96106952
-6.0694337 7.7240133 0.23136215 0.96145803
-5.9126563 7.7222753 0.22906685 0.96183306
-5.4600782 7.7172656 0.22265182 0.96288192
-5.3146873 7.7156835 0.22066048 0.9632076
-5.1719141 7.7141013 0.21873969 0.96352202
-4.2351561 7.7037401 0.2070526 0.96543711
-3.7414062 7.6982908 0.20159088 0.96633303
-3.6219139 7.6969628 0.20034797 0.96653706
-3.387207 7.6943846 0.19800247 0.96692234
-3.2718749 7.6930957 0.19689552 0.96710414
-3.1577733 7.6918259 0.1958326 0.9672789
-3.0449219 7.6905956 0.19481163 0.96744668
-2.9332225 7.6893554 0.19383179 0.9676078
-2.496875 7.6845312 0.19030212 0.96818805
-2.2843359 7.6821971 0.18876228 0.96844131
-2.1792967 7.681025 0.18804641 0.96855921
-2.075078 7.679873 0.18736541 0.96867132
-1.7666405 7.676455 0.18552406 0.96897429
-1.665078 7.6753516 0.18497626 0.96906435
-1.2644531 7.670918 0.18310478 0.96937245
-1.1654297 7.6698337 0.18271522 0.96943671
-1.066875 7.6687403 0.18235564 0.96949595
-0.96865231 7.6676559 0.18202659 0.96955025
-0.57892579 7.6633496 0.18100204 0.96971869
-0.4820703 7.6622753 0.18081978 0.9697488
-0.38542968 7.6612206 0.18066651 0.96977407
-0.28894532 7.6601462 0.18054092 0.96979469
-0.19257812 7.6590719 0.18044494 0.96981061
0.19242187 7.6548142 0.18034554 0.96982712
0.77146482 7.6484179 0.18105155 0.96971077
0.86859375 7.6473632 0.1812706 0.96967465
1.0635546 7.645195 0.18179588 0.96958822
1.1614844 7.6441112 0.18210235 0.96953768
1.2597852 7.6430173 0.18243949 0.96948218
1.358457 7.6419334 0.18280609 0.96942168
1.4575391 7.6408396 0.18320312 0.96935624
1.6570898 7.6386328 0.18409088 0.96921009
1.8586718 7.6364059 0.18510528 0.9690432
1.960371 7.635283 0.185661 0.96895176
2.0626757 7.63415 0.18624954 0.96885496
2.1656249 7.6330075 0.18687041 0.96875268
2.37375 7.6307225 0.1882154 0.96853125
2.4789453 7.6295505 0.18893959 0.9684121
2.585 7.6283789 0.18970054 0.96828693
2.7997265 7.6260056 0.19133101 0.96801877
3.1292186 7.6223731 0.19406402 0.96756959
3.2412109 7.6211228 0.19505347 0.96740687
3.3543749 7.6198826 0.19608535 0.96723735
3.5843749 7.6173239 0.19827567 0.96687758
3.8197851 7.6147556 0.20064498 0.96648848
3.9396484 7.6134176 0.20189682 0.96628267
4.0609765 7.6120701 0.20319885 0.9660691
10.459609 16.48164 0.45975426 0.92486876
1.2959374 0.89265621 0.037062071 0.99372357
1.2957031 0.86871094 0.036740836 0.99377781
1.2945703 0.73301756 0.035038833 0.99406528
1.3307421 0.70994139 0.03552372 0.99398339
1.3719921 0.70995116 0.036383592 0.99383819
1.4608008 0.70994139 0.038253136 0.99352252
1.5087304 0.70996094 0.039271735 0.99335063
1.5592968 0.70995116 0.040352516 0.99316829
1.6127343 0.70995116 0.041501198 0.99297452
1.6693164 0.70996094 0.042724114 0.99276817
1.7931249 0.70994139 0.045422401 0.99231333
1.9688281 0.69488281 0.049173966 0.99168104
1.9689062 0.66719723 0.048962515 0.99171668
21.271719 6.6172752 0.52468282 0.9147234
21.174297 6.2962403 0.52028698 0.9154067
1.9688867 -0.66719723 0.04896225 0.99171674
1.9688085 -0.69487303 0.049173851 0.99168116
1.96875 -0.72279292 0.049394798 0.99164385
1.7931445 -0.70994139 0.045422323 0.99231327
1.7293359 -0.70994139 0.044028241 0.99254829
1.6692969 -0.70996094 0.042723808 0.99276829
1.5087109 -0.70995116 0.03927166 0.99335074
1.4607812 -0.70996094 0.038253095 0.99352258
1.4152734 -0.70995116 0.037292138 0.99368483
1.3719921 -0.70994139 0.036383439 0.99383819
1.2943945 -0.71161133 0.034789503 0.99410737
1.2949219 -0.77683592 0.035565529 0.99397629
1.2954882 -0.84514648 0.036430854 0.9938302
1.2957031 -0.86870116 0.036740914 0.99377787
1.2959374 -0.89264649 0.037062071 0.99372357
1.2961719 -0.917041 0.037395209 0.9936673
1.2964063 -0.94186521 0.037740517 0.99360901
8.7931442 -7.8509078 0.27763093 0.95393002
8.841836 -8.0963869 0.28236389 0.9531641
8.8391209 -8.300498 0.28558722 0.9526425
8.8335152 -8.7231836 0.29239815 0.95154089
7.7926168 -8.9517183 0.27952757 0.95362324
7.4212108 -8.9706936 0.27420929 0.95448542
7.0451951 -8.9656935 0.26855719 0.9554022
6.8628712 -8.9632711 0.26587996 0.95583677
6.6672654 -8.9383202 0.26262969 0.9563641
3.3245311 -4.8263474 0.13804138 0.97682405
3.1735547 -4.8644724 0.13679478 0.97702891
3.7286131 -8.4699316 0.21796158 0.96364963
3.4760742 -8.4671192 0.21557441 0.96404082
3.1071093 -8.4630566 0.21233664 0.96457124
2.7485156 -8.4591112 0.20948684 0.96503818
2.2842188 -8.4539747 0.20625228 0.96556848
2.1702929 -8.4526949 0.20554145 0.96568543
2.0571094 -8.4514551 0.20486587 0.96579617
1.0662695 -8.4405079 0.20037712 0.96653301
0.63724607 -8.4357615 0.19924971 0.9667179
0.42423826 -8.4334173 0.19887947 0.9667787
0.31802735 -8.4322262 0.19874236 0.96680135
0.21191406 -8.4310837 0.19863586 0.96681863
-0.42382812 -8.4240332 0.19865882 0.96681499
-0.63621092 -8.4216795 0.198918 0.9667725
-0.74265623 -8.420517 0.19909446 0.96674341
-0.95617187 -8.4181643 0.19954398 0.96666956
-1.0633398 -8.4169722 0.19981749 0.96662474
-1.1708202 -8.4157906 0.20012344 0.96657461
-1.3868359 -8.4133978 0.20083129 0.96645826
-1.4954687 -8.4121971 0.20123482 0.96639192
-1.6045117 -8.4109955 0.20167319 0.96632004
-1.714082 -8.4097948 0.20214416 0.96624261
-1.8241796 -8.4085741 0.20265052 0.96615958
-2.0461133 -8.4061232 0.20376587 0.96597642
-2.1580467 -8.404892 0.20437774 0.9658761
-2.270664 -8.4036226 0.20502479 0.96576995
-2.7289062 -8.3985643 0.20798789 0.96528399
-2.9633203 -8.3959866 0.20970245 0.96500283
-3.0820117 -8.3946676 0.21062003 0.96485239
-3.2017772 -8.3933496 0.21157928 0.9646951
-3.3226757 -8.3920021 0.21258208 0.96453094
-3.4447265 -8.3906736 0.21362723 0.96435952
-3.6925781 -8.3879194 0.21585281 0.9639951
-3.8184764 -8.3865232 0.2170343 0.96380156
-4.0745897 -8.3836908 0.21954292 0.96339095
-4.3368163 -8.3808107 0.22225182 0.96294773
-4.470449 -8.3793259 0.22368461 0.96271336
-4.7430077 -8.376318 0.22671561 0.96221781
-4.8821092 -8.3747749 0.22831626 0.9619562
-5.023242 -8.3732128 0.22997627 0.96168488
-5.1664648 -8.3716307 0.2316983 0.96140361
-5.4595313 -8.3683987 0.2353321 0.96081018
-6.0751171 -8.3615913 0.24342826 0.95948976
-6.2358007 -8.3598042 0.24563804 0.95912963
-6.3994727 -8.3579979 0.24792831 0.95875657
-6.5662498 -8.3561716 0.25030082 0.95837003
-6.7362499 -8.3542871 0.2527613 0.95796978
-7.0867381 -8.35042 0.2579518 0.95712519
-7.2674217 -8.3484077 0.26069212 0.95668012
-8.4408979 -8.3354292 0.27940124 0.9536441
-8.6533785 -8.3330956 0.2829451 0.95307004
-8.8713474 -8.3307028 0.28662604 0.95247418
-9.0950775 -8.3282223 0.29044998 0.9518556
-1.0616992 -0.94794917 0.033522569 0.99432135
-1.0614258 -0.9240039 0.033145294 0.99438518
-1.0611914 -0.90060544 0.032781638 0.99444658
-1.0603125 -0.81183594 0.031452827 0.99467111
-1.0601171 -0.79077148 0.03114952 0.99472225
-1.0599023 -0.77007812 0.03085701 0.99477178
-1.0595312 -0.72984374 0.030302657 0.99486548
-1.0593749 -0.71025389 0.03003994 0.99490982
-1.0882226 -0.70993161 0.030602532 0.99481475
-1.1187109 -0.70995116 0.031206131 0.99471265
-1.3307226 -0.70996094 0.035523679 0.99398345
-1.3719531 -0.70993161 0.036383476 0.99383831
-1.4152734 -0.70994139 0.037292175 0.99368483
-1.4607812 -0.70994139 0.03825321 0.99352264
-1.5087109 -0.70994139 0.039271772 0.99335074
-1.5592968 -0.70995116 0.040352479 0.99316829
-1.6126952 -0.70995116 0.041501272 0.99297464
-1.7615234 -0.67196286 0.044404794 0.99248493
-1.7617188 -0.64679688 0.04420105 0.99251926
-22.534452 7.9533591 0.49659315 0.90882033
-1.7648046 0.69873047 0.039443854 0.99243474
-1.7647656 0.72452146 0.03964363 0.99239659
-1.4607812 0.70994139 0.033751752 0.993523
-1.4152343 0.70996094 0.032903634 0.99368536
-1.3719531 0.70996094 0.032101821 0.99383867
-1.3307031 0.70996094 0.031342965 0.99398386
-1.2913672 0.70996094 0.030624161 0.99412143
-1.1503711 0.70996094 0.028092269 0.9946062
-1.1186719 0.70995116 0.027533684 0.99471313
-1.0588866 0.70996094 0.026493073 0.99491245
-1.0571094 0.72819334 0.026675301 0.99487746
-1.0572656 0.74804688 0.02691452 0.99483174
-1.0574218 0.76828122 0.027162399 0.9947843
-1.0577929 0.80993164 0.027685585 0.99468398
-1.0579687 0.83136719 0.027961615 0.99463117
-1.0583789 0.87557614 0.028544426 0.99451947
-1.0590234 0.94553709 0.029502563 0.99433607
-8.4640036 7.7504687 0.23848815 0.95512241
-7.6446872 7.741416 0.22609031 0.95740503
-7.4528513 7.7392869 0.22327583 0.95792407
-7.2657027 7.7372265 0.22056372 0.95842421
-7.0830274 7.7352147 0.21795104 0.95890629
-6.7301755 7.7313085 0.21300644 0.95981956
-6.5596485 7.7294235 0.21066742 0.96025199
-6.3927732 7.7275681 0.2084101 0.96066928
-6.229414 7.725791 0.20623451 0.96107185
-6.0694141 7.7240133 0.20413551 0.96146041
-5.9126563 7.7222753 0.20211013 0.96183538
-5.7589059 7.7205663 0.20015617 0.96219742
-5.1719141 7.7140818 0.1929972 0.96352428
-5.0315623 7.7125387 0.19136184 0.96382773
-4.7577734 7.7095213 0.18825974 0.96440351
-4.4925389 7.7066016 0.1853727 0.96493983
-4.3629298 7.7051463 0.18400437 0.96519399
-4.2351561 7.7037401 0.18268561 0.9654392
-4.109199 7.7023535 0.18141289 0.96567565
-3.8623827 7.6996288 0.17900535 0.96612334
-3.0449219 7.6905956 0.17188515 0.96744865
-2.8226171 7.6881442 0.17018966 0.96776426
-2.4968359 7.6845312 0.16790625 0.96819001
-2.075078 7.679873 0.16531524 0.96867323
-1.9715625 7.6787305 0.16474472 0.96877968
-1.8687891 7.6775975 0.16420296 0.96888059
-1.2644531 7.670918 0.16155693 0.9693743
-1.1654297 7.6698337 0.161213 0.96943855
-1.066875 7.6687403 0.16089606 0.9694978
-0.87078124 7.6665816 0.16034073 0.96960145
-0.77324218 7.6654882 0.16010086 0.96964604
-0.67597657 7.6644139 0.15988876 0.96968567
-0.38542968 7.6612206 0.15940452 0.96977592
-0.19257812 7.6590719 0.15921006 0.96981245
-0.096269526 7.6580176 0.15915069 0.9698236
0 7.6569333 0.15911552 0.96983016
0.096210934 7.6558886 0.15910628 0.96983182
0.19242187 7.6548142 0.15912232 0.96982896
0.28863281 7.6537595 0.15916167 0.96982133
0.38496092 7.6526852 0.15922791 0.96980906
0.48136717 7.6516309 0.15931869 0.96979201
0.77146482 7.6484079 0.15974525 0.96971262
1.0635546 7.645195 0.16040191 0.96959001
1.1614844 7.6441112 0.16067229 0.96953946
1.2597852 7.6430173 0.16097015 0.96948403
1.4575391 7.6408396 0.16164367 0.96935809
1.5570703 7.6397362 0.16202095 0.96928757
1.7575976 7.6375289 0.16286018 0.96913111
1.8586718 7.6364059 0.16332199 0.96904504
1.960371 7.635283 0.16381225 0.96895361
2.0626562 7.63415 0.16433059 0.96885687
2.2692969 7.631875 0.16545807 0.96864671
2.37375 7.6307225 0.16606613 0.96853316
2.4789453 7.6295505 0.16670501 0.96841401
2.6918945 7.6271973 0.16807884 0.96815783
2.7997265 7.6260056 0.16881485 0.96802074
3.0183594 7.6235838 0.1703881 0.96772772
3.4687304 7.6186032 0.17395668 0.96706301
3.5843749 7.6173239 0.17494246 0.96687955
3.7013671 7.6160445 0.17596756 0.96668881
3.8197851 7.6147556 0.17703193 0.96649051
3.9396484 7.6134176 0.17813736 0.96628469
1.2929688 0.89061522 0.032625809 0.99373823
1.2927734 0.86673826 0.032343633 0.99379224
1.2917968 0.73143554 0.030848388 0.99407834
1.2916211 0.71007812 0.030629387 0.9941203
1.3719921 0.70995116 0.032101747 0.99383855
1.4153124 0.70994139 0.032903288 0.99368507
1.5592968 0.70995116 0.035603598 0.99316871
1.6127343 0.70995116 0.036617089 0.99297494
1.6693164 0.70996094 0.037696112 0.99276865
1.7293359 0.70993161 0.038846891 0.99254876
1.7931249 0.70994139 0.040077019 0.9923138
1.8611327 0.70995116 0.041394044 0.99206215
1.9337499 0.70996094 0.042807579 0.99179226
21.271719 6.6172752 0.46293509 0.9147284
1.9709179 -0.66788083 0.043244857 0.99170876
1.9337695 -0.70993161 0.042807426 0.9917922
1.7931445 -0.70994139 0.040076941 0.99231374
1.6127343 -0.70994139 0.036616936 0.99297494
1.5592968 -0.70996094 0.035603445 0.99316871
1.5087109 -0.70995116 0.034650002 0.99335116
1.4152734 -0.70995116 0.03290325 0.99368519
1.3719921 -0.70994139 0.032101668 0.99383855
1.3307421 -0.70993161 0.031342965 0.99398381
1.2916406 -0.71005857 0.030629387 0.9941203
1.2920703 -0.77511716 0.0313113 0.99398988
1.2924218 -0.82018554 0.031808853 0.99389458
1.2926172 -0.84327149 0.032071341 0.99384427
1.2929688 -0.89060545 0.032625809 0.99373829
1.2931249 -0.9149316 0.032918356 0.99368238
1.2933203 -0.93966794 0.033221778 0.99362445
8.7931252 -7.8509178 0.24494582 0.95393282
8.8391209 -8.300498 0.25197738 0.95264536
8.8335152 -8.7231932 0.25798774 0.95154381
8.8553905 -8.967392 0.26195273 0.95082778
7.6152735 -8.9732714 0.24456978 0.95400476
7.2312303 -8.968174 0.23939979 0.95495468
7.045156 -8.9657125 0.23695022 0.95540488
3.505996 -4.8255758 0.12395145 0.97641838
3.425 -4.840879 0.12322956 0.97655416
5.5247264 -8.7055368 0.21426147 0.95958787
3.8570311 -8.4713373 0.19342987 0.96344453
3.7286131 -8.4699316 0.19231163 0.96365184
3.4760742 -8.4671192 0.19020423 0.96404296
3.351836 -8.4657717 0.18921287 0.96422702
3.1071093 -8.4630566 0.18734764 0.96457338
2.8669922 -8.4604101 0.18563506 0.96489149
2.7485156 -8.4591112 0.18483321 0.96504033
2.6310742 -8.4577932 0.18406746 0.9651826
2.5145702 -8.4565134 0.18333778 0.96531826
2.3989649 -8.4552145 0.1826416 0.96544766
1.9446679 -8.4502144 0.18019325 0.96590298
1.8329101 -8.4489841 0.17966202 0.96600187
1.7217969 -8.4477539 0.17916115 0.96609491
1.6112499 -8.4465332 0.17869101 0.96618223
1.501289 -8.445303 0.17825171 0.96626395
1.2828906 -8.4429102 0.17746429 0.96641046
1.1743749 -8.4417086 0.17711425 0.96647543
0.95853513 -8.4393158 0.1765039 0.96658927
0.53064454 -8.4345894 0.17562392 0.96675289
0.1059375 -8.4298925 0.17519394 0.966833
0 -8.4287205 0.17515518 0.96684009
-0.42382812 -8.4240332 0.17528053 0.96681702
-0.52996093 -8.4228706 0.17538047 0.96679831
-0.63621092 -8.4216795 0.17550826 0.96677452
-0.74265623 -8.420517 0.17566498 0.96674538
-0.84929687 -8.4193554 0.17584845 0.96671104
-1.0633398 -8.4169722 0.17630179 0.96662676
-1.4954687 -8.4121971 0.1775534 0.96639395
-1.714082 -8.4097948 0.17835471 0.96624464
-1.8241796 -8.4085741 0.17880149 0.96616167
-1.9348437 -8.4073439 0.17927796 0.96607298
-2.1580079 -8.4048729 0.18032539 0.96587825
-2.270664 -8.4036226 0.18089622 0.96577203
-2.3840039 -8.4023829 0.18150039 0.96565974
-2.6131053 -8.3998432 0.18280829 0.96541691
-2.7289062 -8.3985643 0.18351181 0.96528608
-2.9633203 -8.3959866 0.1850235 0.96500498
-3.2017772 -8.3933496 0.18668038 0.96469724
-3.3226757 -8.3920021 0.18756431 0.96453303
-3.4447265 -8.3906736 0.1884864 0.96436167
-3.5680077 -8.3893061 0.1894487 0.96418315
-3.6925781 -8.3879194 0.19045112 0.96399724
-3.8184569 -8.3865328 0.1914936 0.96380377
-4.3368163 -8.3808107 0.19609581 0.96294999
-4.6058202 -8.3778419 0.19867317 0.96247232
-4.7430077 -8.376318 0.20003441 0.96222007
-5.60957 -8.3667383 0.20932914 0.96049976
-6.2358007 -8.3598042 0.21673118 0.95913213
-6.5662498 -8.3561716 0.22084533 0.95837253
-6.7362499 -8.3542871 0.22301483 0.95797229
-8.0313864 -8.3399801 0.24060707 0.95473313
-8.4408979 -8.3354292 0.24652107 0.9536469
-9.0950775 -8.3282223 0.25626951 0.95185852
-1.0589844 -0.94552732 0.029502716 0.99433619
-1.058789 -0.92169923 0.029171562 0.99439949
-1.058164 -0.85323238 0.028247871 0.99457633
-1.0574218 -0.768291 0.027162323 0.9947843
-1.0882226 -0.70993161 0.027001075 0.99481511
-1.1187109 -0.70995116 0.027533721 0.99471301
-1.1503906 -0.70995116 0.028092155 0.99460614
-1.1834179 -0.70996094 0.028678359 0.99449384
-1.2178515 -0.70997071 0.029294394 0.99437588
-1.3307226 -0.70996094 0.031343076 0.99398381
-1.3719531 -0.70993161 0.032101631 0.99383873
-1.4152343 -0.70994139 0.032903288 0.99368536
-1.4607812 -0.70994139 0.03375141 0.993523
-1.5087109 -0.70994139 0.034650113 0.99335116
-1.5592968 -0.70995116 0.035603639 0.99316871
-1.6126952 -0.70995116 0.036617164 0.99297506
-1.6692969 -0.70994139 0.037696343 0.99276876
-1.7647656 -0.72451168 0.039643593 0.99239659
-1.7648046 -0.69873047 0.03944397 0.99243474
-1.7648437 -0.67321289 0.039252434 0.99247134
-1.7648437 -0.64794922 0.039068986 0.9925065
-20.725302 4.4961228 0.38192877 0.91865623
-22.527861 7.9510546 0.43024015 0.90885037
-1.7657031 0.64824218 0.033874549 0.99250329
-1.765625 0.69907224 0.034199867 0.99243164
-1.7656054 0.72485352 0.034373168 0.99239343
-1.6126952 0.70995116 0.031733703 0.99297547
-1.5592773 0.70996094 0.030855369 0.99316913
-1.5087109 0.70996094 0.030029068 0.99335146
-1.4607812 0.70994139 0.029250182 0.99352336
-1.4152343 0.70996094 0.028515128 0.99368566
-1.3307031 0.70996094 0.027162895 0.99398422
-1.2913672 0.70996094 0.026539916 0.99412173
-1.2178711 0.70994139 0.025387572 0.99437618
-1.1834179 0.70995116 0.024853783 0.99449414
-1.1503711 0.70996094 0.02434578 0.99460649
-1.0882031 0.70994139 0.023400307 0.99481541
-1.0547071 0.7265234 0.023064995 0.99488938
-1.054961 0.7664941 0.023485107 0.99479669
-1.0552734 0.80800778 0.023936348 0.99469692
-1.0554687 0.82937497 0.024174538 0.99464417
-1.055957 0.89616209 0.02494278 0.99447453
-8.0433979 7.74582 0.20110328 0.95630938
-7.8414841 7.7435937 0.19847046 0.95686853
-7.6446872 7.741416 0.19593735 0.9574073
-7.4528513 7.7393064 0.19349693 0.95792621
-7.0830274 7.7352147 0.1888845 0.95890844
-6.9045701 7.7332516 0.18670334 0.9593733
-6.0694141 7.7240133 0.1769107 0.96146244
-5.7589059 7.7205663 0.17346084 0.96219939
-5.4600782 7.7172656 0.17025009 0.9628861
-5.3146873 7.7156835 0.16872841 0.96321177
-5.1719141 7.7140818 0.16725868 0.96352619
-4.4925389 7.7066016 0.16064896 0.96494168
-4.3629298 7.7051463 0.15946411 0.96519583
-4.109199 7.7023535 0.15721847 0.96567744
-3.9849999 7.7009764 0.15615639 0.96590537
-3.8623827 7.6996288 0.15513283 0.96612513
-3.7414062 7.6982908 0.15414581 0.96633685
-3.3871875 7.694375 0.15140213 0.96692616
-3.1577733 7.6918259 0.14974181 0.96728265
-2.8226171 7.6881442 0.14749381 0.96776599
-2.7130272 7.6869235 0.14680427 0.96791416
-2.6044726 7.6857128 0.14614524 0.96805602
-2.4968359 7.6845312 0.14551391 0.96819168
-2.3901563 7.6833591 0.14491187 0.96832126
-2.1792967 7.681025 0.14378922 0.96856278
-1.8687891 7.6775975 0.14230376 0.96888226
-1.066875 7.6687403 0.13943695 0.96949941
-0.96867186 7.6676464 0.13918449 0.96955371
-0.77324218 7.6654882 0.13874947 0.96964765
-0.67597657 7.6644139 0.13856575 0.96968728
-0.4820703 7.6622753 0.13826407 0.96975219
-0.28894532 7.6601462 0.13805069 0.96979815
-0.19257812 7.6590719 0.13797753 0.96981406
0 7.6569333 0.13789466 0.96983171
0.19242187 7.6548142 0.13790077 0.96983057
0.48136717 7.6516309 0.13807236 0.96979362
0.57791013 7.6505566 0.13817276 0.96977192
0.77146482 7.6484079 0.13844062 0.96971422
0.86859375 7.6473632 0.13860825 0.9696781
1.0635546 7.645195 0.13900863 0.96959162
1.358457 7.6419334 0.13978317 0.9694252
1.5570703 7.6397362 0.14041427 0.96928924
1.7575976 7.6375289 0.14114089 0.96913272
2.0626562 7.63415 0.14241432 0.96885848
2.2692969 7.631875 0.14339042 0.96864837
2.37375 7.6307225 0.14391831 0.96853483
2.4789453 7.6295505 0.14447281 0.96841568
2.5849609 7.6283789 0.14505379 0.96829063
2.7997265 7.6260056 0.14630149 0.96802241
2.9085155 7.6248045 0.14696755 0.96787906
3.2412109 7.6211228 0.14914703 0.96741056
3.3543749 7.6198826 0.14993514 0.96724105
3.5843749 7.6173239 0.15161094 0.96688133
3.7013671 7.6160445 0.1524993 0.96669054
4.1839843 7.6107225 0.156409 0.96585113
1.2903515 0.93748045 0.02872402 0.99363947
1.2901952 0.9128027 0.028462524 0.99369711
1.29 0.88858396 0.028210295 0.9937529
1.2898632 0.86477536 0.027966652 0.99380654
1.2895312 0.81833982 0.02750534 0.99390852
1.2893749 0.79571289 0.027286796 0.9939568
1.2892578 0.77344728 0.027076034 0.99400324
1.2891015 0.75147462 0.026872635 0.99404824
1.3719921 0.70995116 0.027820434 0.99383885
1.4153124 0.70994139 0.028515015 0.99368542
1.5087304 0.70996094 0.030029029 0.9933514
1.7931249 0.70994139 0.034731939 0.99231422
1.9337499 0.70996094 0.037098348 0.99179268
1.9728906 0.69631833 0.037678376 0.99166489
21.148203 6.8714743 0.40046188 0.91488165
20.918438 6.5073438 0.39453155 0.91608775
20.958496 5.9464746 0.39234367 0.91653305
21.16662 5.7191305 0.39486387 0.91602021
21.589336 5.5432029 0.40141761 0.9146874
1.9337695 -0.70993161 0.037098501 0.99179268
1.7931445 -0.70994139 0.034731939 0.99231416
1.7293359 -0.70994139 0.033666 0.99254912
1.5087109 -0.70995116 0.030029029 0.99335152
1.4607812 -0.70996094 0.029250182 0.99352336
1.3719921 -0.70994139 0.027820358 0.99383891
1.2889843 -0.72986329 0.026676483 0.99409145
1.2893945 -0.79571289 0.02728672 0.99395674
1.2898437 -0.86477536 0.027966728 0.9938066
10.60248 -8.9978905 0.25043586 0.94588649
8.7931442 -7.8509078 0.21228783 0.95393521
8.8391209 -8.300498 0.21837325 0.95264786
8.8335152 -8.7231932 0.22357978 0.95154631
7.7926168 -8.9517088 0.21373962 0.95362848
7.6152735 -8.9732714 0.21195412 0.95400721
7.4212108 -8.9706936 0.209673 0.95449054
7.0451951 -8.9656935 0.20535401 0.9554072
6.6672654 -8.9383202 0.2008432 0.95636898
3.5045702 -4.8236227 0.1073769 0.97642905
3.3219726 -4.8226171 0.10544975 0.97684437
3.2541797 -4.8537207 0.10524002 0.97689277
5.50457 -8.6737404 0.185009 0.9597345
3.9869726 -8.4727831 0.16864058 0.96323103
3.8570311 -8.4713373 0.1676335 0.9634465
3.4760742 -8.4671192 0.16483825 0.96404487
3.1071093 -8.4630566 0.16236152 0.96457523
2.5145702 -8.4565134 0.15888755 0.96532011
2.3989649 -8.4552145 0.15828514 0.96544945
2.2842188 -8.4539747 0.15771095 0.96557236
2.1702538 -8.4526949 0.1571659 0.96568936
1.9446679 -8.4502144 0.15616035 0.96590483
1.6112499 -8.4465332 0.15486053 0.96618402
1.501289 -8.445303 0.15447991 0.96626574
1.2828906 -8.4429102 0.15379715 0.96641219
1.1743749 -8.4417086 0.15349486 0.96647722
1.0662695 -8.4405079 0.15321708 0.96653682
0.63724607 -8.4357615 0.15235656 0.96672165
0.53064454 -8.4345894 0.15220229 0.96675462
0.42423826 -8.4334173 0.15207344 0.96678245
0.3180078 -8.4322357 0.15196776 0.96680504
0 -8.4287205 0.1517961 0.96684182
-0.10589843 -8.4275484 0.15178657 0.96684378
-0.21185547 -8.4263868 0.15180199 0.96684057
-0.31779295 -8.4252148 0.15184043 0.96683222
-0.42382812 -8.4240332 0.15190475 0.96681875
-0.84929687 -8.4193459 0.15239708 0.96671283
-0.95617187 -8.4181643 0.15258163 0.96667331
-1.1708202 -8.4157906 0.15302299 0.96657836
-1.2786523 -8.414609 0.15328087 0.96652287
-1.6045117 -8.4109955 0.15420882 0.96632385
-1.8241796 -8.4085741 0.15495628 0.96616346
-2.0461133 -8.4061232 0.15580985 0.96598029
-2.1580079 -8.4048729 0.15627685 0.9658801
-2.270664 -8.4036427 0.15677147 0.96577376
-2.3840039 -8.4023829 0.15729408 0.96566159
-2.4981248 -8.401123 0.15784653 0.96554327
-3.3226757 -8.3920021 0.16255035 0.96453494
-3.4447265 -8.3906736 0.16335045 0.96436357
-3.5680077 -8.3893061 0.16418342 0.96418506
-3.6925781 -8.3879194 0.16505119 0.96399915
-3.8184764 -8.3865232 0.16595459 0.96380568
-3.9457812 -8.3851366 0.16689438 0.96360433
-4.0745897 -8.3836908 0.1678727 0.96339512
-4.470449 -8.3793259 0.17104073 0.96271753
-4.7430077 -8.376318 0.17335762 0.96222204
-4.8821092 -8.3747749 0.17458229 0.96196049
-5.023242 -8.3732128 0.17585182 0.96168917
-5.4595313 -8.3683987 0.1799459 0.96081465
-5.60957 -8.3667383 0.18141136 0.96050185
-5.7621093 -8.3650484 0.18293114 0.96017778
-6.0751171 -8.3615913 0.18613563 0.95949435
-6.5662694 -8.3561525 0.19139153 0.95837474
-6.7362499 -8.3542871 0.19327301 0.95797449
-6.9097071 -8.3523731 0.1952233 0.95755976
-7.0867381 -8.35042 0.19724342 0.95713001
-7.2674217 -8.3484077 0.1993373 0.95668501
-7.4520702 -8.3463764 0.2015081 0.95622355
-7.8338671 -8.3421383 0.20609649 0.95524955
-8.0314064 -8.3399801 0.20851943 0.95473546
-8.2336721 -8.3377438 0.21103348 0.95420229
-8.4408979 -8.3354292 0.21364318 0.95364934
-8.8713474 -8.3307028 0.2191674 0.95247954
-9.0950775 -8.3282223 0.22209144 0.95186102
-1.0561328 -0.91940427 0.02521801 0.99441373
-1.0555859 -0.85117185 0.024421271 0.99458981
-1.0548438 -0.74631834 0.023271332 0.99484384
-1.0547265 -0.72650391 0.023065222 0.99488938
-1.0589062 -0.70995116 0.022959938 0.99491262
-1.0882226 -0.70993161 0.023400307 0.99481535
-1.1187109 -0.70995116 0.023861922 0.99471331
-1.1503906 -0.70995116 0.024345893 0.99460644
-1.2178515 -0.70997071 0.025387535 0.99437618
-1.2537891 -0.70996094 0.02594921 0.99425226
-1.2914063 -0.70996094 0.026540259 0.99412161
-1.3719531 -0.70993161 0.027820548 0.99383903
-1.4152343 -0.70994139 0.028515318 0.99368572
-1.4607812 -0.70994139 0.029250298 0.99352336
-1.5087109 -0.70994139 0.030028991 0.99335152
-1.5592968 -0.70995116 0.030855482 0.99316907
-1.6126952 -0.70995116 0.031733818 0.99297547
-1.6692969 -0.70994139 0.032668952 0.99276912
-1.765625 -0.72485352 0.034373052 0.99239337
-1.765664 -0.67352539 0.034033623 0.99246824
-20.72459 4.4959569 0.3231501 0.91866249
-23.394716 7.9278221 0.37640488 0.90590811
-1.7665234 0.64855468 0.02867588 0.99250013
-1.7664844 0.67385739 0.02881073 0.99246508
-1.7664453 0.72519529 0.029098053 0.99239016
-1.6692969 0.70994139 0.027642287 0.99276948
-1.5592773 0.70996094 0.026107749 0.99316943
-1.5087109 0.70996094 0.025408553 0.99335176
-1.1834179 0.70995116 0.021029396 0.99449444
-1.1503711 0.70996094 0.020599671 0.99460673
-1.0882031 0.70994139 0.019799614 0.99481565
-1.0588866 0.70996094 0.019426955 0.99491292
-1.0523046 0.72486329 0.019471701 0.99490124
-1.052539 0.76470703 0.01982544 0.99480891
-1.0526562 0.78521484 0.020012168 0.99476016
-1.0529101 0.8273828 0.020405959 0.99465734
-1.0530468 0.84913087 0.020613823 0.99460298
-1.0533594 0.89396483 0.021053009 0.9944883
-1.0535156 0.91711915 0.021284599 0.9944278
-8.2508593 7.7481151 0.17247359 0.95573032
-7.6446872 7.741416 0.16578865 0.9574092
-6.5596485 7.7294235 0.15448028 0.96025586
-6.3927732 7.7275681 0.1528247 0.96067315
-6.0694337 7.7240133 0.14968926 0.96146417
-5.9126563 7.7222753 0.14820434 0.96183908
-5.4600782 7.7172656 0.1440528 0.96288782
-5.3146873 7.7156835 0.14276527 0.96321344
-4.8935547 7.7110152 0.13916557 0.9641242
-4.7577734 7.7095213 0.13804786 0.96440697
-4.6241407 7.7080469 0.13697045 0.9646799
-4.4925389 7.7066016 0.13593002 0.96494323
-4.109199 7.7023535 0.13302734 0.96567899
-3.8623827 7.6996288 0.13126163 0.96612668
-3.7414062 7.6982908 0.13042763 0.9663384
-3.5038671 7.6956639 0.12885006 0.96673864
-3.2718749 7.6930957 0.12738983 0.96710932
-3.1577733 7.6918259 0.12670124 0.96728408
-3.0449219 7.6905956 0.12604076 0.96745187
-2.7130272 7.6869235 0.12421569 0.96791559
-2.2843359 7.6821971 0.12212753 0.96844631
-2.075078 7.679873 0.12122311 0.96867627
-1.9715625 7.6787305 0.12080402 0.96878278
-1.8687891 7.6775975 0.12040756 0.96888369
-1.665078 7.6753516 0.119678 0.96906924
-1.5641406 7.6742282 0.1193441 0.96915406
-1.4637109 7.6731052 0.11903187 0.96923375
-1.2644531 7.670918 0.11846706 0.96937734
-1.066875 7.6687403 0.11798187 0.96950078
-0.96867186 7.6676464 0.11776897 0.96955514
-0.67597657 7.6644139 0.11724384 0.96968865
-0.57892579 7.6633496 0.11710723 0.96972346
-0.4820703 7.6622753 0.11698871 0.96975356
-0.096269526 7.6580176 0.11670277 0.96982652
0.096210934 7.6558886 0.11667041 0.9698348
0.28863281 7.6537595 0.1167115 0.96982431
0.38496092 7.6526852 0.11675937 0.96981204
0.48136717 7.6516309 0.11682655 0.96979499
0.57791013 7.6505566 0.11691143 0.96977329
0.86859375 7.6473632 0.11727981 0.96967947
0.96591794 7.6462693 0.11744064 0.96963871
1.1614844 7.6441112 0.11781868 0.9695425
1.2597852 7.6430173 0.11803593 0.96948701
1.358457 7.6419334 0.118273 0.96942657
1.5570703 7.6397362 0.11880817 0.96929061
1.8586718 7.6364059 0.11976063 0.96904808
2.1656249 7.6330075 0.12090363 0.96875769
2.37375 7.6307225 0.1217728 0.96853626
2.4789453 7.6295505 0.12224201 0.96841711
2.6918945 7.6271973 0.12324943 0.96816099
2.7997265 7.6260056 0.12378933 0.96802384
3.1292186 7.6223731 0.12555683 0.96757472
3.3543749 7.6198826 0.12686568 0.96724254
3.5843749 7.6173239 0.1282825 0.96688282
3.7013671 7.6160545 0.12903446 0.96669203
3.8197851 7.6147556 0.12981361 0.96649379
4.0610156 7.6120896 0.1314677 0.96607435
10.46 16.482304 0.29746649 0.92487752
10.713008 16.421171 0.29876998 0.92456126
1.2873437 0.93530273 0.024247779 0.99365449
1.2872266 0.91072261 0.02402748 0.99371183
1.2870898 0.88656247 0.02381504 0.99376726
1.2863085 0.74985349 0.022688368 0.99406135
1.2862109 0.72828126 0.022523116 0.99410444
1.2914063 0.70994139 0.022456245 0.99412191
1.3719921 0.70995116 0.023539733 0.99383914
1.4153124 0.70994139 0.024127426 0.99368572
1.4608008 0.70994139 0.024749411 0.9935236
1.5087304 0.70996094 0.025408439 0.9933517
1.5592968 0.70995116 0.026107749 0.99316937
1.6693164 0.70996094 0.027642174 0.99276936
1.7931249 0.70994139 0.029388083 0.99231458
1.9337499 0.70996094 0.031390343 0.9917931
21.224413 5.7347264 0.33501753 0.91580456
1.9749999 -0.66926754 0.031776085 0.99169248
1.9749609 -0.69703126 0.03191391 0.9916566
1.9337695 -0.70993161 0.031389959 0.99179304
1.6692969 -0.70996094 0.027641945 0.99276942
1.5592968 -0.70996094 0.026107443 0.99316937
1.5087109 -0.70995116 0.025408363 0.99335182
1.4607812 -0.70996094 0.024749527 0.99352366
1.4152734 -0.70995116 0.024127463 0.99368584
1.3719921 -0.70994139 0.02353981 0.9938392
1.3307421 -0.70993161 0.022983436 0.9939844
1.2862109 -0.72828126 0.022523193 0.99410444
1.2865429 -0.7939648 0.023037376 0.99397033
1.2869335 -0.86282223 0.023610076 0.99382085
1.287207 -0.91072261 0.024027519 0.99371189
10.60248 -8.9978905 0.21189994 0.94588894
8.7850389 -8.4599218 0.18584678 0.95238066
8.8553905 -8.967392 0.19207779 0.95083255
7.4212108 -8.9706936 0.17740898 0.95449257
7.2312303 -8.968174 0.17554756 0.95495903
3.2541797 -4.8537207 0.089046247 0.97689378
5.5045505 -8.6737299 0.15654053 0.95973641
3.9869726 -8.4727831 0.14269096 0.9632327
3.8570311 -8.4713373 0.14183898 0.96344817
3.7286131 -8.4699316 0.14101982 0.96365535
3.60166 -8.4685154 0.14023155 0.96385479
3.351836 -8.4657717 0.13874793 0.96423048
3.1071093 -8.4630566 0.13737911 0.96457684
2.9864843 -8.4617186 0.13673697 0.96473938
2.8669922 -8.4604101 0.1361232 0.96489489
2.6310742 -8.4577932 0.1349747 0.965186
2.3989649 -8.4552145 0.1339291 0.96545106
2.2842188 -8.4539747 0.13344322 0.96557397
1.9446679 -8.4502144 0.13213287 0.96590632
1.7217969 -8.4477539 0.13137615 0.96609825
1.2828906 -8.4429102 0.1301316 0.96641374
1.1743749 -8.4417086 0.12987599 0.96647877
1.0662695 -8.4405079 0.1296408 0.96653831
0.74406248 -8.4369335 0.12906398 0.96668494
0.53064454 -8.4345894 0.12878315 0.96675617
0.31802735 -8.4322262 0.12858471 0.96680659
0.21191406 -8.4310837 0.12851566 0.96682394
-0.21185547 -8.4263868 0.12844443 0.96684206
-0.42382812 -8.4240332 0.1285305 0.96682024
-0.74261719 -8.420517 0.12881233 0.96674865
-0.84929687 -8.4193459 0.12894794 0.96671432
-1.1708202 -8.4157906 0.1294764 0.96657991
-1.2786328 -8.4145899 0.12969562 0.96652442
-1.4954687 -8.4121971 0.13019718 0.96639723
-1.8241796 -8.4085741 0.13111237 0.96616495
-1.9348437 -8.4073439 0.13146259 0.96607631
-2.2706444 -8.4036226 0.13264915 0.96577543
-2.9633203 -8.3959866 0.13567477 0.96500838
-3.2017772 -8.3933496 0.1368898 0.9647007
-3.3226757 -8.3920021 0.13753876 0.96453655
-3.4447265 -8.3906736 0.13821487 0.96436518
-3.5680077 -8.3893061 0.13891976 0.96418667
-3.6925781 -8.3879194 0.13965401 0.96400076
-3.9457812 -8.3851366 0.14121437 0.96360594
-4.0745897 -8.3836908 0.14204231 0.96339679
-4.2048826 -8.3822556 0.14290123 0.96317941
-4.8821287 -8.3747749 0.14771858 0.96196216
-5.023242 -8.3732128 0.14879264 0.9616909
-5.1664648 -8.3716307 0.14990699 0.96140975
-5.3118553 -8.370039 0.1510614 0.96111828
-5.4595313 -8.3683987 0.15225768 0.96081638
-5.60957 -8.3667383 0.1534977 0.96050364
-5.7621093 -8.3650484 0.15478256 0.96017957
-5.9172654 -8.3633394 0.15611526 0.95984387
-6.3994727 -8.3579979 0.16040687 0.95876306
-6.5662498 -8.3561716 0.16194214 0.95837659
-6.7362499 -8.3542871 0.16353431 0.9579764
-7.2674217 -8.3484077 0.16866408 0.95668691
-7.4520702 -8.3463764 0.17050254 0.95622551
-7.64082 -8.3442869 0.1724076 0.95574731
-8.2336721 -8.3377438 0.178562 0.95420438
-8.4408979 -8.3354292 0.18077002 0.95365143
-9.0950775 -8.3282223 0.18791847 0.95186317
-1.0536718 -0.94079101 0.021524925 0.99436504
-1.0535156 -0.91710937 0.021284522 0.9944278
-1.0533594 -0.89396483 0.021052856 0.9944883
-1.0532031 -0.87128901 0.020829238 0.99454671
-1.0529101 -0.82737303 0.020406112 0.99465734
-1.0526757 -0.78522462 0.020012055 0.99476004
-1.0882226 -0.70993161 0.019799614 0.99481559
-1.1834179 -0.70996094 0.021029662 0.99449438
-1.2178515 -0.70997071 0.021481361 0.99437648
-1.2537891 -0.70996094 0.021956367 0.99425256
-1.2914063 -0.70996094 0.022456398 0.99412191
-1.3307226 -0.70996094 0.022983475 0.9939844
-1.3719531 -0.70993161 0.023539696 0.99383932
-1.4152734 -0.70994139 0.024127502 0.99368584
-1.4607812 -0.70994139 0.024749411 0.99352366
-1.5087109 -0.70994139 0.0254084 0.99335182
-1.5592968 -0.70995116 0.026107635 0.99316937
-1.6692969 -0.70994139 0.027642021 0.99276948
-1.7664453 -0.72519529 0.029097861 0.99239016
-1.7664844 -0.67386717 0.028810462 0.99246502
-20.639151 4.4774413 0.26330277 0.9189868
-22.395752 7.9044333 0.29609305 0.9093672
-1.7673632 0.64884764 0.02347248 0.99249691
-1.7673438 0.67417967 0.023582991 0.99246168
-1.6692969 0.70994139 0.022615815 0.99276972
-1.4152343 0.70996094 0.019740181 0.9936862
-1.3719531 0.70996094 0.019259261 0.9938395
-1.2913672 0.70996094 0.018372726 0.99412227
-1.2537891 0.70995116 0.017963599 0.9942528
-1.2178711 0.70994139 0.017574845 0.99437666
-1.1834179 0.70995116 0.017205391 0.99449462
-1.0498828 0.7232129 0.01589489 0.9949131
-1.0500195 0.74291015 0.016036376 0.9948678
-1.0505273 0.84707028 0.016824989 0.99461615
-1.0507812 0.89176756 0.017182387 0.99450201
-1.0510352 0.93842769 0.017566642 0.99437934
-8.4640036 7.7504687 0.14308022 0.95512849
-8.2508593 7.7481151 0.14111184 0.95573193
-8.0433979 7.74582 0.13921867 0.95631295
-7.8414841 7.7435937 0.13739718 0.95687211
-7.6446872 7.741416 0.13564113 0.95741081
-7.4528513 7.7392869 0.13395271 0.95792973
-7.2657027 7.7372265 0.13232547 0.95842981
-6.9045506 7.733242 0.12924899 0.95937675
-6.7301755 7.7313085 0.12779239 0.95982498
-6.5596485 7.7294235 0.12638924 0.96025735
-6.3927732 7.7275681 0.1250359 0.96067458
-6.229414 7.725791 0.12373073 0.96107709
-6.0694141 7.7240133 0.12247062 0.96146566
-5.7589059 7.7205663 0.12008358 0.96220255
-5.6080856 7.7189159 0.11895027 0.96255189
-5.4600782 7.7172656 0.11785873 0.96288919
-4.7577734 7.7095213 0.11294571 0.96440834
-4.6241407 7.7080469 0.11206444 0.96468121
-4.4925389 7.7066016 0.11121414 0.96494454
-4.3629298 7.7051463 0.11039295 0.9651987
-4.2351561 7.7037401 0.10960094 0.96544391
-3.9849999 7.7009764 0.10810199 0.96590823
-3.3872266 7.694375 0.10481102 0.96692884
-3.1577733 7.6918259 0.1036623 0.96728534
-3.0449219 7.6905956 0.10312206 0.96745306
-2.7130272 7.6869235 0.10162712 0.96791685
-2.6044726 7.6857128 0.10117088 0.96805865
-2.3901563 7.6833591 0.10031799 0.96832389
-2.2843359 7.6821971 0.099919662 0.96844751
-1.8687891 7.6775975 0.09851227 0.96888483
-1.7666405 7.676455 0.098204575 0.96898037
-1.665078 7.6753516 0.097915381 0.96907043
-1.3638672 7.6720018 0.097147904 0.96930927
-1.2644531 7.670918 0.096925616 0.96937847
-0.87078124 7.6665816 0.096194379 0.96960557
-0.77324218 7.6654882 0.096050948 0.96965015
-0.67597657 7.6644139 0.095923841 0.96968979
-0.57892579 7.6633496 0.095812187 0.96972466
-0.4820703 7.6622753 0.095716015 0.96975476
-0.19257812 7.6590719 0.095517732 0.96981657
-0.096249998 7.6579981 0.095481224 0.96982777
0 7.6569333 0.095460854 0.96983421
0.19242187 7.6548142 0.095463485 0.96983308
0.28863281 7.6537595 0.095487438 0.96982545
0.38496092 7.6526852 0.095527418 0.96981317
0.48136717 7.6516309 0.0955825 0.96979612
0.57791013 7.6505566 0.095652729 0.96977443
0.67458981 7.6494823 0.09573818 0.96974796
0.77146482 7.6484079 0.095838167 0.96971673
0.96591794 7.6462693 0.096084863 0.96963984
1.0635546 7.645195 0.096232258 0.96959418
1.358457 7.6419334 0.096766621 0.9694277
1.4575391 7.6408396 0.096976429 0.96936226
1.7575976 7.6375289 0.097707517 0.96913528
1.8586718 7.6364059 0.097984619 0.96904927
2.1656249 7.6330075 0.098918147 0.96875882
2.2692969 7.631875 0.099264488 0.968651
2.585 7.6283789 0.10041615 0.96829319
2.6918945 7.6271973 0.10083832 0.96816218
2.7997265 7.6260056 0.10128009 0.96802503
3.0183594 7.6235838 0.10222317 0.96773207
3.1292186 7.6223731 0.10272625 0.96757597
3.2412109 7.6211228 0.10324974 0.96741331
3.3543749 7.6198826 0.10379608 0.96724379
3.8197851 7.6147556 0.10620895 0.96649504
4.0609765 7.6120701 0.10756138 0.96607578
1.2842578 0.90863281 0.019613419 0.99372649
1.284043 0.86088866 0.019273452 0.99383491
1.283789 0.81474608 0.018956946 0.993936
1.2837304 0.79221678 0.0188068 0.99398369
1.2834375 0.72671872 0.018388061 0.99411732
1.3307421 0.70994139 0.018804129 0.99398458
1.3719921 0.70995116 0.01925949 0.99383938
1.4608008 0.70994139 0.020248909 0.99352384
