# .PCD v0.7 - Point Cloud Data file format
VERSION 0.7
FIELDS x y z intensity
SIZE 4 4 4 4
TYPE F F F F
COUNT 1 1 1 1
WIDTH 1082
HEIGHT 1
VIEWPOINT 0 0 0 1 0 0 0
POINTS 1082
DATA ascii
-3.9272656 -6.7369041 -0.40001273 0.96924961
-4.0119138 -6.68749 -0.40004084 0.9692474
-4.179297 -6.5854883 -0.40009636 0.96924311
-4.5060935 -6.3688769 -0.40020478 0.96923512
-4.6653514 -6.2544627 -0.40025756 0.96923101
-4.743906 -6.1957517 -0.40028358 0.96922898
-4.8216405 -6.1360545 -0.40030941 0.96922714
-4.8987107 -6.0753708 -0.40033492 0.96922517
-4.9749804 -6.0137205 -0.40036017 0.9692232
-5.050488 -5.9511132 -0.40038523 0.96922123
-5.1990623 -5.8230176 -0.40043449 0.9692176
-5.3444138 -5.6912107 -0.40048262 0.9692139
-5.4158201 -5.6239257 -0.40050632 0.96921217
-5.5560741 -5.48667 -0.40055275 0.96920872
-5.6249218 -5.416738 -0.40057558 0.96920693
-1.0296093 -0.91929686 -0.070804253 0.99448681
-1.0299219 -0.8740527 -0.069292031 0.99460423
-1.0300781 -0.85214841 -0.068575554 0.99465978
-1.0302148 -0.83068359 -0.067884594 0.99471349
-1.0303515 -0.8096289 -0.067217328 0.99476528
-1.0305859 -0.76875001 -0.06595245 0.99486357
-1.0308398 -0.72931641 -0.06477356 0.99495512
-1.1187109 -0.70996094 -0.067965582 0.99470717
-1.1504296 -0.70995116 -0.069344096 0.99460012
-1.2178515 -0.70994139 -0.072311632 0.9943698
-1.3307421 -0.70995116 -0.077368923 0.99397719
-1.4608203 -0.70996094 -0.083313823 0.99351573
-1.6127343 -0.70994139 -0.090387799 0.99296725
-9.2812109 -3.2757127 -0.50487834 0.96134585
-9.3219337 -3.158916 -0.50489175 0.96134472
-9.3611326 -3.041621 -0.50490469 0.96134371
-9.4350386 -2.8055272 -0.50492895 0.96134204
-9.5347261 -2.4481151 -0.50496173 0.96133941
-9.5935936 -2.2078125 -0.50498104 0.96133798
-9.6463671 -1.9660937 -0.50499833 0.96133673
-9.6704683 -1.8447363 -0.50500619 0.96133614
-9.7335157 -1.4790039 -0.50502676 0.96133459
-9.7514448 -1.3565918 -0.50503254 0.96133417
-9.8076563 -0.86497068 -0.50505072 0.96133274
-9.833437 -0.49470702 -0.50505888 0.9613322
-9.8389063 -0.37109375 -0.50506061 0.96133208
-9.8428316 -0.24742188 -0.50506175 0.9613319
-9.8451557 -0.12371094 -0.5050624 0.96133196
-9.3362112 0.11733398 -0.504893 0.96328849
-9.3303127 0.3519043 -0.5048908 0.96328849
-9.3251171 0.46913084 -0.50488895 0.96328861
-9.3184376 0.58625978 -0.50488657 0.96328878
-9.3102732 0.70332032 -0.50488377 0.96328902
-9.2895117 0.93702143 -0.50487661 0.96328962
-9.2769527 1.0536816 -0.50487232 0.9632898
-9.2628908 1.1701758 -0.50486749 0.96329015
-9.247344 1.286455 -0.50486219 0.96329057
-9.1919527 1.6340137 -0.50484341 0.96329188
-9.1234179 1.9792187 -0.50482029 0.96329355
-9.0418358 2.321543 -0.50479281 0.96329552
-8.9802732 2.5479393 -0.50477213 0.96329701
-8.9130077 2.7726758 -0.50474954 0.96329862
-8.877265 2.8843749 -0.50473756 0.96329945
-8.8401175 2.9956348 -0.50472504 0.96330029
-1.5593359 0.70994139 -0.092646442 0.99316013
-1.4608203 0.70994139 -0.087826647 0.99351484
-1.3307812 0.70994139 -0.081559293 0.99397618
-1.2914063 0.70996094 -0.079688564 0.99411398
-1.253828 0.70993161 -0.077913933 0.99424475
-1.1834375 0.70994139 -0.074625321 0.99448699
-1.1504296 0.70995116 -0.073099971 0.99459928
-1.0882617 0.70993161 -0.070261002 0.9948085
-1.0301563 0.72881836 -0.068236046 0.99495775
-1.0300391 0.74833006 -0.068845592 0.99491286
-1.0298828 0.76818359 -0.069476776 0.99486643
-1.0294921 0.8300879 -0.071510732 0.99471647
-1.0290234 0.89577144 -0.073773958 0.99454975
-5.3967185 5.0678515 -0.40032747 0.9707793
-5.2671094 5.2013183 -0.40028426 0.97078228
-5.2010546 5.2667966 -0.40026224 0.97078389
-4.9287109 5.5202146 -0.40017143 0.97079051
-4.8586717 5.5813866 -0.40014812 0.97079217
-4.6440625 5.7595215 -0.4000766 0.97079724
-4.5710154 5.8170605 -0.40005225 0.97079909
-4.4973044 5.8736715 -0.40002769 0.97080082
-4.0405273 6.193418 -0.39987555 0.97081172
-3.883086 6.2921581 -0.3998231 0.97081554
-3.8034766 6.3400388 -0.39979661 0.97081745
-3.7232616 6.3868942 -0.3997699 0.97081935
-3.6424608 6.4327536 -0.39974299 0.97082132
-3.5610936 6.4775681 -0.39971587 0.97082329
-3.4791796 6.5213671 -0.39968863 0.9708252
-3.3967187 6.5641403 -0.39966118 0.97082716
-3.31375 6.6058397 -0.39963356 0.97082913
-3.2302344 6.6465039 -0.39960575 0.97083116
-3.14625 6.6860743 -0.39957777 0.97083324
-2.8914256 6.7984862 -0.39949295 0.9708392
-2.2817969 7.022656 -0.39929011 0.97085381
-2.1932421 7.0502343 -0.39926064 0.97085595
-2.0150781 7.1020603 -0.39920139 0.97086024
-1.7455468 7.1713572 -0.39911175 0.97086674
-1.6551952 7.1922069 -0.39908165 0.97086877
-1.4736913 7.2304101 -0.3990213 0.97087324
-1.1998632 7.27916 -0.39893028 0.97087973
-1.1082031 7.2931151 -0.39889976 0.97088188
-0.83236325 7.3280077 -0.39880806 0.97088856
-0.74015623 7.3373241 -0.3987774 0.97089076
-0.5554297 7.3524804 -0.39871597 0.97089511
-0.46296874 7.3583007 -0.39868525 0.97089738
-0.27785155 7.3664646 -0.39862373 0.97090185
-0.18523437 7.3688083 -0.39859295 0.97090405
-0.092636719 7.3699899 -0.39856216 0.97090626
0 7.370029 -0.39853135 0.97090834
0.092578121 7.3688769 -0.39850059 0.97091061
0.2776953 7.3630662 -0.39843908 0.97091508
0.37017578 7.3584275 -0.39840835 0.97091728
0.46257812 7.3526363 -0.39837769 0.97091949
0.64710939 7.3375583 -0.39831632 0.9709239
0.73919922 7.3282714 -0.39828575 0.97092617
1.1974218 7.2646384 -0.39813349 0.97093701
1.5604492 7.1931152 -0.39801291 0.97094572
1.7404687 7.1505466 -0.39795309 0.97095001
1.830039 7.1275778 -0.39792338 0.97095215
2.0082812 7.0783005 -0.39786422 0.97095639
2.0969141 7.0519824 -0.39783478 0.97095847
2.1852343 7.0245309 -0.39780548 0.97096068
2.5346484 6.9038672 -0.39768943 0.97096896
2.6210155 6.8709664 -0.39766079 0.97097111
2.7924609 6.8019433 -0.39760384 0.97097522
2.8774998 6.7658496 -0.39757565 0.97097719
3.0461719 6.6904588 -0.39751968 0.97098124
3.1298046 6.6511817 -0.3974919 0.97098327
3.2955077 6.569541 -0.39743689 0.97098714
3.5400391 6.4393454 -0.39735579 0.97099298
3.6204295 6.3939157 -0.39732909 0.97099495
3.7002733 6.3474998 -0.39730263 0.9709968
3.7794726 6.3000779 -0.39727634 0.97099876
4.0134568 6.1519432 -0.39719874 0.97100431
4.3164062 5.9410253 -0.39709827 0.97101152
4.390449 5.8859472 -0.39707375 0.97101331
4.463789 5.8299508 -0.3970494 0.97101504
4.6083007 5.7152538 -0.39700148 0.97101855
4.679492 5.6565528 -0.3969779 0.97102022
4.8884959 5.4752049 -0.39690864 0.97102523
5.0239844 5.3500195 -0.3968637 0.97102845
5.0905466 5.2861814 -0.39684165 0.97103
5.1562891 5.2214942 -0.39681992 0.97103161
5.221211 5.1560254 -0.3967984 0.9710331
5.3485546 5.0226464 -0.3967562 0.9710362
5.4109764 4.9547753 -0.39673552 0.97103763
7.2612109 5.7058105 -0.49937066 0.96368271
1.2585937 0.93883789 -0.084908485 0.99372983
1.2590625 0.86728513 -0.082672879 0.99389434
1.2598242 0.73441404 -0.078855358 0.99417549
1.2599413 0.71341795 -0.078295022 0.99421674
1.2913867 0.70996094 -0.079688646 0.99411404
1.3307031 0.70995116 -0.081559405 0.99397641
1.4152539 0.70996094 -0.085619502 0.99367744
1.4607812 0.70995116 -0.087826647 0.99351496
1.6126952 0.70995116 -0.095283508 0.99296635
1.6692969 0.70996094 -0.098091312 0.99275976
1.8610938 0.70993161 -0.10771347 0.9920525
1.9337499 0.70993161 -0.1113919 0.99178213
2.0241015 0.6859082 -0.11556808 0.9914754
2.0241015 0.65765625 -0.11508755 0.99151075
8.8089447 2.7403123 -0.49885944 0.96371925
8.9054298 2.4062011 -0.49882773 0.96372139
9.0813084 1.6143554 -0.49877009 0.96372563
9.1188278 1.3855957 -0.4987579 0.96372634
9.1874218 0.81026363 -0.4987357 0.96372795
9.2047853 0.57911134 -0.49873018 0.96372831
9.2221479 0.11588867 -0.49872488 0.96372873
9.2112885 -0.46341795 -0.49872911 0.96372849
9.2048044 -0.57910156 -0.4987314 0.96372825
9.1643362 -1.0409082 -0.49874532 0.96372724
9.1506052 -1.1560059 -0.49875003 0.963727
9.1354494 -1.2708985 -0.49875519 0.96372664
9.1188669 -1.385625 -0.49876082 0.96372616
9.0605268 -1.7283887 -0.49878058 0.96372479
9.0382032 -1.8421484 -0.49878809 0.96372432
9.0145111 -1.9556054 -0.49879611 0.96372366
8.9627924 -2.1816015 -0.49881354 0.96372259
8.905508 -2.4062402 -0.49883285 0.9637211
8.8747854 -2.5180175 -0.49884313 0.9637202
8.809062 -2.7403612 -0.49886522 0.96371877
2.024121 -0.65768552 -0.11508739 0.99151063
2.024121 -0.68592775 -0.11556786 0.99147528
1.9337109 -0.70994139 -0.1113908 0.99178225
1.7930859 -0.70997071 -0.10428516 0.99230438
1.6692578 -0.70994139 -0.098090477 0.99275988
1.5592577 -0.70996094 -0.092645608 0.99316037
1.4607617 -0.70995116 -0.087825924 0.99351501
1.4152343 -0.70997071 -0.085619047 0.9936775
1.3719531 -0.70996094 -0.083532602 0.99383104
1.2596874 -0.75572264 -0.079436265 0.99413276
1.2594531 -0.79929686 -0.080662534 0.9940424
1.2591797 -0.84425777 -0.081978798 0.99394548
1.259082 -0.86729491 -0.082672767 0.99389422
1.2589062 -0.89072263 -0.083392069 0.99384141
1.2586132 -0.93883789 -0.08490856 0.99372977
5.9428515 -4.5502734 -0.40474093 0.97046202
5.7934179 -4.5524511 -0.39842707 0.97091597
5.6543751 -4.6777148 -0.39682597 0.97103119
5.5991211 -4.7517481 -0.39710456 0.97101092
5.5356054 -4.8188376 -0.39686561 0.97102821
5.4748826 -4.8882422 -0.39688587 0.97102684
5.4133201 -4.9569139 -0.39690638 0.97102529
5.3508787 -5.0248337 -0.39692721 0.9710238
5.2875781 -5.0919433 -0.39694831 0.97102231
5.1585155 -5.2237597 -0.39699137 0.97101927
5.0927539 -5.2884569 -0.39701331 0.97101766
5.0261326 -5.3523536 -0.39703551 0.97101611
4.958828 -5.415381 -0.39705795 0.97101438
4.7519922 -5.5994239 -0.39712688 0.97100943
4.6815233 -5.6590233 -0.39715037 0.97100776
4.5383787 -5.7755761 -0.39719811 0.97100437
4.4657421 -5.8325095 -0.39722228 0.97100252
4.243535 -5.9978027 -0.39729628 0.97099721
4.1680861 -6.0510449 -0.39732143 0.97099537
3.8597851 -6.2544141 -0.39742413 0.97098809
3.7811327 -6.3028417 -0.39745033 0.97098619
3.701875 -6.3502831 -0.39747673 0.97098428
3.4605858 -6.4866114 -0.39755702 0.9709785
3.1311717 -6.65415 -0.39766669 0.97097051
2.9633985 -6.7316699 -0.39772254 0.97096652
2.8787694 -6.7688279 -0.39775071 0.97096461
2.7936914 -6.8049607 -0.39777905 0.97096252
2.7081444 -6.8400097 -0.39780754 0.97096056
2.1861718 -7.0276661 -0.39798117 0.97094792
2.0091796 -7.0814257 -0.39804009 0.97094375
1.8308593 -7.1307225 -0.39809936 0.97093952
1.7412305 -7.1537108 -0.39812919 0.97093737
1.4707031 -7.2158985 -0.39821917 0.97093087
0.85359371 -4.8018847 -0.2637307 0.98065245
0.66498047 -4.7803221 -0.26098299 0.98085207
0.60636717 -4.8001466 -0.26162902 0.98080516
0.55191404 -4.859375 -0.26445791 0.98059958
0.73949218 -7.3315525 -0.39846233 0.97091335
0.55513668 -7.3489547 -0.39852363 0.97090888
0.18527344 -7.3698435 -0.39864656 0.97090006
0.092617184 -7.372148 -0.39867735 0.97089785
-0.37058592 -7.36624 -0.39883131 0.97088689
-0.46318358 -7.3616014 -0.39886206 0.9708845
-0.64812499 -7.3487496 -0.39892355 0.97088021
-0.74046874 -7.3405857 -0.39895424 0.97087801
-0.83273435 -7.3312793 -0.39898491 0.97087574
-1.0168359 -7.3091598 -0.39904606 0.97087133
-1.291914 -7.2672849 -0.39913741 0.97086483
-1.3832421 -7.2510548 -0.39916775 0.97086251
-1.5652539 -7.2150779 -0.39922822 0.97085828
-1.7463281 -7.1745605 -0.39928836 0.97085387
-1.8364843 -7.1525779 -0.39931831 0.97085178
-1.9263672 -7.1294532 -0.39934814 0.97084969
-2.1052344 -7.0798535 -0.39940754 0.9708454
-2.1942186 -7.0533786 -0.3994371 0.97084314
-2.2828124 -7.0257711 -0.39946651 0.97084105
-2.5465429 -6.9362497 -0.39955404 0.97083479
-2.6337109 -6.9041891 -0.39958301 0.97083277
-2.8926561 -6.8015037 -0.39966896 0.97082651
-2.9781249 -6.7650976 -0.39969733 0.97082448
-3.0630858 -6.7276073 -0.3997255 0.97082251
-3.1476562 -6.6890621 -0.39975357 0.97082037
-3.2316797 -6.6494236 -0.39978144 0.97081846
-3.3152342 -6.608779 -0.39980918 0.97081631
-3.4807422 -6.5242481 -0.39986411 0.9708125
-3.5626562 -6.4804392 -0.39989132 0.97081059
-3.7248828 -6.3897166 -0.39994514 0.97080672
-3.8051171 -6.3428125 -0.39997175 0.97080487
-3.8848045 -6.2949414 -0.39999816 0.97080284
-3.9638672 -6.2460251 -0.40002441 0.970801
-4.1972656 -6.0933495 -0.40010181 0.97079551
-4.2737889 -6.0405469 -0.40012717 0.97079355
-4.4247656 -5.9319725 -0.40017727 0.97079003
-4.5730467 -5.8195996 -0.40022638 0.97078639
-4.7899609 -5.6441503 -0.4002983 0.97078127
-5.0001559 -5.4605274 -0.40036795 0.97077632
-5.0687108 -5.3975878 -0.40039068 0.97077453
-5.3990622 -5.0700684 -0.40050015 0.97076672
-1.028711 -0.94198239 -0.075424157 0.9944281
-1.0288867 -0.91862303 -0.074584313 0.99448997
-1.0292187 -0.87344724 -0.072992325 0.99460715
-1.0293359 -0.85155272 -0.072238423 0.99466282
-1.0296289 -0.80907226 -0.070808753 0.99476814
-1.0297656 -0.78846675 -0.070131034 0.99481809
-1.0298828 -0.76821285 -0.069476888 0.99486637
-1.0882422 -0.70995116 -0.070260696 0.99480855
-1.1187109 -0.70996094 -0.071646385 0.99470639
-1.1504296 -0.70995116 -0.073099591 0.99459928
-1.1834375 -0.70996094 -0.074624822 0.99448693
-1.4152734 -0.70996094 -0.085618854 0.99367738
-1.50875 -0.70995116 -0.090164259 0.99334276
-1.5592968 -0.70995116 -0.09264572 0.99316025
-1.7293359 -0.70996094 -0.10108547 0.99253947
-1.7879101 -0.70790035 -0.10398185 0.99232656
-1.7877538 -0.65633786 -0.10298053 0.99240017
-8.8401947 -2.9956932 -0.50473148 0.96329993
-8.8773823 -2.8844335 -0.5047437 0.96329898
-9.0118551 -2.4349706 -0.50478786 0.96329588
-9.0419531 -2.3215821 -0.50479782 0.96329504
-9.1234961 -1.9792383 -0.50482458 0.96329325
-9.1706247 -1.7493945 -0.50483996 0.96329218
-9.2119331 -1.518418 -0.50485343 0.96329123
-9.2304096 -1.4025683 -0.50485945 0.96329075
-9.2474022 -1.2864746 -0.50486499 0.96329033
-9.262969 -1.1701758 -0.50487 0.96328986
-9.2769918 -1.0537012 -0.50487459 0.96328968
-9.289609 -0.93706053 -0.50487864 0.96328926
-9.3006639 -0.82025391 -0.50488222 0.9632892
-9.3184767 -0.5862695 -0.50488782 0.96328866
-9.3340235 -0.23463866 -0.50489265 0.96328837
-8.8779297 -9.7656248e-06 -0.50474083 0.96505606
-8.8525782 0.66873044 -0.50473166 0.9650566
-8.8433981 0.77991211 -0.5047285 0.9650569
-8.8074608 1.1126465 -0.50471622 0.96505791
-8.7927341 1.2232031 -0.50471115 0.96505809
-8.7765627 1.3336035 -0.50470573 0.96505851
-8.7590237 1.4437402 -0.50469977 0.96505886
-8.7197456 1.6633691 -0.50468647 0.96505976
-8.674922 1.8819336 -0.50467134 0.96506083
-8.624609 2.0992479 -0.50465435 0.96506196
-8.5974216 2.2074218 -0.50464523 0.96506244
-8.5388279 2.4226756 -0.50462556 0.96506405
-8.5075779 2.5297265 -0.50461501 0.96506464
-8.440937 2.7426074 -0.50459266 0.96506619
-8.3689451 2.9537303 -0.50456852 0.9650678
-1.7887695 0.7082324 -0.10937881 0.99232173
-1.7293359 0.70994139 -0.10628074 0.99253833
-1.5593359 0.70994139 -0.097407416 0.99315906
-1.50875 0.70995116 -0.094798356 0.99334174
-1.3720117 0.70994139 -0.087826423 0.99382991
-1.2914063 0.70996094 -0.083783723 0.99411309
-1.253828 0.70993161 -0.081917912 0.99424386
-1.2178906 0.70993161 -0.080145568 0.99436802
-1.1834375 0.70994139 -0.078460388 0.99448615
-1.1504296 0.70995116 -0.076856613 0.99459851
-1.1187109 0.70996094 -0.075328633 0.99470562
-1.0882617 0.70993161 -0.073871993 0.99480772
-1.0589062 0.70995116 -0.072481498 0.99490529
-1.0294532 0.72833985 -0.071694829 0.99496037
-1.0292969 0.74784178 -0.072334632 0.9949156
-1.0291992 0.76767576 -0.072997585 0.99486905
-1.0289453 0.80850583 -0.07439594 0.99477088
-1.0287499 0.82949215 -0.075133093 0.99471945
-1.0283203 0.89512694 -0.077509269 0.99455273
-1.0279492 0.94126952 -0.07924179 0.99443138
-4.9457617 5.0083103 -0.40017769 0.97219354
-4.8178515 5.1304688 -0.40013504 0.9721964
-4.5529685 5.3648634 -0.40004677 0.97220248
-4.484961 5.4213672 -0.40002406 0.97220397
-4.4162107 5.4769626 -0.40000114 0.97220564
-4.2059178 5.6385446 -0.3999311 0.97221035
-4.1344919 5.6906052 -0.39990729 0.97221202
-4.0624413 5.7417579 -0.39988327 0.97221363
-3.9896679 5.7920117 -0.39985907 0.97221535
-3.7678709 5.9371777 -0.39978519 0.9722203
-3.6170311 6.0292087 -0.39973494 0.97222382
-3.5407422 6.0738182 -0.39970955 0.97222555
-3.4639256 6.1174316 -0.39968398 0.97222728
-3.2302539 6.2424121 -0.39960617 0.9722327
-3.1513476 6.2821093 -0.39957991 0.97223449
-3.0719531 6.3208203 -0.39955348 0.97223622
-2.9920897 6.3584962 -0.39952689 0.972238
-2.9117577 6.3951364 -0.39950019 0.97223997
-2.6681445 6.499033 -0.3994191 0.9722454
-2.5035937 6.5631051 -0.39936432 0.97224933
-2.3375781 6.6230664 -0.39930907 0.97225291
-2.170078 6.6787696 -0.39925337 0.97225684
-2.0858593 6.705029 -0.39922529 0.97225875
-1.9164062 6.7543845 -0.39916897 0.97226262
-1.4879687 6.8589745 -0.39902648 0.97227228
-1.3149804 6.8931637 -0.39896891 0.97227633
-1.2281445 6.9086618 -0.39894003 0.9722783
-1.1411718 6.9230371 -0.39891112 0.97228026
-1.0540234 6.9363279 -0.39888212 0.97228223
-0.44033203 6.9985156 -0.39867812 0.9722963
-0.35230467 7.0029979 -0.39864883 0.9722982
0.17613281 7.0065331 -0.3984732 0.9723103
0.44 6.9933786 -0.39838552 0.97231632
0.7030859 6.970293 -0.39829811 0.97232234
0.79058594 6.9604101 -0.39826903 0.97232425
0.87792969 6.9494138 -0.39824 0.97232628
0.96507812 6.9373341 -0.39821106 0.97232825
1.1389453 6.9098926 -0.39815331 0.97233224
1.570039 6.8222947 -0.39801013 0.97234195
1.6555078 6.8015332 -0.3979817 0.97234398
1.7407031 6.779707 -0.39795345 0.97234595
1.9102734 6.7328711 -0.39789715 0.97234976
2.2455468 6.626543 -0.39778581 0.97235733
2.6562891 6.4702439 -0.39764944 0.97236669
2.9772069 6.3269043 -0.39754295 0.97237408
3.2904687 6.1677246 -0.39743903 0.97238117
3.3675194 6.1254883 -0.39741346 0.9723829
3.4440234 6.0822949 -0.39738807 0.97238463
3.5199218 6.0381641 -0.39736289 0.97238636
3.5952733 5.9930758 -0.39733785 0.97238815
3.7443359 5.9000778 -0.39728844 0.97239149
3.9632812 5.7537012 -0.39721584 0.97239655
4.0350389 5.7031446 -0.39719203 0.97239804
4.3155079 5.4919238 -0.39709908 0.97240436
4.3839064 5.4369235 -0.39707637 0.97240603
4.4516015 5.3810935 -0.3970539 0.97240764
4.5186329 5.3244433 -0.39703169 0.97240913
4.5849609 5.266963 -0.39700973 0.9724105
4.6505079 5.2086325 -0.39698797 0.97241211
4.8427343 5.0288477 -0.39692429 0.97241646
4.9670701 4.9050584 -0.39688313 0.97241926
5.0280662 4.8419824 -0.39686292 0.97242069
5.0882421 4.7781835 -0.39684299 0.97242206
5.1476169 4.7136621 -0.39682326 0.97242337
5.432168 4.3800974 -0.39672911 0.97242975
1.2577343 0.93818355 -0.089211121 0.99373317
1.2578906 0.91393554 -0.088401027 0.99378991
1.258086 0.89012694 -0.087618828 0.99384451
1.2582031 0.86668944 -0.086863935 0.99389756
1.2585156 0.82104492 -0.08543171 0.99399775
1.2591015 0.71295899 -0.082266845 0.99421966
1.3307031 0.70995116 -0.085750692 0.99397552
1.3719531 0.70995116 -0.087826423 0.99383008
1.4152539 0.70996094 -0.09001945 0.99367648
1.5592577 0.70995116 -0.097407259 0.99315935
1.6126952 0.70995116 -0.10018036 0.99296528
1.6692969 0.70995116 -0.10313221 0.99275863
1.7292773 0.70992184 -0.10628089 0.99253857
2.0240624 0.68588865 -0.12150276 0.99147427
8.3807812 2.6071289 -0.49900186 0.96544665
8.412734 2.5015428 -0.49899137 0.96544725
8.4433203 2.3955858 -0.49898133 0.96544802
8.472578 2.2892675 -0.4989717 0.96544868
8.5005274 2.1825585 -0.49896255 0.96544933
8.5271482 2.0755467 -0.49895382 0.96544981
8.5524216 1.9681737 -0.49894553 0.96545041
8.5763283 1.8605468 -0.49893767 0.96545094
8.658515 1.4271972 -0.49891081 0.96545279
8.6756439 1.3182714 -0.49890524 0.96545327
8.7058592 1.0998046 -0.49889544 0.96545392
8.7306252 0.88065428 -0.49888742 0.9654544
8.7499018 0.66097653 -0.49888128 0.96545476
8.7574806 0.5509668 -0.49887884 0.96545494
8.7684956 0.33073241 -0.49887547 0.96545517
8.7719135 0.22049804 -0.49887443 0.96545535
8.773984 0.11024414 -0.49887386 0.96545541
8.7746878 -9.7656248e-06 -0.49887374 0.96545535
8.7719526 -0.22051758 -0.49887487 0.96545517
8.7685156 -0.33074218 -0.49887615 0.96545511
8.7636719 -0.44088867 -0.49887785 0.96545506
8.7574997 -0.55098629 -0.49888003 0.96545488
8.7499218 -0.66099608 -0.49888265 0.9654547
8.7409763 -0.7708984 -0.49888575 0.96545452
8.7306833 -0.8806836 -0.4988893 0.96545416
8.6201954 -1.6444043 -0.49892685 0.96545166
8.5989647 -1.7526367 -0.498934 0.96545118
8.5524998 -1.9682226 -0.49894968 0.96545005
8.5006056 -2.1825879 -0.49896717 0.96544898
8.4128122 -2.5016015 -0.49899668 0.96544689
8.3808784 -2.6071582 -0.4990074 0.96544623
2.0240428 -0.65768552 -0.1209972 0.99150962
2.0240233 -0.68591797 -0.12150272 0.99147439
1.8610547 -0.70997071 -0.11324779 0.99205136
1.7292968 -0.70996094 -0.10627968 0.99253845
1.6692578 -0.70995116 -0.10313141 0.99275881
1.6126952 -0.70996094 -0.10017933 0.99296528
1.5086719 -0.70997071 -0.094797663 0.99334198
1.3719531 -0.70996094 -0.087825507 0.99383008
1.2913476 -0.70995116 -0.083783224 0.99411333
1.2586328 -0.79876953 -0.084752768 0.99404538
1.2585156 -0.8210547 -0.085431859 0.99399775
1.258086 -0.89012694 -0.087619014 0.99384451
1.2579297 -0.91394532 -0.088400915 0.99378973
1.2577343 -0.93821287 -0.089211196 0.99373311
5.9327927 -4.5425487 -0.42481863 0.97050685
5.6328321 -4.541904 -0.41138518 0.97142601
5.266211 -4.5843163 -0.39695486 0.97241437
5.1498437 -4.7156835 -0.3969937 0.97241169
4.9692187 -4.9071679 -0.39705399 0.97240752
4.6524997 -5.2108884 -0.39715952 0.97240037
4.520586 -5.3267674 -0.39720351 0.97239727
4.4535155 -5.3834472 -0.39722583 0.97239584
4.3858204 -5.4392967 -0.39724842 0.97239417
4.3173437 -5.4942966 -0.39727122 0.97239268
4.2482028 -5.5484376 -0.39729425 0.97239107
4.1784177 -5.6016989 -0.3973175 0.97238946
3.892617 -5.8059568 -0.39741275 0.97238296
3.8195899 -5.8547754 -0.39743704 0.97238123
3.7459373 -5.9026856 -0.39746162 0.97237957
3.6716795 -5.9496384 -0.3974863 0.97237796
3.3689647 -6.1281638 -0.39758712 0.97237104
3.291914 -6.1704197 -0.39761275 0.97236925
3.2143164 -6.2117186 -0.39763862 0.97236741
3.1362109 -6.2520213 -0.39766461 0.97236568
2.8989453 -6.3670411 -0.39774361 0.97236025
2.8188672 -6.4033985 -0.39777023 0.97235847
2.6574414 -6.4730954 -0.39782396 0.97235471
2.5760546 -6.5064158 -0.39785102 0.97235286
2.4120898 -6.5699997 -0.39790565 0.97234911
2.2465234 -6.6294727 -0.39796072 0.97234529
2.0794921 -6.6847458 -0.39801627 0.9723416
1.9111133 -6.7358494 -0.39807227 0.97233772
1.7414843 -6.7827148 -0.39812872 0.97233385
1.65625 -6.8045602 -0.39815706 0.97233182
1.5707421 -6.8252831 -0.39818549 0.97233003
1.4849218 -6.8449998 -0.39821401 0.97232801
1.3988671 -6.8636227 -0.39824268 0.97232598
0.91187495 -4.7803612 -0.2766802 0.98069119
0.85339844 -4.8009472 -0.27722964 0.98065329
0.79123044 -4.8003712 -0.27659932 0.98069674
0.72925782 -4.7995996 -0.27600563 0.98073781
0.60605466 -4.7973828 -0.27491498 0.98081315
0.44017577 -6.9965038 -0.39856148 0.97230411
0.35226563 -7.0019922 -0.39859068 0.97230214
0.26425782 -7.0063672 -0.39861992 0.97230017
0.17617187 -7.0096579 -0.39864922 0.97229815
0.088085935 -7.0118065 -0.39867851 0.97229624
0 -7.0128808 -0.39870781 0.97229421
-0.088144526 -7.0128613 -0.39873707 0.97229213
-0.26439452 -7.0094528 -0.39879566 0.97228813
-0.35249999 -7.0061131 -0.3988249 0.97228605
-0.4405078 -7.0016308 -0.39885417 0.97228414
-0.52849609 -6.9960446 -0.39888343 0.97228217
-0.61642575 -6.9893746 -0.39891261 0.97228009
-0.70425779 -6.9815722 -0.39894179 0.97227818
-0.79199219 -6.9727049 -0.39897093 0.97227609
-0.96708983 -6.9516015 -0.39902917 0.97227216
-1.0544531 -6.9393945 -0.39905813 0.97227019
-1.1416405 -6.9261131 -0.39908713 0.97226816
-1.3155469 -6.8962498 -0.39914489 0.97226411
-1.746582 -6.8024511 -0.39928803 0.9722544
-1.8320702 -6.7804394 -0.3993164 0.97225249
-1.9172655 -6.7573829 -0.39934471 0.97225046
-2.3385937 -6.6259861 -0.39948463 0.97224087
-2.6692967 -6.5018945 -0.39959443 0.97223341
-2.9130468 -6.3979783 -0.39967531 0.97222781
-3.0733006 -6.3236032 -0.39972845 0.97222418
-3.2316797 -6.2451758 -0.39978102 0.9722206
-3.310117 -6.2044821 -0.39980704 0.97221881
-3.3880272 -6.1627636 -0.3998329 0.97221714
-3.6943555 -5.9862986 -0.39993453 0.97221005
-3.7694921 -5.9397755 -0.39995947 0.97220838
-3.8441014 -5.8923044 -0.39998421 0.97220665
-3.9914453 -5.7945504 -0.40003312 0.97220331
-4.1362891 -5.6931052 -0.4000811 0.97219998
-4.4181638 -5.4793749 -0.40017456 0.97219354
-4.4868946 -5.4237304 -0.40019736 0.97219205
-4.5549607 -5.3672071 -0.40021992 0.9721905
-4.6222653 -5.3098435 -0.40024221 0.97218907
-4.819922 -5.1326952 -0.40030771 0.97218454
-4.8843164 -5.0719919 -0.40032905 0.97218305
-4.9479294 -5.010488 -0.40035015 0.97218156
-5.0107422 -4.948164 -0.40037096 0.97218019
-1.0281249 -0.91796875 -0.078359909 0.99449313
-1.0283008 -0.89512694 -0.077509269 0.99455279
-1.0292187 -0.76770508 -0.072997548 0.99486893
-1.0293164 -0.74786133 -0.072334595 0.99491549
-1.0294532 -0.72834957 -0.07169456 0.99496037
-1.0306641 -0.70995116 -0.07115303 0.9949984
-1.1187109 -0.70996094 -0.075328253 0.99470562
-1.1834375 -0.70996094 -0.078459963 0.99448609
-1.2538086 -0.70995116 -0.081917226 0.99424392
-1.2914063 -0.70996094 -0.083783261 0.99411309
-1.3307617 -0.70995116 -0.085750006 0.99397528
-1.3719921 -0.70995116 -0.087825693 0.99382997
-1.4152734 -0.70996094 -0.090019032 0.99367636
-1.4608203 -0.70996094 -0.092339553 0.99351382
-1.6127343 -0.70994139 -0.10017982 0.99296516
-1.7886328 -0.65666991 -0.10832466 0.99239528
-8.3690624 -2.9537792 -0.50457484 0.96506733
-8.4057026 -2.8484375 -0.50458688 0.96506655
-8.5076361 -2.5297852 -0.50462043 0.96506435
-8.5689058 -2.3152733 -0.50464058 0.96506286
-8.5974798 -2.2074609 -0.50464994 0.9650622
-8.6246872 -2.0992675 -0.50465888 0.9650616
-8.6980858 -1.7728223 -0.5046829 0.96506
-8.7401562 -1.5537109 -0.50469667 0.96505898
-8.7590818 -1.4437695 -0.50470281 0.96505862
-8.7766209 -1.3335937 -0.50470853 0.96505827
-8.7927732 -1.2232128 -0.50471383 0.96505791
-8.807539 -1.112666 -0.5047186 0.96505755
-8.8208981 -1.0019042 -0.50472295 0.96505731
-8.8434372 -0.77992183 -0.50473017 0.96505672
-8.8525782 -0.66874021 -0.50473309 0.9650566
-8.8603315 -0.55744141 -0.50473553 0.96505636
-8.8666792 -0.44607422 -0.50473756 0.96505624
-8.8716011 -0.33460936 -0.50473905 0.96505618
-8.4617968 -9.7656248e-06 -0.50460249 0.9666611
-8.4610939 0.10632812 -0.50460213 0.96666121
-8.4590816 0.21263671 -0.50460142 0.96666127
-8.4510155 0.42514646 -0.50459844 0.96666145
-8.4288282 0.74333984 -0.50459075 0.96666211
-8.418808 0.84919918 -0.50458729 0.96666211
-8.3946486 1.0604784 -0.50457907 0.96666276
-8.3805857 1.1658789 -0.50457424 0.96666306
-8.3304291 1.4808594 -0.50455725 0.96666408
-8.3110352 1.5854101 -0.5045507 0.96666455
-8.2903318 1.6896973 -0.50454372 0.96666503
-8.2683201 1.7937109 -0.50453627 0.96666557
-8.1944532 2.1039844 -0.50451142 0.96666712
-8.1386909 2.3091407 -0.5044927 0.96666831
-8.0777731 2.5128319 -0.5044722 0.96666962
-8.0453901 2.6140916 -0.50446129 0.96667027
-8.0117188 2.7149217 -0.50445002 0.96667105
-7.9767575 2.8153026 -0.50443834 0.96667194
-1.7895703 0.68262696 -0.11421737 0.99235439
-1.7896875 0.70856446 -0.11478248 0.9923166
-1.7293555 0.70994139 -0.1114772 0.99253708
-1.6693358 0.70993161 -0.10817463 0.99275738
-1.6127343 0.70994139 -0.10507812 0.99296403
-1.5593359 0.70994139 -0.10216991 0.99315798
-1.4152734 0.70994139 -0.094420582 0.99367541
-1.3307812 0.70994139 -0.089943387 0.99397427
-1.1187109 0.70996094 -0.07901188 0.99470478
-1.0882617 0.70993161 -0.077483669 0.99480689
-1.0306835 0.70993161 -0.074632451 0.99499756
-1.0286328 0.74732423 -0.075820312 0.99491811
-1.0283593 0.78735352 -0.077234112 0.99482358
-1.0282031 0.80791992 -0.077979311 0.99477381
-1.0280468 0.82892579 -0.07875149 0.99472219
-1.0279101 0.85033202 -0.079551771 0.9946686
-1.0277344 0.87216794 -0.08038082 0.99461329
-1.0273827 0.91726559 -0.082131423 0.99449629
-4.8916407 4.593545 -0.40016013 0.9734692
-4.5924025 4.8903904 -0.40006033 0.97347581
-4.5303516 4.9474707 -0.40003967 0.97347713
-4.4675779 5.0037498 -0.40001875 0.9734785
-4.4041796 5.0592284 -0.39999759 0.97347975
-4.275156 5.1677442 -0.39995459 0.97348267
-4.2096481 5.2207713 -0.39993277 0.9734841
-4.1434765 5.2729688 -0.39991072 0.97348553
-4.0766797 5.3243065 -0.39988849 0.97348702
-3.8724217 5.4732423 -0.39982045 0.97349155
-3.7332225 5.5681934 -0.39977407 0.97349453
-3.6627538 5.614336 -0.39975059 0.97349602
-3.3752344 5.7898927 -0.39965484 0.97350228
-3.3019922 5.8314843 -0.39963046 0.97350395
-3.1540234 5.9119043 -0.39958122 0.97350711
-3.0793359 5.9507031 -0.39955634 0.97350866
-3.004082 5.9885545 -0.39953128 0.97351038
-2.6987305 6.1303711 -0.39942962 0.973517
-2.621289 6.1634178 -0.39940387 0.97351867
-2.5434766 6.1954489 -0.39937797 0.9735204
-2.4652538 6.2265038 -0.39935195 0.97352213
-2.3076952 6.2856541 -0.3992995 0.97352564
-2.2283983 6.3137302 -0.39927313 0.97352737
-2.0687499 6.3669138 -0.39921999 0.97353077
-1.9884374 6.3919921 -0.39919329 0.97353244
-1.6643358 6.4820604 -0.39908546 0.97353953
-1.5826367 6.5020409 -0.39905828 0.97354126
-1.4185547 6.5388474 -0.39900371 0.9735449
-1.2535937 6.5715137 -0.39894885 0.97354853
-1.1708202 6.5862985 -0.39892134 0.97355032
-1.0879296 6.600039 -0.39889377 0.97355211
-1.0048046 6.6127243 -0.39886612 0.97355396
-0.58740234 6.6604686 -0.39872733 0.97356296
-0.50363278 6.6668649 -0.39869949 0.97356474
-0.25193357 6.6796875 -0.39861584 0.97357029
-0.084023438 6.6829882 -0.39856002 0.97357386
0 6.6830273 -0.39853209 0.97357577
0.16791016 6.6799803 -0.39847627 0.97357947
0.25183594 6.6768746 -0.39844841 0.97358125
0.41947263 6.6675196 -0.39839268 0.97358489
0.5031836 6.6612597 -0.39836487 0.97358668
0.58679688 6.653945 -0.3983371 0.97358853
0.67031246 6.645576 -0.39830932 0.97359037
0.75373048 6.6361718 -0.39828163 0.97359216
1.0031054 6.6016698 -0.39819875 0.97359759
1.333164 6.5411129 -0.39808914 0.9736048
1.4151562 6.5234179 -0.3980619 0.97360653
1.5784374 6.4849119 -0.39800769 0.97361004
1.6596875 6.4641309 -0.39798072 0.97361183
1.8213671 6.4195118 -0.39792702 0.97361535
2.0616014 6.3450193 -0.39784724 0.97362059
2.2201171 6.2903709 -0.39779463 0.97362405
2.2988281 6.2615623 -0.39776847 0.97362578
2.3771875 6.2317872 -0.39774248 0.97362739
2.4551172 6.2010155 -0.39771658 0.97362918
2.5326953 6.1692872 -0.39769089 0.97363079
2.6098437 6.1365623 -0.39766523 0.97363251
2.686621 6.10291 -0.39763981 0.97363406
2.7628906 6.0682712 -0.39761448 0.97363579
2.8387499 6.0326853 -0.39758927 0.97363746
2.9890819 5.9587011 -0.39753944 0.97364074
3.2109766 5.8407321 -0.39746583 0.97364545
3.356328 5.7574801 -0.3974176 0.97364867
3.4282031 5.7145114 -0.3973937 0.97365022
3.5703125 5.6258984 -0.39734656 0.97365326
3.6404686 5.5802441 -0.39732328 0.97365493
3.8475585 5.4381347 -0.39725462 0.97365934
4.0491014 5.2883692 -0.3971878 0.97366375
4.1802931 5.1843848 -0.39714432 0.97366649
4.2448435 5.1311522 -0.39712292 0.97366804
4.3087692 5.0771384 -0.39710173 0.97366935
4.4345312 4.9667382 -0.39706004 0.97367209
4.496367 4.9103708 -0.39703956 0.9736734
4.5574999 4.8532128 -0.3970193 0.97367477
5.0296483 4.3783789 -0.39765814 0.97363287
5.1273632 4.2417383 -0.3968305 0.97368717
6.6515818 5.0928907 -0.49957398 0.96698803
1.2568749 0.93755859 -0.093509443 0.99373639
1.2572266 0.88953125 -0.091841578 0.99384767
1.2573828 0.86612302 -0.091050759 0.99390054
1.257539 0.84313476 -0.090287432 0.9939515
1.3307031 0.70995116 -0.089943275 0.99397451
1.3719531 0.70995116 -0.092120394 0.99382907
1.4152539 0.70996094 -0.094420776 0.99367547
1.5087109 0.70994139 -0.099433437 0.99334079
1.6127148 0.70994139 -0.10507827 0.99296409
1.6692969 0.70995116 -0.10817478 0.9927575
1.7292773 0.70992184 -0.11147735 0.99253738
1.8610938 0.70993161 -0.11878608 0.99204999
2.0239453 0.68585938 -0.12743889 0.99147338
2.0239844 0.65760744 -0.12690879 0.9915086
8.0797653 2.183125 -0.49910238 0.96701866
8.1064062 2.0813768 -0.49909362 0.96701926
8.1317968 1.9793066 -0.49908531 0.9670198
8.1558981 1.8769238 -0.49907741 0.96702027
8.1787109 1.7742871 -0.49906993 0.96702081
8.2204685 1.5681348 -0.49905628 0.96702176
8.2571096 1.3610253 -0.49904433 0.96702242
8.2734766 1.2571484 -0.49903899 0.96702278
8.2885542 1.1530762 -0.49903411 0.96702302
8.3023043 1.0488281 -0.49902961 0.96702337
8.314765 0.94441402 -0.49902561 0.96702361
8.3258791 0.83984375 -0.49902201 0.96702397
8.335742 0.73513669 -0.49901885 0.96702409
8.3442965 0.63032228 -0.49901611 0.96702421
8.3514843 0.52541989 -0.49901384 0.96702451
8.362031 0.31538084 -0.49901056 0.96702456
8.3652925 0.2102832 -0.49900958 0.96702474
8.3679295 -9.7656248e-06 -0.49900892 0.96702474
8.3652925 -0.21029297 -0.49901003 0.96702474
8.3620119 -0.31540039 -0.49901122 0.96702462
8.357461 -0.42045897 -0.49901286 0.96702439
8.3515034 -0.52544922 -0.49901494 0.96702439
8.3259373 -0.83985353 -0.4990238 0.96702373
8.314785 -0.94442379 -0.49902758 0.96702355
8.3023243 -1.0488477 -0.49903187 0.96702325
8.2885933 -1.1530762 -0.49903655 0.9670229
8.2735157 -1.2571679 -0.49904165 0.9670226
8.2571869 -1.3610547 -0.49904719 0.96702212
8.2394924 -1.4647266 -0.49905318 0.96702188
8.2205858 -1.5681835 -0.49905959 0.96702129
8.1064844 -2.0813963 -0.49909803 0.96701896
8.0798435 -2.1831543 -0.499107 0.96701831
8.0519142 -2.2845604 -0.49911639 0.96701777
8.0227346 -2.3855956 -0.4991262 0.96701711
7.9923043 -2.486289 -0.49913642 0.96701634
2.0239453 -0.6576367 -0.12690914 0.99150872
2.0239844 -0.68589842 -0.12743908 0.9914732
2.0239453 -0.71436524 -0.12799343 0.99143636
1.7930859 -0.70997071 -0.11500553 0.992302
1.5592577 -0.70996094 -0.10216915 0.99315822
1.5086719 -0.70997071 -0.099432752 0.99334091
1.4152343 -0.70997071 -0.09442009 0.99367547
1.3719531 -0.70996094 -0.092119634 0.99382907
1.2583203 -0.71253902 -0.086235233 0.99422222
1.2579687 -0.77634764 -0.088152923 0.99409401
1.2578321 -0.79828125 -0.0888393 0.99404812
1.2576953 -0.82050776 -0.089550592 0.99400067
1.2574999 -0.84315425 -0.090287551 0.99395156
1.2572266 -0.88954097 -0.091841504 0.99384767
1.2570703 -0.91333979 -0.092660747 0.99379295
1.2568945 -0.93756837 -0.093509674 0.99373633
5.9327731 -4.5425587 -0.44558913 0.9705022
5.7782421 -4.5405078 -0.43823111 0.97098207
5.343379 -4.5347557 -0.41792625 0.9723078
5.2107029 -4.536006 -0.41197532 0.97269672
5.0826559 -4.5380368 -0.40632719 0.97306597
4.9580665 -4.5400782 -0.40089789 0.97342104
4.7966599 -4.6191893 -0.39711097 0.97366875
4.6795311 -4.7387304 -0.39715004 0.97366625
4.4364452 -4.9688964 -0.39723104 0.97366083
4.1820703 -5.1866212 -0.39731586 0.97365534
4.116797 -5.2390528 -0.39733765 0.97365391
4.0508595 -5.2906737 -0.39735958 0.97365242
3.9842968 -5.3414745 -0.39738178 0.97365087
3.7807617 -5.4887695 -0.39744955 0.97364658
3.5010545 -5.6731153 -0.39754272 0.97364044
3.285332 -5.8020997 -0.3976146 0.97363573
3.1388671 -5.8835349 -0.39766333 0.97363257
2.9903905 -5.9612985 -0.39771277 0.97362936
2.8399999 -6.0353417 -0.39776284 0.97362602
2.7641015 -6.0709176 -0.39778808 0.97362447
2.6877735 -6.105576 -0.39781347 0.97362274
2.6109765 -6.1392479 -0.39783904 0.97362113
2.533828 -6.1719823 -0.39786476 0.9736194
2.2998438 -6.2643356 -0.39794257 0.97361428
2.2210937 -6.2931347 -0.39796883 0.97361261
1.9025977 -6.3985057 -0.39807475 0.97360563
1.6604296 -6.4669628 -0.39815533 0.97360039
1.5791601 -6.4877634 -0.39818236 0.9735986
1.4158007 -6.5262985 -0.39823669 0.97359502
1.33375 -6.544004 -0.39826399 0.97359329
0.91164058 -4.7791505 -0.29013455 0.98069292
0.85322261 -4.799746 -0.29071206 0.98065495
0.79097652 -4.7989941 -0.29004157 0.98069918
0.7290625 -4.7982421 -0.28941864 0.98074013
0.66464841 -4.7777243 -0.28765357 0.98085642
0.60574216 -4.795156 -0.28822255 0.98081893
0.55191404 -4.8593845 -0.29164359 0.9805935
0.58707029 -6.6568942 -0.39851227 0.97357696
0.41964844 -6.6704688 -0.39856794 0.97357333
0.33582032 -6.6756735 -0.39859581 0.97357154
0.25195312 -6.6798339 -0.39862368 0.97356975
0.16798827 -6.6829295 -0.39865157 0.97356796
0.084003903 -6.6849899 -0.39867949 0.97356606
-0.084042966 -6.6859078 -0.39873534 0.97356248
-0.1680664 -6.6848145 -0.39876327 0.97356057
-0.25205079 -6.6826367 -0.39879119 0.97355878
-0.33603516 -6.6794434 -0.39881912 0.97355682
-0.41999999 -6.675127 -0.39884704 0.97355515
-0.50386715 -6.669775 -0.39887488 0.97355336
-0.58765626 -6.6633983 -0.39890274 0.97355145
-0.75503904 -6.6474705 -0.39895836 0.97354776
-1.0052735 -6.615664 -0.39904144 0.97354233
-1.2541406 -6.5744138 -0.39912415 0.97353703
-1.7465234 -6.4639258 -0.39928767 0.9735263
-1.8277344 -6.4419141 -0.39931464 0.97352445
-1.9087108 -6.4188766 -0.39934149 0.97352266
-2.3087108 -6.2884278 -0.39947432 0.97351408
-2.6224608 -6.1661229 -0.39957848 0.97350717
-2.9297071 -6.0280857 -0.39968047 0.97350055
-3.1553905 -5.9145017 -0.39975533 0.97349566
-3.2296679 -5.8747363 -0.39977995 0.97349405
-3.7348828 -5.5706248 -0.39994758 0.97348303
-3.8048046 -5.5235739 -0.39997077 0.97348154
-3.874121 -5.4756541 -0.39999375 0.97348005
-4.0784373 -5.3266406 -0.40006149 0.97347564
-4.2114453 -5.2230177 -0.4001056 0.97347289
-4.2769923 -5.1699901 -0.40012732 0.97347134
-4.4695115 -5.005908 -0.4001911 0.97346723
-4.5943942 -4.8925195 -0.40023252 0.97346443
-4.6557422 -4.8346581 -0.40025282 0.97346312
-4.7163672 -4.7759962 -0.40027294 0.97346181
-1.027207 -0.94058591 -0.083054923 0.99443448
-1.0273827 -0.91727537 -0.082131043 0.99449629
-1.0275586 -0.89450192 -0.081240349 0.99455577
-1.0280468 -0.8289355 -0.078751527 0.99472213
-1.0282031 -0.80794919 -0.077979505 0.99477375
-1.0286328 -0.74734372 -0.075820118 0.99491811
-1.028789 -0.72787106 -0.075149916 0.99496281
-1.0306641 -0.70995116 -0.074632108 0.99499756
-1.0589062 -0.70995116 -0.076024704 0.99490446
-1.1504296 -0.70995116 -0.080614015 0.99459761
-1.2178515 -0.70994139 -0.084063716 0.99436724
-1.2538086 -0.70995116 -0.085922509 0.99424297
-1.3307617 -0.70995116 -0.089942738 0.99397433
-1.3719921 -0.70995116 -0.092119902 0.99382895
-1.4152734 -0.70996094 -0.094420202 0.99367535
-1.4608203 -0.70996094 -0.096854173 0.99351275
-1.5593164 -0.70995116 -0.10216942 0.99315804
-1.6692969 -0.70995116 -0.10817424 0.9927575
-1.789668 -0.70858395 -0.11478248 0.99231666
-1.7895898 -0.682666 -0.1142173 0.99235427
-8.011797 -2.7149413 -0.5044558 0.96667075
-8.0454884 -2.6141307 -0.50446695 0.96666992
-8.0778513 -2.512871 -0.50447756 0.96666926
-8.1089649 -2.4112206 -0.50448781 0.96666861
-8.167304 -2.2067578 -0.50450701 0.96666735
-8.1945314 -2.1040039 -0.50451589 0.96666676
-8.2204294 -2.0008788 -0.50452441 0.96666634
-8.2451172 -1.8974609 -0.50453252 0.96666563
-8.2683983 -1.7937207 -0.50454015 0.96666527
-8.29041 -1.689707 -0.50454736 0.96666473
-8.3485155 -1.3761231 -0.50456631 0.96666354
-8.3806248 -1.1658984 -0.5045768 0.96666288
-8.418828 -0.84921873 -0.50458908 0.96666205
-8.4288864 -0.74335939 -0.50459236 0.96666187
-8.4375782 -0.63738281 -0.50459516 0.96666181
-8.4450197 -0.53130859 -0.50459749 0.96666139
-8.4557228 -0.31892577 -0.50460082 0.96666133
-8.0827732 -9.7656248e-06 -0.50447655 0.96812505
-8.0821095 0.10157226 -0.50447619 0.96812516
-8.0513277 0.71004879 -0.50446534 0.96812582
-8.030859 0.91214842 -0.50445831 0.96812612
-7.9745507 1.3144629 -0.50443918 0.96812743
-7.9388084 1.5143945 -0.50442708 0.9681282
-7.9190621 1.6140234 -0.5044204 0.96812856
-7.8757811 1.8124707 -0.5044058 0.96812946
-7.8274608 2.0097363 -0.50438952 0.96813059
-7.7742381 2.2057519 -0.50437164 0.96813154
-7.7160349 2.4003026 -0.50435209 0.96813285
-7.6851172 2.4970214 -0.50434166 0.96813351
-7.6529684 2.5933495 -0.50433087 0.96813416
-1.5593164 0.70993161 -0.10693416 0.99315691
-1.50875 0.70994139 -0.10407013 0.99333954
-1.4608203 0.70994139 -0.10137103 0.99351174
-1.3307812 0.70994139 -0.094137415 0.99397326
-1.2914257 0.70994139 -0.091977991 0.99411112
-1.2178906 0.70993161 -0.087984391 0.99436617
-1.1504296 0.70995116 -0.084373549 0.99459672
-1.0589062 0.70995116 -0.079570346 0.99490362
-1.0280859 0.727373 -0.078601718 0.99496537
-1.0279297 0.74682617 -0.079302289 0.99492073
-1.0278125 0.7666406 -0.080028191 0.99487424
-1.0276562 0.78680664 -0.080779992 0.99482626
-1.0273242 0.82833982 -0.082366139 0.99472499
-1.0268359 0.89384764 -0.08496727 0.99455875
-1.0266407 0.91659176 -0.08589828 0.99449939
-1.0264453 0.93988281 -0.086863786 0.99443769
-4.6728711 4.3880763 -0.40008762 0.97463644
-4.3870702 4.6717286 -0.39999238 0.97464234
-4.3278122 4.7262402 -0.39997259 0.97464365
-4.2678709 4.7800193 -0.39995262 0.97464484
-4.2072263 4.8330173 -0.39993238 0.97464621
-4.1459765 4.8852735 -0.39991194 0.97464734
-3.894453 5.0863476 -0.39982817 0.97465265
-3.7649999 5.1820507 -0.39978504 0.97465533
-3.6993749 5.228652 -0.39976317 0.97465676
-3.5664062 5.3193846 -0.39971888 0.97465956
-3.4991014 5.3634567 -0.39969647 0.97466099
-3.4312108 5.4067087 -0.39967385 0.97466242
-3.224453 5.53125 -0.39960501 0.97466666
-3.0840623 5.6098924 -0.39955825 0.97466952
-3.013164 5.6478515 -0.39953467 0.97467107
-2.9417772 5.6849217 -0.39951086 0.97467256
-2.8699219 5.7211032 -0.39948699 0.97467405
-2.7976367 5.7563767 -0.39946288 0.97467554
-2.429961 5.9188766 -0.39934051 0.97468311
-2.2801561 5.9773045 -0.39929068 0.97468632
-2.2047265 6.005127 -0.39926559 0.97468781
-2.0528319 6.0578513 -0.39921504 0.97469109
-1.9764258 6.0827832 -0.39918962 0.9746927
-1.7454296 6.1517673 -0.39911276 0.97469747
-1.6678905 6.1728415 -0.39908698 0.97469902
-1.5120312 6.2119727 -0.39903513 0.97470236
-1.276582 6.26333 -0.39895684 0.97470719
-1.1186328 6.2925878 -0.39890429 0.97471052
-0.96003902 6.3178806 -0.39885154 0.9747138
-0.88050777 6.3290329 -0.39882511 0.97471547
-0.32091796 6.3789258 -0.39863905 0.97472715
-0.16050781 6.3841114 -0.39858574 0.97473055
-0.080234371 6.3852048 -0.39855909 0.97473216
0 6.3853025 -0.39853239 0.97473377
0.16044922 6.3824315 -0.39847907 0.97473711
0.24058594 6.3794627 -0.39845243 0.97473884
0.40080076 6.3705564 -0.39839923 0.97474217
0.56066406 6.3576465 -0.3983461 0.97474539
0.64048827 6.349668 -0.39831957 0.97474712
0.79976559 6.3307323 -0.39826667 0.9747504
0.95845699 6.3078027 -0.39821392 0.97475368
1.0375781 6.2948437 -0.39818764 0.97475535
1.1165234 6.2808785 -0.39816141 0.97475702
1.2738281 6.2500196 -0.3981092 0.97476029
1.3521875 6.2331152 -0.39808315 0.9747619
1.5082031 6.1963673 -0.39803135 0.97476512
1.5858203 6.1765232 -0.39800555 0.97476679
1.7403516 6.1339159 -0.39795426 0.97477001
1.8937109 6.0874805 -0.39790332 0.97477311
1.9699218 6.0628028 -0.39787802 0.97477478
2.1213672 6.0106149 -0.39782774 0.974778
2.2714844 5.954658 -0.39777794 0.9747811
2.4938281 5.86375 -0.39770412 0.97478563
2.6400781 5.7985153 -0.39765555 0.97478867
3.0682812 5.5811815 -0.39751351 0.97479749
3.1379688 5.5418358 -0.39749038 0.9747991
3.2071483 5.5016599 -0.3974674 0.97480053
3.2758789 5.4606152 -0.39744461 0.9748019
3.4116795 5.375957 -0.39739957 0.9748047
3.7414649 5.1497068 -0.39729017 0.97481161
3.9323046 5.0042381 -0.39722693 0.97481549
3.9946485 4.9541602 -0.39720625 0.97481686
4.1174803 4.8517184 -0.39716551 0.97481936
4.2376561 4.7462301 -0.39712569 0.97482193
4.2967577 4.6923828 -0.39710611 0.97482312
4.41291 4.5824704 -0.39706764 0.9748255
4.4699216 4.5264454 -0.3970488 0.97482669
4.5818357 4.4122849 -0.3970117 0.97482896
4.6908202 4.2953515 -0.39697555 0.97483128
4.7442188 4.2358689 -0.39695787 0.97483242
4.7968554 4.1757421 -0.39694044 0.97483349
6.2950778 4.9466405 -0.49969259 0.96842271
1.2560546 0.93691403 -0.097803153 0.99373949
1.2563672 0.88892579 -0.096060105 0.99385083
1.2567188 0.84257811 -0.094435498 0.99395442
1.2568749 0.81998044 -0.093665347 0.99400359
1.2573047 0.75427735 -0.091512032 0.99414098
1.2575586 0.71207029 -0.090199657 0.99422485
1.3307031 0.70995116 -0.094137534 0.99397349
1.3719531 0.70995116 -0.096415743 0.99382806
1.4607812 0.70995116 -0.10137127 0.99351186
1.5087109 0.70993161 -0.10407005 0.99333972
1.5592577 0.70994139 -0.10693416 0.99315709
1.6127148 0.70994139 -0.10997818 0.9929629
1.6692969 0.70995116 -0.1132188 0.99275625
1.7292773 0.70992184 -0.11667541 0.99253613
1.9337109 0.70993161 -0.12857051 0.99177831
2.0239062 0.71432614 -0.1339571 0.99143511
2.0238867 0.68583983 -0.13337708 0.99147218
2.0239062 0.65761715 -0.13282211 0.99150747
7.6379294 2.3760157 -0.49924904 0.96845031
7.6670117 2.2798145 -0.49923944 0.96845096
7.7216015 2.0863574 -0.49922153 0.9684521
7.7471094 1.9891113 -0.49921316 0.96845251
7.7713671 1.8915722 -0.4992052 0.96845305
7.8162303 1.6956347 -0.49919051 0.96845388
7.8561521 1.4986426 -0.49917743 0.96845478
7.8911719 1.300703 -0.49916601 0.96845537
7.9212108 1.1019824 -0.49915627 0.96845597
7.9343357 1.002334 -0.49915197 0.96845639
7.9569139 0.80262691 -0.4991447 0.9684568
7.9663281 0.70255858 -0.49914163 0.96845698
7.9814062 0.5021289 -0.49913687 0.96845722
7.987031 0.4017871 -0.49913511 0.9684574
7.9970703 -9.7656248e-06 -0.49913219 0.96845764
7.9945703 -0.20097655 -0.4991332 0.96845752
7.9914451 -0.30142578 -0.49913439 0.9684574
7.9814062 -0.50216794 -0.49913794 0.96845716
7.9745312 -0.60243165 -0.49914032 0.96845692
7.8912106 -1.3007226 -0.49916875 0.96845526
7.8743162 -1.3998047 -0.49917448 0.96845496
7.8562107 -1.4986621 -0.49918059 0.96845454
7.7714062 -1.8916016 -0.4992092 0.96845287
7.7216992 -2.0863867 -0.49922594 0.96845168
7.6949997 -2.183291 -0.49923491 0.9684512
2.0239062 -0.68584961 -0.13337661 0.99147213
2.0238671 -0.71431637 -0.1339571 0.99143529
1.9337109 -0.70994139 -0.12856936 0.99177831
1.8610547 -0.70997071 -0.12432399 0.99204874
1.7930859 -0.70997071 -0.12036823 0.99230069
1.7292968 -0.70996094 -0.11667457 0.99253601
1.6692578 -0.70995116 -0.11321788 0.99275643
1.6126952 -0.70997071 -0.10997699 0.99296296
1.5592577 -0.70996094 -0.10693325 0.99315709
1.5086719 -0.70997071 -0.10406914 0.99333978
1.4607617 -0.70995116 -0.10137016 0.99351192
1.4152343 -0.70997071 -0.098822862 0.99367446
1.3719531 -0.70996094 -0.096415289 0.99382806
1.3307031 -0.70995116 -0.094136767 0.99397349
1.2913476 -0.70995116 -0.091977648 0.99411136
1.2574219 -0.73302734 -0.090844072 0.99418372
1.2573047 -0.75429684 -0.091512144 0.99414098
1.2571288 -0.77585936 -0.09220428 0.99409693
1.2570312 -0.79775387 -0.092921942 0.99405098
1.2565234 -0.86556637 -0.095233344 0.99390358
5.9328122 -4.5425391 -0.4663671 0.97049725
5.778203 -4.5405078 -0.45866638 0.97097737
5.6286325 -4.5385351 -0.4512842 0.97143763
5.2071676 -4.5329394 -0.43089342 0.97271043
5.0749607 -4.5312109 -0.4246335 0.97310156
4.7066016 -4.5324707 -0.40782592 0.97415239
4.4147654 -4.5844626 -0.3972379 0.97481483
4.1796875 -4.8014255 -0.39731625 0.97480994
4.058125 -4.9054685 -0.39735675 0.97480732
3.9963672 -4.9563084 -0.39737731 0.97480613
3.8709373 -5.0557323 -0.39741912 0.97480345
3.8073437 -5.1042285 -0.39744034 0.97480208
3.6128125 -5.2449412 -0.3975051 0.97479814
3.5468359 -5.2902246 -0.39752707 0.97479671
3.3454883 -5.4210739 -0.39759412 0.97479248
3.2772851 -5.4629979 -0.39761686 0.97479105
3.1393359 -5.5442677 -0.39766279 0.97478819
2.9993553 -5.6220603 -0.39770943 0.97478533
2.9286718 -5.659658 -0.39773291 0.97478372
2.857461 -5.6963377 -0.39775664 0.97478235
2.7137499 -5.7670603 -0.39780447 0.97477931
2.5682812 -5.8341403 -0.39785293 0.97477627
2.4949219 -5.8663087 -0.39787734 0.97477478
2.346992 -5.9278612 -0.39792654 0.9747718
2.2724609 -5.9572949 -0.39795139 0.97477007
2.1975586 -5.9857421 -0.39797631 0.97476858
1.8179296 -6.1138573 -0.39810261 0.97476071
1.5865234 -6.1792383 -0.39817953 0.97475582
1.3527734 -6.2358594 -0.39825732 0.97475094
1.2743945 -6.2527928 -0.39828339 0.97474927
0.91140622 -4.7779102 -0.30358601 0.98069465
0.85296875 -4.7983885 -0.30418169 0.98065716
0.66445309 -4.7763867 -0.30098468 0.9808585
0.60546875 -4.7929883 -0.30152744 0.98082429
0.55191404 -4.859375 -0.30524343 0.98059028
0.48097655 -6.3674121 -0.3985472 0.97473282
0.40097654 -6.3733692 -0.39857382 0.97473115
0.32085937 -6.3783202 -0.39860046 0.97472954
0 -6.3881149 -0.39870712 0.9747228
-0.32107422 -6.3817477 -0.39881381 0.97471613
-0.40125 -6.3776364 -0.39884049 0.97471446
-0.48140624 -6.3725195 -0.3988671 0.97471279
-0.80121094 -6.3419824 -0.39897335 0.97470605
-0.96046871 -6.3206544 -0.39902624 0.97470284
-1.1982226 -6.2812304 -0.39910522 0.97469783
-1.2771484 -6.2660742 -0.39913145 0.97469628
-1.3558594 -6.2499509 -0.39915758 0.97469461
-1.5127343 -6.2147164 -0.39920971 0.97469127
-1.5907812 -6.1956153 -0.39923561 0.97468972
-1.8235155 -6.132441 -0.39931288 0.97468489
-1.9005468 -6.1094337 -0.39933848 0.97468328
-1.9773047 -6.0854588 -0.39936396 0.97468168
-2.05375 -6.0605273 -0.39938933 0.97468007
-2.1298828 -6.0346093 -0.3994146 0.97467852
-2.2056835 -6.0077343 -0.39943975 0.97467697
