# .PCD v0.7 - Point Cloud Data file format
VERSION 0.7
FIELDS x y z intensity
SIZE 4 4 4 4
TYPE F F F F
COUNT 1 1 1 1
WIDTH 1082
HEIGHT 1
VIEWPOINT 0 0 0 1 0 0 0
POINTS 1082
DATA ascii
2.2244337 -6.3024998 -0.39856112 0.9735738
2.0653515 -6.3564649 -0.39856407 0.97357363
1.9049706 -6.4063864 -0.39856705 0.97357351
1.8243359 -6.4298434 -0.39856848 0.97357339
1.6621972 -6.4737206 -0.39857149 0.97357315
1.4990039 -6.5134864 -0.39857447 0.97357297
1.4170214 -6.5318456 -0.39857599 0.97357285
1.2524414 -6.5654392 -0.39857903 0.97357267
0.75435543 -6.6412792 -0.39858809 0.97357208
0.67083007 -6.6502538 -0.39858961 0.97357202
0.50350583 -6.6650586 -0.39859268 0.97357178
0.41969725 -6.6708984 -0.3985942 0.97357166
0.33585936 -6.6756639 -0.39859572 0.9735716
0.25195312 -6.6793747 -0.39859724 0.97357154
0.16798827 -6.6820407 -0.39859879 0.97357142
0.084013671 -6.6836524 -0.39860031 0.9735713
-0.083984375 -6.6837106 -0.39860335 0.97357106
-0.16797851 -6.682158 -0.39860484 0.97357094
-0.33583984 -6.675869 -0.39860788 0.97357076
-0.75436521 -6.6417379 -0.39861545 0.97357029
-0.83777344 -6.6317577 -0.39861694 0.97357017
-0.92104489 -6.6207323 -0.39861843 0.97357011
-1.0041797 -6.6086521 -0.39861992 0.97356999
-1.1699317 -6.581377 -0.3986229 0.97356981
-1.252539 -6.5661912 -0.39862436 0.97356969
-1.3349609 -6.5499411 -0.39862585 0.97356969
-1.580918 -6.4950681 -0.39863026 0.97356927
-1.5896875 -6.1914744 -0.38119441 0.97471064
-1.746289 -6.1548924 -0.38152438 0.97468907
-1.9770508 -6.0847754 -0.38152847 0.97468877
-2.2049999 -6.0059958 -0.38153252 0.97468853
-2.2803028 -5.9778223 -0.38153383 0.97468847
-2.6163182 -6.1517382 -0.39864865 0.97356814
-3.146709 -5.898252 -0.39865798 0.97356755
-2.3008497 -4.0634179 -0.27846548 0.98146236
-2.3216405 -3.9826074 -0.27490404 0.9816972
-2.297334 -3.8295019 -0.26631674 0.98226446
-2.3276172 -3.7716796 -0.26430064 0.98239696
-2.3871777 -3.7616112 -0.26567551 0.98230618
-2.464287 -3.7773242 -0.26895237 0.98208994
-2.5909276 -3.7613964 -0.27237156 0.98186445
-4.0642576 -5.3081541 -0.39867392 0.97356653
-4.1306639 -5.25667 -0.39867511 0.97356641
-4.2614746 -5.1512499 -0.39867735 0.97356623
-4.5149608 -4.9306736 -0.3986817 0.973566
-4.5765719 -4.8735642 -0.39868277 0.97356594
-4.6976271 -4.757041 -0.39868483 0.97356582
-4.757041 -4.6976562 -0.39868587 0.9735657
-4.8736134 -4.5766406 -0.39868781 0.97356564
-1.0275292 -0.89447266 -0.081239812 0.99455595
-1.0276953 -0.87216794 -0.080380514 0.99461341
-1.027871 -0.85032225 -0.079551011 0.99466878
-1.0280273 -0.82890624 -0.078750916 0.99472231
-1.0283203 -0.78736329 -0.077233501 0.99482369
-1.0284766 -0.76715821 -0.076513976 0.99487174
-1.0285938 -0.74732423 -0.075819589 0.99491823
-1.0287402 -0.72785157 -0.075149536 0.99496305
-1.0588964 -0.70995116 -0.076025195 0.99490452
-1.0882128 -0.70994139 -0.077483445 0.994807
-1.1504004 -0.70994139 -0.080614276 0.99459773
-1.217832 -0.70994139 -0.08406391 0.9943673
-1.2538086 -0.70994139 -0.085922852 0.99424297
-1.2913867 -0.70994139 -0.087880015 0.99411225
-1.4152441 -0.70995116 -0.094420657 0.99367547
-1.559248 -0.70995116 -0.10216983 0.99315828
-1.6127148 -0.70996094 -0.10507805 0.99296409
-1.6692871 -0.70995116 -0.1081744 0.9927575
-1.7292968 -0.70995116 -0.11147705 0.99253726
-1.7895215 -0.68263668 -0.11421707 0.99235457
-8.003418 -2.6004686 -0.50183225 0.96684122
-8.0354681 -2.4996874 -0.50183266 0.96684122
-8.1509466 -2.0928028 -0.50183433 0.9668411
-8.2009668 -1.8873144 -0.50183505 0.9668411
-8.2240229 -1.7841113 -0.50183535 0.96684116
-8.2662888 -1.576875 -0.50183588 0.96684104
-8.3033104 -1.3686426 -0.50183636 0.96684104
-8.3490229 -1.0547265 -0.50183684 0.96684092
-8.3616114 -0.94972652 -0.50183696 0.96684092
-8.3728905 -0.84457028 -0.50183702 0.96684092
-8.3828421 -0.73929685 -0.50183713 0.96684092
-8.4047461 -0.42282227 -0.50183719 0.96684092
-8.4127245 -0.2114746 -0.50183707 0.96684092
-8.4147167 -0.10574219 -0.50183702 0.96684092
-8.0403509 -9.7656248e-06 -0.5018301 0.96828967
-8.0377827 0.20206054 -0.50182986 0.96828979
-8.0346193 0.30303711 -0.50182968 0.96828973
-8.0174704 0.6056543 -0.50182909 0.96828979
-7.9996972 0.80694336 -0.50182855 0.96828991
-7.9889159 0.90740234 -0.50182819 0.96828991
-7.9769039 1.0077149 -0.5018279 0.96828985
-7.9636035 1.1078711 -0.50182754 0.96828991
-7.9490523 1.2078711 -0.50182718 0.96828985
-7.9332223 1.3076562 -0.50182676 0.96828997
-7.916152 1.4072461 -0.50182641 0.96829003
-7.7876463 1.9995409 -0.50182343 0.96829009
-7.7349119 2.1946094 -0.50182223 0.96829015
-7.7067089 2.291621 -0.50182164 0.96829021
-7.6148047 2.5804393 -0.50181967 0.96829045
-7.5817871 2.6759179 -0.50181895 0.96829045
-1.7904004 0.68295896 -0.11960086 0.99234957
-1.7293066 0.70994139 -0.11667503 0.99253601
-1.6692773 0.70994139 -0.11321834 0.99275637
-1.612705 0.70994139 -0.10997787 0.99296296
-1.4607617 0.70995116 -0.10137089 0.99351192
-1.4152637 0.70995116 -0.098823205 0.99367434
-1.3307323 0.70994139 -0.094137266 0.99397343
-1.2913769 0.70995116 -0.091978222 0.9941113
-1.253828 0.70995116 -0.089929424 0.99424195
-1.1834277 0.70996094 -0.086133994 0.99448431
-1.1504004 0.70995116 -0.0843734 0.99459678
-1.0882226 0.70995116 -0.081096612 0.99480611
-1.0306641 0.70996094 -0.078112483 0.99499673
-1.0280371 0.72738278 -0.078600995 0.99496555
-1.0273144 0.82833982 -0.082365304 0.99472505
-1.0269824 0.87154293 -0.084068298 0.99461627
-1.026787 0.89383787 -0.084966622 0.99455893
-1.0266016 0.91661131 -0.085897788 0.99449944
-4.5907321 4.5334177 -0.40268862 0.97447371
-4.4863672 4.5431151 -0.39851001 0.9747352
-4.3707519 4.6544142 -0.3985078 0.97473532
-4.1921973 4.8157911 -0.39850438 0.9747355
-4.1313281 4.8680758 -0.39850324 0.97473562
-4.0698338 4.91957 -0.39850202 0.97473574
-3.9448924 5.0202832 -0.3984997 0.9747358
-3.8174706 5.1178122 -0.39849731 0.97473592
-3.7528319 5.1653419 -0.39849606 0.97473609
-3.5554395 5.3030663 -0.39849234 0.97473633
-3.4210155 5.3907127 -0.39848983 0.97473651
-3.3530078 5.4332614 -0.39848852 0.97473657
-3.2844822 5.4749413 -0.39848724 0.97473663
-3.2154002 5.5157614 -0.39848593 0.97473669
-3.0051951 5.632998 -0.39848205 0.97473687
-2.7907128 5.742197 -0.39847803 0.97473717
-2.7183397 5.7767968 -0.39847666 0.97473723
-2.5722852 5.8432517 -0.39847395 0.97473741
-2.498662 5.8750877 -0.39847258 0.97473747
-2.2002733 5.9931054 -0.39846709 0.97473794
-2.1247852 6.0202832 -0.39846563 0.97473788
-2.0489354 6.0464845 -0.39846426 0.97473806
-1.9728026 6.0717478 -0.39846286 0.97473806
-1.5876367 6.1835155 -0.39845577 0.97473854
-1.5098046 6.202949 -0.39845434 0.97473866
-1.4317285 6.2214255 -0.39845291 0.97473872
-1.3534374 6.2388864 -0.39845145 0.97473884
-1.1962109 6.2708983 -0.39844859 0.97473896
-1.0382422 6.2989159 -0.3984457 0.97473919
-0.95901364 6.3114452 -0.39844424 0.97473925
-0.87960935 6.322988 -0.3984428 0.97473931
-0.80009764 6.3335252 -0.39844134 0.97473937
-0.72043943 6.3430371 -0.39843988 0.97473955
-0.48085937 6.3656149 -0.39843553 0.97473985
-0.40081054 6.3711329 -0.3984341 0.97473991
-0.16041015 6.3816504 -0.39842972 0.97474015
-0.080205075 6.3831348 -0.39842826 0.97474027
9.7656248e-06 6.3836231 -0.3984268 0.97474033
0.24061523 6.3790135 -0.39842245 0.97474062
0.32075194 6.3754492 -0.39842102 0.97474074
0.72042966 6.342627 -0.39841381 0.97474116
0.87958008 6.3224802 -0.39841095 0.97474128
1.0381836 6.2983298 -0.39840811 0.97474152
1.1961328 6.270195 -0.39840525 0.9747417
1.2748047 6.2546582 -0.39840385 0.97474176
1.3533008 6.2381248 -0.39840248 0.97474188
1.4315917 6.2205954 -0.39840105 0.974742
1.5096387 6.2021189 -0.39839965 0.97474194
1.6650097 6.1621485 -0.39839691 0.97474223
1.7422949 6.1407323 -0.39839554 0.97474229
1.8960546 6.0949607 -0.3983928 0.97474247
1.9724902 6.0706444 -0.3983914 0.97474253
2.1243846 6.0191112 -0.39838871 0.97474277
2.1998632 5.9919238 -0.39838737 0.97474277
2.5717089 5.8418751 -0.39838082 0.97474319
2.7176855 5.7753711 -0.39837822 0.97474337
2.8619628 5.7052145 -0.39837569 0.97474349
2.9334178 5.6687794 -0.39837447 0.9747436
3.0749121 5.5932322 -0.39837196 0.97474378
3.1449707 5.5541406 -0.39837074 0.97474378
3.4199998 5.3890333 -0.39836591 0.97474414
3.5543358 5.3013573 -0.39836359 0.97474426
3.6206737 5.2562695 -0.39836246 0.97474432
3.6864061 5.2103224 -0.39836133 0.9747445
3.7515624 5.1635938 -0.39836016 0.9747445
3.8801172 5.0676465 -0.39835793 0.97474468
4.0062304 4.9685254 -0.39835575 0.97474474
4.0683398 4.9177732 -0.39835468 0.97474486
4.1298242 4.86625 -0.39835364 0.97474486
4.1906152 4.8139548 -0.39835256 0.97474498
4.2507911 4.7609081 -0.39835155 0.97474498
4.4271579 4.5972753 -0.39834854 0.97474521
4.4845896 4.5412793 -0.39834753 0.97474515
4.8467579 4.4381056 -0.41016716 0.9740057
5.5293651 4.4584179 -0.44332081 0.97193444
5.882422 4.5039454 -0.46240383 0.97074413
1.2560937 0.93693358 -0.097804181 0.99373931
1.2562695 0.91272461 -0.096916921 0.99379593
1.2567675 0.84259766 -0.094436303 0.99395424
1.2571875 0.77585936 -0.092205234 0.9940967
1.257334 0.75429684 -0.091512948 0.99414086
1.2574804 0.73304683 -0.090844914 0.99418348
1.3307519 0.70995116 -0.094137304 0.99397331
1.3720019 0.70996094 -0.096415862 0.99382788
1.4152832 0.70995116 -0.098823659 0.99367428
1.50875 0.70996094 -0.10407002 0.99333954
1.5593164 0.70995116 -0.10693394 0.99315685
1.6127539 0.70996094 -0.10997803 0.99296272
1.6693164 0.70996094 -0.11321872 0.99275619
1.7293555 0.70996094 -0.11667541 0.99253577
1.7931445 0.70995116 -0.12036926 0.99230051
1.933789 0.70995116 -0.12857021 0.99177796
2.0239551 0.65762693 -0.13282265 0.99150723
7.6730661 2.3869531 -0.50154299 0.9683075
7.7024412 2.2903516 -0.50154257 0.9683075
7.7832808 1.9983984 -0.50154144 0.96830755
7.8077636 1.9004492 -0.50154108 0.96830761
7.8310447 1.8021874 -0.50154078 0.96830755
7.9116602 1.4064355 -0.50153977 0.96830773
7.9287205 1.3069237 -0.50153953 0.96830767
7.9445114 1.2071778 -0.50153935 0.96830773
7.9723239 1.0071484 -0.50153905 0.96830779
7.9843454 0.90689451 -0.50153893 0.96830779
7.9951267 0.80648434 -0.50153887 0.96830773
8.0128517 0.60530269 -0.50153875 0.96830779
8.019824 0.50456053 -0.50153869 0.96830779
8.025547 0.40375 -0.50153875 0.96830773
8.0299807 0.30285156 -0.50153875 0.96830773
8.0331545 0.20194335 -0.50153881 0.96830773
8.0350485 0.1009668 -0.50153887 0.96830779
8.033164 -0.20192382 -0.50153923 0.96830773
8.0299902 -0.30286133 -0.50153941 0.96830773
8.0198631 -0.50457031 -0.50153983 0.96830767
8.0046482 -0.70594722 -0.5015403 0.96830767
7.9951367 -0.80647457 -0.5015406 0.96830767
7.972373 -1.0071288 -0.5015412 0.96830761
7.92874 -1.3068945 -0.50154233 0.96830761
7.9117088 -1.4064355 -0.50154275 0.96830755
7.8738961 -1.6048046 -0.50154364 0.96830744
7.8078418 -1.9004394 -0.50154513 0.96830732
7.7833395 -1.9984082 -0.50154573 0.96830738
7.6731348 -2.3869824 -0.50154811 0.9683072
2.0239453 -0.71432614 -0.13395813 0.99143499
1.9337597 -0.70995116 -0.12857014 0.99177808
1.6693066 -0.70994139 -0.11321846 0.99275625
1.5592968 -0.70995116 -0.10693371 0.99315691
1.5087402 -0.70994139 -0.10406952 0.9933396
1.415293 -0.70993161 -0.098823242 0.99367428
1.3307617 -0.70995116 -0.094137304 0.99397331
1.257334 -0.75426757 -0.091513023 0.99414092
1.2570508 -0.7977441 -0.092922665 0.99405092
1.256914 -0.81998044 -0.093666114 0.99400342
1.2565918 -0.86556637 -0.095234223 0.9939034
1.2564551 -0.88892579 -0.096060827 0.99385053
1.2562695 -0.91271484 -0.096917152 0.99379593
1.2561035 -0.93693358 -0.097804293 0.99373931
5.0204 -3.9449706 -0.39850798 0.97473526
4.9197068 -4.069912 -0.39850992 0.97473508
4.8681836 -4.1314158 -0.39851093 0.97473508
4.6544824 -4.3708692 -0.39851505 0.97473478
4.5432129 -4.4864454 -0.39851722 0.97473472
4.4864941 -4.5432129 -0.39851829 0.9747346
4.4290528 -4.5992384 -0.3985194 0.97473454
4.3709474 -4.654541 -0.3985205 0.97473443
4.312119 -4.7091017 -0.3985216 0.97473443
4.2526073 -4.7629395 -0.39852276 0.97473431
4.1924314 -4.8160057 -0.3985239 0.97473431
4.1315722 -4.86833 -0.39852503 0.97473425
3.2909961 -3.9781053 -0.32224074 0.97952068
3.2186327 -3.9917188 -0.32004035 0.97965896
3.8817968 -5.0698338 -0.3985298 0.97473395
3.8178124 -5.1182323 -0.39853102 0.97473377
3.5558593 -5.3036618 -0.39853594 0.97473347
3.488955 -5.3479199 -0.39853722 0.97473347
3.353457 -5.4339552 -0.39853975 0.97473329
3.2849512 -5.4756837 -0.39854103 0.97473317
3.2158787 -5.5165524 -0.39854231 0.97473311
3.0762498 -5.595654 -0.39854494 0.974733
3.0057225 -5.6338964 -0.39854625 0.97473282
2.863203 -5.7076855 -0.39854893 0.9747327
2.79125 -5.7432323 -0.39855024 0.97473264
2.7188671 -5.7778807 -0.39855158 0.97473252
2.4991992 -5.8762889 -0.39855567 0.97473234
2.3507519 -5.9372849 -0.39855841 0.97473216
2.20083 -5.9945211 -0.39856124 0.97473198
2.0495117 -6.047998 -0.39856401 0.97473174
1.6657226 -6.1648436 -0.39857107 0.97473139
1.5881445 -6.1853123 -0.39857253 0.97473127
1.1966406 -6.2729492 -0.39857972 0.97473079
0.87997067 -6.3252344 -0.3985855 0.97473043
0.80041015 -6.3358297 -0.39858696 0.97473031
0.72073239 -6.3453903 -0.39858839 0.97473031
0.40100586 -6.3736911 -0.3985942 0.9747299
0.16049804 -6.3843455 -0.39859858 0.9747296
2.9296874e-05 -6.3864059 -0.39860153 0.97472948
-0.24068359 -6.3819337 -0.39860588 0.97472918
-0.56105465 -6.361865 -0.39861163 0.97472888
-0.640957 -6.3543458 -0.3986131 0.9747287
-0.72074217 -6.3458009 -0.39861453 0.9747287
-0.80042964 -6.3362694 -0.39861596 0.97472858
-0.88000977 -6.3257518 -0.39861739 0.97472841
-0.95941406 -6.314209 -0.39861882 0.97472835
-1.1178223 -6.2881541 -0.39862168 0.97472817
-1.196748 -6.273623 -0.39862305 0.97472811
-1.275498 -6.2581153 -0.39862445 0.97472799
-1.3540429 -6.2416015 -0.39862585 0.97472799
-1.5201563 -5.9206834 -0.38152003 0.9757992
-1.5944629 -5.9011326 -0.38152137 0.97579908
-1.668496 -5.8806543 -0.38152266 0.97579896
-1.7422558 -5.8592477 -0.38152397 0.9757989
-1.8157519 -5.8369141 -0.38152531 0.97579885
-1.9618652 -5.7894626 -0.3815279 0.97579873
-2.1786914 -5.7114649 -0.38153175 0.97579849
-2.2503126 -5.6836619 -0.381533 0.97579837
-2.3215625 -5.6549411 -0.38153425 0.97579831
-2.7195313 -5.7793064 -0.39865011 0.97472638
-2.7919335 -5.7446876 -0.39865139 0.97472632
-2.8639061 -5.7091599 -0.39865264 0.97472632
-3.0065038 -5.6354294 -0.39865515 0.97472608
-3.0770898 -5.5972362 -0.39865637 0.97472596
-2.3202929 -3.980283 -0.28755555 0.98170471
-2.2954979 -3.826416 -0.27850196 0.98227561
-2.4634569 -3.7760839 -0.28140137 0.9820928
-2.5309179 -3.7749608 -0.28366429 0.98195004
-2.6633887 -3.7644336 -0.28781459 0.98168844
-3.7544432 -5.1675682 -0.3986682 0.97472537
-3.8191016 -5.1200094 -0.3986693 0.97472519
-4.0093846 -4.9724607 -0.39867258 0.97472507
-4.0715818 -4.921699 -0.39867368 0.97472495
-4.1331153 -4.8701563 -0.39867473 0.97472489
-4.3137498 -4.7109571 -0.39867783 0.97472477
-4.4308105 -4.6010938 -0.39867985 0.97472459
-4.6011229 -4.4308496 -0.39868274 0.97472435
-1.0264062 -0.93987304 -0.086862944 0.99443781
-1.0273144 -0.82833982 -0.082365416 0.99472505
-1.0274512 -0.80736327 -0.081558496 0.99477667
-1.0276172 -0.78681642 -0.080779493 0.99482638
-1.0277734 -0.7666406 -0.080027543 0.99487436
-1.0279297 -0.7468164 -0.079301715 0.99492073
-1.0588964 -0.70995116 -0.079570197 0.99490362
-1.217832 -0.70994139 -0.087983891 0.99436635
-1.2538086 -0.70994139 -0.08992935 0.99424201
-1.4607714 -0.70995116 -0.10137069 0.99351186
-1.5087109 -0.70995116 -0.10406978 0.99333966
-1.559248 -0.70995116 -0.10693378 0.99315709
-1.7904882 -0.70890623 -0.12019271 0.99231184
-1.790293 -0.65728515 -0.11903347 0.99238575
-7.5818944 -2.6759374 -0.50182468 0.96829003
-7.6149216 -2.5804687 -0.50182515 0.96829003
-7.6467481 -2.48458 -0.50182563 0.96828997
-7.7349801 -2.1946192 -0.50182694 0.96828991
-7.7619433 -2.0972459 -0.5018273 0.96828991
-7.8122067 -1.9015136 -0.50182801 0.96828991
-7.8354688 -1.8032031 -0.50182831 0.96828997
-7.8575191 -1.7045996 -0.50182861 0.96828991
-7.8783298 -1.6057324 -0.50182891 0.96828985
-7.8979001 -1.5066016 -0.50182915 0.96828979
-7.9332714 -1.3076562 -0.50182956 0.96828979
-7.963623 -1.1078808 -0.50182992 0.96828979
-7.9769335 -1.0077246 -0.50183004 0.96828973
-7.9889646 -0.90739256 -0.50183016 0.96828973
-8.0092478 -0.70634764 -0.50183034 0.96828973
-8.0301752 -0.40396485 -0.50183034 0.96828973
-8.0346289 -0.30302733 -0.50183034 0.96828973
-8.0378027 -0.20204102 -0.50183028 0.96828973
-7.6971679 9.7656248e-06 -0.5018239 0.96961707
-7.6965818 0.096728511 -0.50182378 0.96961701
-7.6479883 0.86868161 -0.50182205 0.96961713
-7.636445 0.96471679 -0.50182176 0.96961719
-7.6097851 1.1563183 -0.5018211 0.96961719
-7.57832 1.3471875 -0.50182033 0.96961725
-7.5420604 1.5371972 -0.50181943 0.96961731
-7.5221481 1.6318555 -0.50181901 0.96961725
-7.4787498 1.8203613 -0.501818 0.96961737
-7.4552832 1.9141992 -0.50181752 0.96961737
-7.4047947 2.1009374 -0.50181633 0.96961749
-7.349658 2.2863574 -0.5018152 0.96961749
-7.2898436 2.4703124 -0.50181389 0.96961761
-7.2582226 2.5617285 -0.50181323 0.96961761
-1.7912695 0.68330079 -0.1249916 0.9923445
-1.7913672 0.70924801 -0.12561084 0.99230671
-1.6692773 0.70994139 -0.11826435 0.99275506
-1.5592773 0.70995116 -0.11169994 0.99315578
-1.5087206 0.70994139 -0.10870823 0.99333847
-1.2178515 0.70996094 -0.091905251 0.99436522
-1.1834277 0.70996094 -0.089972802 0.99448335
-1.1187011 0.70995116 -0.086381607 0.99470299
-1.0882226 0.70995116 -0.084710956 0.99480516
-1.0272168 0.74632812 -0.082780264 0.99492329
-1.026914 0.78627926 -0.084321819 0.994829
-1.0264062 0.84913087 -0.086848371 0.99467444
-1.0260448 0.89319336 -0.088689305 0.99456185
-1.0258691 0.91593748 -0.089660607 0.99450243
-4.8200779 4.5263672 -0.43108761 0.97384322
-4.1471677 4.5290332 -0.40036193 0.97568458
-4.0709181 4.5594921 -0.3985025 0.97579622
-4.0133009 4.6102829 -0.39850134 0.97579628
-3.9550586 4.6603417 -0.39850029 0.97579628
-3.7765331 4.8060641 -0.39849684 0.97579652
-3.7158496 4.8531151 -0.3984957 0.97579658
-3.6545606 4.8994236 -0.39849457 0.97579664
-3.5926855 4.9449315 -0.39849341 0.97579676
-3.4672558 5.0336227 -0.39849105 0.97579694
-3.4037304 5.076787 -0.39848983 0.97579694
-3.1443262 5.2413282 -0.39848495 0.97579724
-3.0781834 5.2804098 -0.39848372 0.97579736
-3.0115917 5.3186717 -0.3984825 0.97579736
-2.6716309 5.4971876 -0.39847612 0.97579771
-2.5326269 5.5625391 -0.39847353 0.97579795
-2.4625194 5.5939059 -0.39847225 0.97579801
-2.321162 5.6539841 -0.3984696 0.97579819
-2.0341308 5.7633982 -0.39846426 0.97579843
-1.961543 5.7884765 -0.39846298 0.97579855
-1.7419531 5.858242 -0.39845893 0.97579879
-1.6681836 5.8796482 -0.39845756 0.9757989
-1.4453906 5.9382911 -0.39845344 0.97579908
-1.2205371 5.9884863 -0.39844933 0.97579932
-1.1451855 6.0033202 -0.39844793 0.97579944
-0.765957 6.0632811 -0.39844099 0.97579986
-0.68969727 6.072412 -0.39843962 0.97579992
-0.61333007 6.0805564 -0.39843825 0.9758001
-0.53688473 6.0877829 -0.39843684 0.9758001
-0.46032226 6.0940137 -0.39843547 0.97580022
-0.3837207 6.0993161 -0.39843407 0.97580022
-0.30705076 6.1036325 -0.39843264 0.97580034
-0.23032226 6.1069822 -0.39843127 0.97580045
2.9296874e-05 6.1112499 -0.39842713 0.97580069
0.07682617 6.1107616 -0.3984257 0.97580075
0.30706054 6.103457 -0.39842156 0.97580099
0.46035156 6.0937791 -0.39841881 0.97580111
0.68967772 6.0720215 -0.39841467 0.97580147
0.76590818 6.0628514 -0.3984133 0.97580153
1.1450683 6.0026855 -0.39840648 0.975802
1.2204297 5.9878125 -0.39840513 0.975802
1.3705273 5.9552145 -0.39840242 0.97580212
1.5197265 5.9188571 -0.39839977 0.9758023
1.6679785 5.8787498 -0.39839712 0.97580248
1.7416894 5.8573141 -0.39839584 0.97580254
1.8151562 5.8349414 -0.3983945 0.97580266
1.9611914 5.7874413 -0.39839193 0.97580284
2.320703 5.6527929 -0.39838552 0.97580314
2.3915429 5.6231737 -0.3983843 0.9758032
2.7398632 5.4618359 -0.39837816 0.97580355
2.8082714 5.4269433 -0.398377 0.97580367
2.8762207 5.391201 -0.39837578 0.97580379
3.0108006 5.3171973 -0.3983734 0.97580385
3.3386912 5.1175876 -0.39836767 0.97580415
3.6533689 4.8977833 -0.39836222 0.97580457
3.8353417 4.7565722 -0.39835909 0.97580475
3.9536521 4.6586719 -0.39835703 0.97580481
4.1263962 4.5063086 -0.39835411 0.97580498
4.1826854 4.4541016 -0.3983531 0.97580504
4.2792087 4.4436231 -0.40219572 0.97557461
4.4918361 4.4357519 -0.41157234 0.97501236
5.0873828 4.4286327 -0.43973991 0.97332519
5.3634472 4.4370313 -0.45381767 0.97248304
5.8823924 4.5039158 -0.48300996 0.97073919
1.2552539 0.93629879 -0.10209361 0.99374241
1.2554199 0.91211909 -0.10116829 0.99379897
1.2557714 0.86499023 -0.099412762 0.99390632
1.2559375 0.84205079 -0.09858036 0.9939571
1.256416 0.7753613 -0.096252859 0.99409932
1.2566797 0.7325781 -0.094833754 0.99418616
1.2568262 0.71165037 -0.094161525 0.99422717
1.2914159 0.70995116 -0.09607742 0.99411011
1.3307519 0.70995116 -0.098332785 0.9939723
1.3720019 0.70996094 -0.10071281 0.99382681
1.6693164 0.70996094 -0.11826481 0.99275488
1.7293555 0.70996094 -0.1218753 0.99253446
1.793164 0.70995116 -0.12573364 0.99229908
1.933789 0.70995116 -0.13430034 0.99177653
2.0238867 0.65759766 -0.13873787 0.99150604
7.3457518 2.2851367 -0.50154907 0.9696334
7.3739061 2.1926563 -0.50154865 0.96963328
7.4008884 2.0998242 -0.50154823 0.96963322
7.4512887 1.9131738 -0.50154752 0.9696334
7.4747362 1.8193847 -0.50154722 0.9696334
7.518086 1.6309668 -0.50154662 0.96963346
7.5741892 1.3464355 -0.50154591 0.96963352
7.5905175 1.2511621 -0.50154573 0.96963352
7.6056151 1.1556739 -0.50154555 0.96963364
7.6322656 0.96418941 -0.50154531 0.96963358
7.6540818 0.77207029 -0.50154507 0.96963358
7.6710839 0.57948244 -0.50154495 0.96963352
7.6777539 0.48306641 -0.50154495 0.96963352
7.6905174 0.19333008 -0.50154501 0.96963352
7.6923337 -0.096660152 -0.50154531 0.96963352
7.6832223 -0.38652343 -0.50154579 0.96963352
7.6777735 -0.48303708 -0.50154597 0.96963346
7.6632223 -0.67583007 -0.50154644 0.9696334
7.6541209 -0.77208984 -0.50154674 0.96963346
7.6323338 -0.96417969 -0.50154728 0.96963334
7.6196094 -1.0600097 -0.50154763 0.96963334
7.5742283 -1.3464453 -0.50154877 0.9696334
7.518115 -1.6309766 -0.50155008 0.96963334
7.4747753 -1.8193847 -0.50155109 0.96963322
7.3739548 -2.1926661 -0.5015533 0.9696331
7.34583 -2.2851562 -0.50155389 0.96963304
2.0238867 -0.65758789 -0.13873771 0.99150604
2.0238769 -0.68581051 -0.1393169 0.99147075
2.0238574 -0.71429688 -0.13992295 0.99143386
1.9337597 -0.70995116 -0.13429989 0.99177665
1.8611523 -0.70994139 -0.12986553 0.99204701
1.7931445 -0.70994139 -0.12573348 0.99229914
1.5592968 -0.70995116 -0.11169972 0.99315572
1.5087402 -0.70995116 -0.10870796 0.99333841
1.415293 -0.70993161 -0.10322769 0.99367321
1.3307617 -0.70995116 -0.098332629 0.99397224
1.2913965 -0.70995116 -0.096077234 0.99411017
1.2565429 -0.75380856 -0.095530428 0.99414355
1.25625 -0.79722655 -0.097001262 0.99405366
1.2561035 -0.81944335 -0.097777061 0.99400628
1.2559375 -0.84203124 -0.098580547 0.99395716
4.8533006 -3.7159863 -0.39851072 0.97579569
4.7584276 -3.8368065 -0.3985126 0.97579551
4.6104689 -4.0134473 -0.39851546 0.97579533
4.4559474 -4.1843944 -0.39851847 0.97579521
4.4030371 -4.240078 -0.39851946 0.97579509
4.2950974 -4.3493943 -0.39852157 0.97579503
4.1844726 -4.455986 -0.39852366 0.97579485
4.0711913 -4.5597754 -0.39852583 0.97579473
4.0135646 -4.6105661 -0.39852691 0.97579473
3.9553418 -4.6606445 -0.39852804 0.97579467
3.2186327 -3.9917188 -0.3343038 0.97965539
3.7161913 -4.8535643 -0.39853254 0.97579437
3.5306933 -4.9902244 -0.39853606 0.97579408
3.340127 -5.1197948 -0.39853966 0.9757939
3.2755468 -5.1613669 -0.39854088 0.97579384
3.2104101 -5.2021384 -0.39854208 0.97579378
3.1448047 -5.2420897 -0.3985433 0.97579372
3.0787108 -5.2812009 -0.39854458 0.9757936
3.0120897 -5.3194919 -0.39854583 0.9757936
2.9450293 -5.3569531 -0.39854705 0.97579342
2.5331836 -5.5636816 -0.39855474 0.975793
2.3217187 -5.6552343 -0.39855868 0.97579283
2.1788769 -5.7118359 -0.39856133 0.97579265
2.1069238 -5.7387891 -0.39856264 0.97579259
2.034668 -5.7648339 -0.39856398 0.97579247
1.8891602 -5.8141699 -0.39856669 0.97579235
1.7424512 -5.8598728 -0.39856941 0.97579211
1.5204004 -5.9214158 -0.39857349 0.97579193
1.4458691 -5.9400778 -0.39857483 0.97579187
1.296123 -5.9745703 -0.39857757 0.97579175
1.2209766 -5.9904199 -0.39857897 0.97579157
1.1456054 -6.0053124 -0.39858034 0.97579151
1.070039 -6.019248 -0.39858171 0.97579145
0.99432617 -6.0322461 -0.39858314 0.97579134
0.53712887 -6.0901365 -0.39859146 0.97579086
0.46054685 -6.0964355 -0.39859283 0.97579074
0.38391602 -6.1017575 -0.39859429 0.97579068
0.30717772 -6.1061034 -0.39859566 0.97579062
0.23045897 -6.1095114 -0.39859703 0.9757905
0.1536621 -6.1119528 -0.39859843 0.97579044
0.076865233 -6.1134081 -0.3985998 0.97579038
0 -6.1139059 -0.3986012 0.97579032
-0.076816402 -6.1134667 -0.3986026 0.97579014
-0.15362304 -6.112031 -0.39860401 0.97579008
-0.23041992 -6.1096287 -0.39860538 0.97579008
-0.30717772 -6.1062889 -0.39860678 0.9757899
-0.38388672 -6.101953 -0.39860815 0.9757899
-0.46053711 -6.0966697 -0.39860955 0.97578979
-0.69 -6.0750585 -0.39861366 0.97578949
-0.76628906 -6.065918 -0.39861503 0.97578949
-1.0701269 -6.019834 -0.39862049 0.97578913
-1.1456835 -6.0059376 -0.39862186 0.97578901
-1.2962695 -5.9752831 -0.39862454 0.97578889
-1.406289 -5.7776074 -0.38767377 0.97644615
-1.4540527 -5.6631932 -0.3811914 0.97683531
-1.5972852 -5.6297264 -0.38152111 0.97681558
-1.6679101 -5.6092286 -0.38152236 0.97681546
-1.7382617 -5.5878415 -0.38152361 0.9768154
-1.8083496 -5.5655761 -0.38152489 0.97681534
-1.9476562 -5.5184178 -0.38152733 0.97681516
-2.0857422 -5.4677634 -0.38152975 0.97681499
-2.2205956 -5.4089942 -0.38120502 0.9768346
-2.3210058 -5.4574218 -0.38664204 0.97650808
-2.4635742 -5.5963278 -0.39864528 0.9757877
-2.5337207 -5.5649509 -0.3986465 0.97578758
-2.6034765 -5.5326757 -0.39864776 0.97578752
-2.7417188 -5.4655566 -0.39865017 0.97578728
-2.8782032 -5.3949509 -0.39865255 0.97578722
-2.945791 -5.3583689 -0.39865378 0.97578716
-2.294209 -3.8242576 -0.29074937 0.9822824
-2.3854883 -3.7589355 -0.2902503 0.98231256
-2.4626367 -3.7748339 -0.29384592 0.98209554
-2.5899315 -3.7599707 -0.29765934 0.98186511
-2.6604102 -3.7602539 -0.30030692 0.98170543
-3.6561229 -4.9015136 -0.39866614 0.97578639
-3.7174315 -4.8551855 -0.39866722 0.97578639
-3.7781639 -4.808115 -0.39866823 0.97578627
-3.8978026 -4.7116599 -0.39867032 0.97578627
-4.1860547 -4.457695 -0.39867526 0.97578579
-1.0258496 -0.91593748 -0.089660682 0.99450248
-1.0260448 -0.89319336 -0.088689305 0.99456185
-1.0264062 -0.84912109 -0.086848445 0.9946745
-1.0267676 -0.80680662 -0.085134469 0.99477929
-1.0270703 -0.76611328 -0.083537288 0.99487698
-1.0306641 -0.70994139 -0.081593476 0.99499589
-1.0588964 -0.70995116 -0.083116263 0.99490273
-1.0882128 -0.70994139 -0.084710844 0.99480522
-1.1504004 -0.70994139 -0.088133812 0.99459589
-1.1833984 -0.70994139 -0.089972839 0.99448347
-1.217832 -0.70994139 -0.091905095 0.99436533
-1.2537988 -0.70995116 -0.093937375 0.994241
-1.2913769 -0.70995116 -0.096077271 0.99411023
-1.3719434 -0.70995116 -0.10071274 0.99382699
-1.4152441 -0.70995116 -0.1032278 0.99367332
-1.5087109 -0.70995116 -0.10870808 0.99333853
-1.6126952 -0.70995116 -0.11487915 0.9929617
-1.7912598 -0.68330079 -0.12499138 0.9923445
-1.7911816 -0.65760744 -0.12439842 0.99238062
-7.2583103 -2.5617285 -0.50181866 0.96961731
-7.2899218 -2.4703319 -0.50181913 0.96961731
-7.4048824 -2.1009569 -0.50182086 0.96961713
-7.4306836 -2.0077441 -0.50182122 0.96961719
-7.5221872 -1.6318555 -0.50182247 0.96961713
-7.542109 -1.537207 -0.50182271 0.96961707
-7.5608497 -1.4423046 -0.50182295 0.96961701
-7.5946774 -1.2518457 -0.50182337 0.96961713
-7.6098337 -1.1563085 -0.50182354 0.96961701
-7.6237597 -1.0605859 -0.50182372 0.96961707
-7.6364942 -0.96470702 -0.50182384 0.96961701
-7.6753125 -0.57980466 -0.50182414 0.96961707
-7.6819921 -0.48331055 -0.50182414 0.96961707
-7.6874509 -0.3867285 -0.50182414 0.96961707
-7.694746 -0.19342773 -0.50182408 0.96961707
-7.3767676 0.27823243 -0.50181782 0.97083747
-7.3674412 0.46352538 -0.50181741 0.97083747
-7.3610253 0.55608398 -0.50181723 0.97083753
-7.3348141 0.83311522 -0.50181645 0.97083759
-7.3237987 0.92521483 -0.50181615 0.97083747
-7.2512107 1.3832519 -0.50181431 0.97083765
-7.2332516 1.4742481 -0.50181389 0.97083771
-7.2141404 1.5650293 -0.50181347 0.97083771
-7.1725292 1.7458301 -0.50181252 0.97083777
-7.1500192 1.8358203 -0.50181204 0.97083777
-7.1016212 2.0149219 -0.50181097 0.97083777
-7.0756931 2.1039941 -0.50181043 0.97083795
-6.9610348 2.456836 -0.50180799 0.97083801
-1.7293066 0.70994139 -0.12707703 0.99253333
-1.6692773 0.70994139 -0.12331218 0.99275374
-1.612705 0.70994139 -0.11978263 0.99296039
-1.4607617 0.70995116 -0.11040836 0.99350959
-1.4152637 0.70994139 -0.1076337 0.99367207
-1.3719531 0.70994139 -0.10501148 0.99382585
-1.3307323 0.70994139 -0.10252967 0.99397129
-1.1834179 0.70996094 -0.093813054 0.99448234
-1.1504004 0.70995116 -0.091895446 0.99459487
-1.0588964 0.70995116 -0.0866642 0.99490178
-1.0306641 0.70996094 -0.085076138 0.99499494
-1.0261914 0.78574216 -0.087860413 0.99483162
-1.0260546 0.80626953 -0.088706471 0.99478185
-1.0258594 0.82719725 -0.089583315 0.99473047
-1.0255078 0.87032223 -0.091432452 0.99462193
-1.0250976 0.91527343 -0.093419261 0.99450547
-1.0248828 0.93848628 -0.094467506 0.99444401
-4.8200779 4.5263672 -0.44948661 0.97383845
-4.5803709 4.5231833 -0.4375985 0.97452152
-4.3528709 4.5201564 -0.42658412 0.97515476
-4.0357323 4.5200782 -0.41191813 0.97599858
-3.8385253 4.523047 -0.40326849 0.97649664
-3.7429101 4.5244236 -0.39916572 0.97673297
-3.5637012 4.6544237 -0.3984932 0.97677171
-3.5217869 4.7214355 -0.4004097 0.97666132
-3.4455957 4.7424803 -0.39849097 0.97677183
-3.3857226 4.7853904 -0.39848983 0.97677189
-3.264375 4.8689451 -0.39848754 0.97677201
-3.0156054 5.0267577 -0.39848286 0.97677219
-2.8239453 5.1367869 -0.39847925 0.97677249
-2.2941015 5.3941407 -0.39846939 0.97677302
-2.1578026 5.4500489 -0.39846686 0.9767732
-2.0891309 5.4767184 -0.3984656 0.97677326
-2.0201659 5.5025196 -0.39846435 0.97677332
-1.8112988 5.574697 -0.39846045 0.97677356
-1.6706347 5.6184177 -0.39845785 0.97677374
-1.528916 5.6585937 -0.39845526 0.97677386
-1.3862207 5.6951852 -0.39845264 0.97677404
-1.2426465 5.7281833 -0.39845002 0.97677416
-0.86057615 4.8409958 -0.33423859 0.98048007
-0.80762696 5.8054004 -0.39844206 0.97677463
-0.73460937 5.8150778 -0.39844075 0.97677469
-0.44149414 5.8445702 -0.39843535 0.97677493
-0.36799803 5.8496385 -0.39843407 0.97677505
-0.22089843 5.8569922 -0.39843139 0.97677523
1.953125e-05 5.8611035 -0.39842734 0.97677541
0.14730468 5.8592186 -0.39842471 0.97677553
0.22091797 5.8568649 -0.39842337 0.97677571
0.29450196 5.8536229 -0.39842203 0.97677571
0.36802733 5.8494434 -0.39842072 0.97677577
0.44151366 5.844326 -0.39841938 0.97677588
0.51491207 5.8383007 -0.39841807 0.97677594
0.58824217 5.831367 -0.39841673 0.976776
0.80758786 5.8049803 -0.39841276 0.97677624
1.0257813 5.7703614 -0.39840889 0.97677648
1.0982226 5.7570019 -0.39840758 0.97677654
1.1704687 5.7427149 -0.3984063 0.97677666
1.242539 5.7275486 -0.39840499 0.97677672
1.3860644 5.6944723 -0.39840242 0.9767769
1.4575195 5.6765919 -0.39840117 0.9767769
1.7408594 5.5961227 -0.39839613 0.9767772
1.8110352 5.5737791 -0.39839488 0.97677732
1.8809179 5.5505567 -0.39839363 0.97677743
2.0887792 5.4756932 -0.39838997 0.97677755
2.1574023 5.4489746 -0.39838874 0.97677767
2.3612304 5.36375 -0.39838517 0.97677785
2.4284375 5.3336425 -0.39838395 0.97677791
2.5617187 5.2708983 -0.39838162 0.97677803
2.6933398 5.204824 -0.39837927 0.97677815
3.0776951 4.9870801 -0.39837256 0.97677857
3.3243554 4.8260937 -0.39836827 0.97677875
3.3847167 4.7839255 -0.3983672 0.97677886
3.4445605 4.7410059 -0.39836615 0.97677886
3.6207812 4.6077833 -0.39836311 0.97677904
3.6783788 4.5619044 -0.3983621 0.9767791
3.9640527 4.4397755 -0.40460104 0.97641987
4.597949 4.427783 -0.43392393 0.97473264
4.715332 4.4279881 -0.43971625 0.97439969
5.2186036 4.4288282 -0.46528235 0.97293156
5.3634176 4.4369922 -0.4731845 0.97247827
5.8584275 4.4855762 -0.50157362 0.97085136
1.2543848 0.93566406 -0.10637874 0.99374557
1.2547559 0.8877539 -0.10448524 0.99385655
1.2552831 0.81892574 -0.10188369 0.99400902
1.2554296 0.79671872 -0.10107631 0.9940564
1.2557617 0.75333005 -0.0995446 0.99414611
1.2558789 0.73210937 -0.098818891 0.99418879
1.2914159 0.70995116 -0.10017814 0.99410903
1.3720019 0.70996094 -0.1050116 0.99382567
1.4152832 0.70995116 -0.10763401 0.99367201
1.4608008 0.70995116 -0.11040828 0.99350941
1.5593164 0.70995116 -0.11646755 0.99315441
1.7293555 0.70996094 -0.1270771 0.99253309
1.793164 0.70995116 -0.13110007 0.99229765
1.8611327 0.70996094 -0.1354086 0.99204564
1.933789 0.70995116 -0.14003246 0.99177504
2.0237987 0.7142871 -0.14589034 0.99143249
2.0238085 0.68581051 -0.14525795 0.99146944
2.0238085 0.65757811 -0.14465386 0.99150479
7.045166 2.1916211 -0.50155461 0.97085238
7.0979977 2.0138965 -0.50155383 0.97085243
7.1227145 1.9245312 -0.50155348 0.97085255
7.1901951 1.654707 -0.50155252 0.97085255
7.2295117 1.4734863 -0.50155205 0.97085255
7.2474508 1.3825293 -0.50155181 0.97085255
7.319941 0.92472655 -0.50155097 0.97085261
7.340879 0.74048829 -0.50155079 0.97085261
7.3495898 0.64818358 -0.50155073 0.97085261
7.3571677 0.55577147 -0.50155067 0.97085261
7.3635545 0.46327147 -0.50155067 0.97085267
7.3728805 0.27809569 -0.50155067 0.97085261
7.3757911 0.18541016 -0.50155073 0.97085261
7.3775582 0.092724606 -0.50155079 0.97085255
7.3775291 -0.092695311 -0.50155103 0.97085267
7.3757715 -0.18541992 -0.50155109 0.97085273
7.3728709 -0.27807617 -0.50155127 0.97085267
7.3687987 -0.37070313 -0.50155145 0.97085261
7.3635936 -0.46326169 -0.50155163 0.97085249
7.3571677 -0.55576169 -0.50155187 0.97085261
7.3496094 -0.64816403 -0.5015521 0.97085255
7.340879 -0.74048829 -0.5015524 0.97085261
7.3199606 -0.92472655 -0.50155294 0.97085255
7.3077831 -1.0166211 -0.50155324 0.97085249
7.2799315 -1.1999609 -0.50155395 0.97085243
7.264277 -1.2913378 -0.50155431 0.97085249
7.2475195 -1.3825293 -0.50155473 0.97085232
7.2295704 -1.4734863 -0.50155514 0.97085232
7.1227927 -1.9245312 -0.50155759 0.97085226
7.0980563 -2.0138965 -0.50155813 0.97085226
2.0238085 -0.65756834 -0.14465401 0.99150485
2.0238085 -0.68578124 -0.14525822 0.9914695
2.0238085 -0.7142871 -0.14589034 0.99143243
1.8611523 -0.70994139 -0.13540806 0.99204558
1.7293457 -0.70993161 -0.12707691 0.99253321
1.6693066 -0.70994139 -0.12331215 0.99275362
1.5592968 -0.70995116 -0.11646701 0.99315447
1.4608008 -0.70994139 -0.11040798 0.99350947
1.255752 -0.75333005 -0.099544637 0.99414617
1.2555957 -0.77485353 -0.10029701 0.99410206
1.2549413 -0.86442381 -0.10358749 0.99390918
1.2547656 -0.8877539 -0.10448536 0.99385655
4.740664 -3.629746 -0.40587622 0.97634643
4.6222653 -3.6321287 -0.39961612 0.97670698
4.2735839 -4.0131445 -0.39852157 0.97676998
4.1714063 -4.1192966 -0.39852354 0.97676986
4.1193161 -4.1713963 -0.39852455 0.9767698
3.9045606 -4.3731346 -0.39852867 0.97676963
3.793457 -4.4699121 -0.39853075 0.97676945
3.2909961 -3.9781053 -0.35096848 0.97951335
3.2186327 -3.9917188 -0.34857199 0.97965169
3.564121 -4.6549025 -0.3985351 0.97676921
3.5053418 -4.6993165 -0.39853621 0.97676927
3.3257713 -4.8281345 -0.3985396 0.97676903
3.2648535 -4.8695798 -0.39854077 0.97676891
2.8887987 -5.1017675 -0.3985478 0.97676849
2.759707 -5.1727829 -0.39855024 0.97676837
2.6945019 -5.2070799 -0.39855143 0.97676826
2.6288476 -5.2405372 -0.39855266 0.97676826
2.4963379 -5.3049607 -0.39855513 0.97676814
2.362246 -5.3660545 -0.39855766 0.97676802
2.2946386 -5.3953419 -0.39855888 0.9767679
2.1583495 -5.4513278 -0.39856142 0.97676778
2.0896873 -5.4780469 -0.3985627 0.97676766
2.0206835 -5.5039062 -0.39856398 0.97676754
1.8118261 -5.576201 -0.3985678 0.97676736
1.7416308 -5.5985351 -0.39856914 0.9767673
1.6711328 -5.6199899 -0.39857045 0.97676724
1.6004003 -5.6405859 -0.39857173 0.97676706
1.5293945 -5.660254 -0.39857304 0.97676706
1.2430859 -5.7300291 -0.39857829 0.97676677
1.0986913 -5.7594824 -0.39858094 0.97676665
1.0262402 -5.7728806 -0.39858225 0.97676647
0.953623 -5.7853222 -0.39858359 0.97676647
0.80795896 -5.8074899 -0.39858627 0.97676635
0.73489255 -5.8172069 -0.39858755 0.97676623
0.58848631 -5.8338866 -0.39859027 0.97676605
0.51512694 -5.8408494 -0.39859161 0.97676593
0.44171873 -5.8468652 -0.39859295 0.97676593
0.29460937 -5.8561716 -0.39859557 0.97676575
0.14737305 -5.8617673 -0.39859828 0.97676557
0.073710933 -5.8631639 -0.39859962 0.97676551
-0.07366211 -5.863193 -0.39860228 0.97676545
-0.29459959 -5.856318 -0.39860624 0.97676516
-0.51513672 -5.8411131 -0.39861026 0.97676492
-0.58848631 -5.8341894 -0.39861155 0.97676486
-0.66175783 -5.8263574 -0.39861289 0.9767648
-0.7349121 -5.8175974 -0.3986142 0.97676474
-0.80796874 -5.80792 -0.39861551 0.97676468
-0.88087887 -5.7973337 -0.39861682 0.97676456
-0.95368165 -5.78582 -0.39861813 0.9767645
-1.0987695 -5.7600684 -0.39862075 0.97676432
-1.2431934 -5.7306738 -0.39862332 0.9767642
-1.3151269 -5.7146192 -0.39862457 0.97676408
-1.3868066 -5.6976562 -0.39862591 0.97676408
-1.4484081 -5.641201 -0.39591795 0.97692001
-1.4888476 -5.5102634 -0.38801116 0.97737575
-1.6090235 -5.4111915 -0.38376045 0.97762072
-1.7328515 -5.3331442 -0.38119608 0.97776866
-1.7997167 -5.3109665 -0.38119727 0.9777686
-2.0987401 -5.3008595 -0.38755932 0.97740179
-2.2950878 -5.3964548 -0.398642 0.97676319
-2.4300194 -5.3371286 -0.39864439 0.97676295
-2.4968653 -5.3061814 -0.39864555 0.97676295
-2.695127 -5.2083397 -0.39864907 0.97676271
-2.825166 -5.1390038 -0.39865133 0.97676259
-2.2978809 -4.0581737 -0.31702408 0.98147631
-2.3175879 -3.9756541 -0.31282753 0.98171926
-2.2929003 -3.8220897 -0.30298749 0.98228914
-2.3248143 -3.7671385 -0.30092373 0.9824087
-2.384619 -3.7575977 -0.30253109 0.9823156
-2.5292382 -3.7724414 -0.30874941 0.98195547
-2.6574707 -3.7560742 -0.31277579 0.98172218
-3.4470897 -4.7445116 -0.39866218 0.97676194
-3.5064354 -4.7008395 -0.39866319 0.97676194
-3.6811523 -4.565371 -0.39866623 0.97676176
-3.7947361 -4.4714451 -0.3986682 0.97676164
-3.8506248 -4.423418 -0.39866912 0.97676158
-3.9605956 -4.3252735 -0.39867103 0.97676146
-4.0146484 -4.2751756 -0.39867195 0.9767614
-4.0680466 -4.2243943 -0.39867285 0.9767614
-4.2752147 -4.0147071 -0.3986764 0.9767611
-1.024873 -0.93849605 -0.094467618 0.99444407
-1.0250976 -0.91525388 -0.09341915 0.99450552
-1.0253222 -0.8925488 -0.092407987 0.99456471
-1.0257031 -0.84851563 -0.090491369 0.99467719
-1.0265235 -0.74582028 -0.086255454 0.9949258
-1.0882128 -0.70994139 -0.088326491 0.99480426
-1.1187109 -0.70994139 -0.090068392 0.99470198
-1.3307226 -0.70995116 -0.10252967 0.99397129
-1.4607714 -0.70995116 -0.11040802 0.99350953
-1.5087109 -0.70995116 -0.11334766 0.99333727
-1.7292968 -0.70995116 -0.12707686 0.99253333
-1.7921191 -0.68363279 -0.13038963 0.99233943
-1.7920409 -0.65793943 -0.12977074 0.99237555
-6.9610839 -2.4568458 -0.50181317 0.97083783
-7.048779 -2.192744 -0.50181448 0.97083765
-7.1016698 -2.0149415 -0.50181526 0.97083759
-7.1264453 -1.9255273 -0.50181562 0.97083753
-7.1500778 -1.8358203 -0.50181592 0.97083753
-7.1725974 -1.7458301 -0.50181627 0.97083747
-7.1939449 -1.6555663 -0.50181657 0.97083759
-7.2512498 -1.3832519 -0.50181729 0.97083753
-7.2680564 -1.2920117 -0.50181752 0.97083753
-7.2982421 -1.1089746 -0.50181782 0.97083747
-7.3348632 -0.83310544 -0.50181824 0.97083741
-7.3447556 -0.7408691 -0.5018183 0.97083741
-7.3674316 -0.46351561 -0.50181842 0.97083753
-7.3767772 -0.27822265 -0.50181836 0.97083741
-7.3796973 -0.1855078 -0.50181836 0.97083741
-7.3814158 -0.092753902 -0.5018183 0.97083753
-7.0915427 1.953125e-05 -0.50181293 0.97196341
-7.0825782 0.35631835 -0.5018124 0.97196347
-7.0775585 0.4452832 -0.50181222 0.97196341
-7.0713863 0.53419918 -0.50181198 0.97196347
-7.0641012 0.62299806 -0.5018118 0.97196352
-7.0462208 0.80033201 -0.50181127 0.97196347
-7.0238671 0.97713864 -0.50181067 0.97196358
-6.9820504 1.2411816 -0.50180966 0.97196352
-6.965879 1.3288085 -0.50180924 0.97196364
-6.9486132 1.41625 -0.50180882 0.9719637
-6.9108396 1.5904199 -0.50180799 0.97196364
-6.8902926 1.6771289 -0.50180751 0.9719637
-6.7443357 2.1913769 -0.50180429 0.97196394
-1.7928808 0.65823239 -0.13514981 0.99237061
-1.7929883 0.68396485 -0.13579501 0.99233431
-1.7293066 0.70994139 -0.13228057 0.9925319
-1.612705 0.70994139 -0.12468781 0.99295908
-1.5592773 0.70995116 -0.12123676 0.99315321
-1.5087206 0.70994139 -0.11798961 0.99333596
-1.3719531 0.70994139 -0.10931202 0.99382466
-1.2913769 0.70994139 -0.10428024 0.99410802
-1.2538183 0.70994139 -0.10195785 0.99423879
-1.2178417 0.70995116 -0.099752001 0.99436319
-1.1834179 0.70996094 -0.09765476 0.99448133
-1.0882226 0.70995116 -0.091943547 0.99480325
-1.0588964 0.70995116 -0.090213165 0.99490082
-1.02583 0.74532223 -0.089727134 0.99492818
-1.0256641 0.76507813 -0.090546645 0.99488199
-1.0255078 0.78519529 -0.091395684 0.99483413
-1.0249609 0.84791988 -0.094130516 0.99467999
-1.0247656 0.86967772 -0.095108986 0.99462485
-1.0241308 0.93779296 -0.098263584 0.99444705
-4.6986132 4.524756 -0.46158534 0.97418165
-4.5803709 4.5231833 -0.4555175 0.97451669
-4.3528709 4.5201564 -0.44405299 0.97515005
-4.2433395 4.5187106 -0.43863651 0.97544932
-3.929961 4.5145411 -0.42354333 0.97628409
-3.8301756 4.5132227 -0.41887027 0.97654265
-3.6411328 4.5157619 -0.41048145 0.97700703
-3.5494823 4.5171094 -0.40651649 0.97722656
-3.4595408 4.5183787 -0.40268743 0.97743863
-3.1944628 4.6376071 -0.39848652 0.97767138
-3.1359668 4.6773829 -0.39848539 0.97767133
-3.0771875 4.7167969 -0.39851806 0.97766954
-2.9574218 4.7922168 -0.39848205 0.9776715
-2.8969433 4.8289747 -0.39848089 0.97767162
-2.7746484 4.9002247 -0.39847863 0.97767174
-2.7128417 4.9346876 -0.39847746 0.97767186
-2.5879784 5.0012794 -0.39847514 0.97767192
-2.3976269 5.0952244 -0.39847159 0.9776721
-2.2687988 5.1538281 -0.39846918 0.97767228
-2.0729198 5.2356544 -0.39846557 0.9776724
-1.807207 5.3331056 -0.39846066 0.97767276
-1.7400585 5.3553905 -0.39845937 0.97767276
-1.5369531 5.4171095 -0.39845565 0.97767299
-1.4003222 5.4539843 -0.39845315 0.97767317
-1.2628223 5.487412 -0.39845061 0.97767329
-1.1937597 5.5028515 -0.39844936 0.97767329
-1.0551074 5.5310645 -0.39844683 0.97767347
-0.86056638 4.8410058 -0.34792727 0.98047632
-0.84584957 5.5668454 -0.39844298 0.97767371
-0.77582031 5.5770116 -0.39844173 0.97767383
-0.70570308 5.5863085 -0.39844042 0.97767383
-0.56507814 5.6022458 -0.39843789 0.97767401
-0.42412108 5.6146383 -0.39843526 0.97767413
-0.35352537 5.6195116 -0.39843401 0.97767419
-0.21220702 5.6265917 -0.39843145 0.97767431
-0.07075195 5.630127 -0.39842886 0.97767437
9.7656248e-06 5.630537 -0.39842761 0.97767454
0.1415332 5.6287107 -0.39842504 0.97767472
0.21223633 5.6264744 -0.39842376 0.97767478
0.28290039 5.6233592 -0.39842251 0.97767478
0.35355467 5.6193357 -0.39842123 0.9776749
0.4241406 5.6144433 -0.39841995 0.9776749
0.63543946 5.5944042 -0.39841613 0.97767514
0.84583008 5.5664258 -0.39841235 0.97767538
1.0550195 5.5305271 -0.39840862 0.97767562
1.1244433 5.5168066 -0.39840737 0.97767574
1.2627051 5.4867868 -0.39840487 0.9776758
1.3315527 5.4704785 -0.39840364 0.97767586
1.5367676 5.4163475 -0.39839998 0.97767609
1.6723828 5.3759766 -0.39839759 0.97767627
1.8738085 5.3090916 -0.39839402 0.97767639
2.0725489 5.2346582 -0.3983905 0.97767657
2.2034278 5.1808887 -0.39838818 0.97767669
2.2683692 5.1527829 -0.39838701 0.97767669
2.397119 5.0941014 -0.39838478 0.97767693
2.5243554 5.0322361 -0.39838251 0.97767705
2.5873828 5.0000978 -0.39838141 0.97767711
2.7739842 4.899004 -0.39837813 0.97767723
3.0166113 4.7533789 -0.3983739 0.97767746
3.0760937 4.7150879 -0.39837286 0.97767752
3.1350877 4.6760449 -0.39837185 0.97767758
3.1953516 4.6387892 -0.39858824 0.9776656
3.2516015 4.5957713 -0.39836982 0.97767764
3.3090723 4.5545216 -0.39836884 0.97767776
3.4885936 4.43959 -0.39953911 0.97761291
3.5782518 4.4377537 -0.40339008 0.97739965
3.6696484 4.4358301 -0.40737528 0.97717887
3.7628515 4.4338474 -0.41150329 0.97695029
3.856123 4.4296875 -0.4155831 0.97672451
4.715332 4.4279785 -0.45772281 0.97439486
5.3633986 4.4369726 -0.49255881 0.97247314
5.5179687 4.4492478 -0.50157982 0.9719761
1.2535156 0.93502927 -0.11065998 0.99374866
1.25375 0.91088867 -0.10965843 0.99380493
1.2539356 0.88716793 -0.10869133 0.99385941
1.2541308 0.86384761 -0.10775791 0.99391198
1.2544824 0.81839842 -0.10598724 0.9940117
1.2547948 0.77435547 -0.10433712 0.99410474
1.3720019 0.70996094 -0.10931167 0.99382448
1.4152832 0.70995116 -0.11204151 0.99367082
1.4608008 0.70995116 -0.11492946 0.99350816
1.7293555 0.70996094 -0.13228081 0.99253166
1.793164 0.70995116 -0.13646896 0.99229616
1.8611327 0.70996094 -0.14095341 0.99204409
1.933789 0.70995116 -0.14576679 0.99177343
2.0237305 0.71425778 -0.15185943 0.99143118
2.0237596 0.65754879 -0.15057258 0.99150342
6.7939844 2.020205 -0.50155932 0.97197729
6.842617 1.8488476 -0.50155866 0.97197729
6.8653126 1.7627149 -0.5015583 0.97197723
6.8869138 1.6763085 -0.50155801 0.97197729
6.9074121 1.5896192 -0.50155771 0.97197735
6.9268551 1.5027051 -0.50155747 0.97197729
6.9451561 1.4155371 -0.50155723 0.97197747
6.9935837 1.1527636 -0.50155663 0.97197741
7.0075192 1.0648047 -0.50155646 0.97197741
7.0320411 0.88834959 -0.50155622 0.97197753
7.0605273 0.62268555 -0.50155598 0.97197747
7.0678024 0.533916 -0.50155598 0.97197747
7.0789843 0.35613281 -0.50155592 0.97197747
7.0857129 0.17812499 -0.50155598 0.97197741
7.0879393 9.7656248e-06 -0.50155616 0.97197747
7.0873828 -0.089062497 -0.50155628 0.97197747
7.0829101 -0.26713866 -0.50155652 0.97197747
7.0789938 -0.35612303 -0.50155669 0.97197747
7.0605469 -0.62268555 -0.50155729 0.97197741
7.0521679 -0.71135741 -0.50155759 0.97197741
7.0320702 -0.88836914 -0.50155813 0.97197735
7.0203609 -0.97663087 -0.50155842 0.97197735
7.0075488 -1.0647753 -0.50155872 0.97197729
6.9935937 -1.1527538 -0.50155908 0.97197741
6.9624414 -1.3281543 -0.50155985 0.97197729
6.9451952 -1.4155371 -0.50156021 0.97197729
6.9268651 -1.5027148 -0.50156063 0.97197729
6.9074316 -1.5896288 -0.50156111 0.97197729
6.8869529 -1.6762987 -0.50156158 0.97197711
6.8653417 -1.7627245 -0.50156206 0.97197711
6.7681446 -2.1054492 -0.5015642 0.971977
2.0237403 -0.65754879 -0.15057251 0.99150348
2.0237305 -0.68576169 -0.15120135 0.99146819
1.9337597 -0.70995116 -0.14576656 0.99177355
1.8611523 -0.70994139 -0.14095333 0.99204403
1.7931445 -0.70994139 -0.13646843 0.99229628
1.7293261 -0.70994139 -0.13228038 0.99253178
1.6693066 -0.70994139 -0.12836181 0.99275225
1.6127343 -0.70995116 -0.12468731 0.99295896
1.5592968 -0.70995116 -0.12123638 0.99315315
1.4608008 -0.70994139 -0.11492931 0.99350822
1.415293 -0.70993161 -0.11204117 0.99367082
1.2913965 -0.70995116 -0.1042802 0.99410796
1.2552344 -0.71074218 -0.10207294 0.9942323
1.2549413 -0.75284177 -0.10355507 0.99414879
1.2544531 -0.81837887 -0.10598716 0.99401182
1.2535254 -0.93500972 -0.11065994 0.99374866
4.7300096 -3.6215723 -0.42154562 0.97639453
4.2939844 -3.6441112 -0.3985208 0.97766936
4.1781249 -3.8258593 -0.40087622 0.97753882
4.1054783 -3.8553026 -0.39852446 0.97766918
4.0073338 -3.9572656 -0.39852634 0.97766906
3.9572949 -4.0073242 -0.39852729 0.977669
3.9066405 -4.0567479 -0.39852828 0.97766894
3.644248 -4.2940917 -0.39853328 0.97766864
3.2909961 -3.9781053 -0.36534011 0.97950941
3.2186327 -3.9917188 -0.36284691 0.97964782
3.4798436 -4.4284372 -0.39853641 0.97766846
3.4239354 -4.4718165 -0.39853743 0.9776684
3.310498 -4.5564842 -0.39853957 0.97766823
3.1949413 -4.6382618 -0.39854178 0.97766817
3.1364355 -4.6780372 -0.39854285 0.97766817
3.0773926 -4.7171092 -0.39854398 0.97766805
2.8365331 -4.8658104 -0.39854851 0.97766787
2.7133789 -4.9355955 -0.39855084 0.97766769
2.4619823 -5.065752 -0.39855552 0.97766745
2.3981445 -5.0963087 -0.39855671 0.97766739
2.3339355 -5.1260448 -0.39855787 0.97766733
2.2693458 -5.1549802 -0.39855909 0.97766727
2.139082 -5.2104297 -0.39856151 0.97766709
2.0074804 -5.262578 -0.39856395 0.97766697
1.8077441 -5.3345408 -0.39856765 0.97766674
1.7405664 -5.3568554 -0.39856887 0.97766668
1.6731153 -5.3783202 -0.39857012 0.97766662
1.6054101 -5.3989258 -0.3985714 0.97766656
1.5374414 -5.4186912 -0.39857259 0.9776665
1.4007813 -5.4556541 -0.39857513 0.97766638
