# .PCD v0.7 - Point Cloud Data file format
VERSION 0.7
FIELDS x y z intensity
SIZE 4 4 4 4
TYPE F F F F
COUNT 1 1 1 1
WIDTH 1086
HEIGHT 1
VIEWPOINT 0 0 0 1 0 0 0
POINTS 1086
DATA ascii
12.416972 10.01208 0.95118856 0.93808389
1.3363671 0.94551754 0.097621076 0.99346173
1.3357617 0.92011714 0.096725233 0.99352157
1.3351562 0.89520508 0.095861129 0.99357933
1.3341016 0.84666991 0.094224773 0.9936884
1.3335546 0.82302731 0.093450315 0.9937402
1.3330663 0.79976559 0.092703857 0.99379003
1.3325781 0.77686524 0.09198425 0.99383813
1.3321289 0.75432616 0.091290742 0.99388438
1.3316797 0.73209959 0.090622403 0.99392909
1.33125 0.71024412 0.089978486 0.99397206
1.3719531 0.70996094 0.092120513 0.99382907
1.4607812 0.70995116 0.096854478 0.99351293
1.6692969 0.70997071 0.10817474 0.99275744
1.7931249 0.70997071 0.11500656 0.99230182
1.8611327 0.70997071 0.11878616 0.99204981
1.9113476 0.70173824 0.12141769 0.99187434
1.9122266 -0.64797848 0.12040222 0.99194217
1.9117968 -0.67473632 0.12089874 0.99190903
1.9113085 -0.70170897 0.121418 0.99187452
1.7931249 -0.70993161 0.11500564 0.99230188
1.7292968 -0.70994139 0.11147667 0.99253726
1.6692969 -0.70992184 0.10817398 0.9927575
1.5592577 -0.70994139 0.10216926 0.99315822
1.3719921 -0.70993161 0.092119902 0.99382901
1.3321093 -0.75427735 0.091290511 0.99388456
1.3330859 -0.79971677 0.092703782 0.99379009
1.3335546 -0.82298827 0.093450464 0.99374032
1.334082 -0.8466211 0.094224848 0.99368858
1.3346288 -0.87068355 0.095027924 0.99363494
1.3351758 -0.8951562 0.095861129 0.99357933
1.0632422 -7.6426854 0.46015501 0.96955311
-0.33841795 -8.9720211 0.53541279 0.96466208
-0.56429684 -8.9690037 0.53591079 0.96462989
-0.67742187 -8.9674997 0.53628713 0.96460545
-1.0180469 -8.9629688 0.53793031 0.964499
-1.5919921 -8.9553127 0.5424096 0.96420872
-1.9417578 -8.9506445 0.54617453 0.96396482
-2.1778905 -8.9475002 0.54914987 0.96377212
-2.2992187 -8.5093746 0.52563912 0.96529573
-7.0384765 -8.729023 0.66868466 0.95606202
-7.035996 -8.5049505 0.65824097 0.95673311
-7.7622848 -8.4768457 0.68542325 0.95498723
-4.5887108 -4.8864255 0.3997373 0.97349697
-4.6667185 -4.8460155 0.4011972 0.97340149
-1.0966406 -0.93063474 0.08577057 0.99425316
-1.0960156 -0.90665036 0.084823303 0.99431646
-1.0953516 -0.8831836 0.083910368 0.99437761
-1.0937109 -0.81577146 0.08136528 0.99454749
-1.0931641 -0.79419923 0.080577165 0.99460018
-1.0921484 -0.75227535 0.079084434 0.99470001
-1.0916797 -0.73188478 0.078378297 0.99474722
-1.1503906 -0.70992184 0.080613859 0.99459779
-1.2178515 -0.70991212 0.084063716 0.99436724
-1.2537891 -0.70993161 0.085922547 0.99424309
-1.2913672 -0.70994139 0.087879866 0.99411231
-1.3307421 -0.70993161 0.089942627 0.99397445
-1.4152734 -0.70993161 0.094420165 0.99367541
-1.5087109 -0.70993161 0.099432983 0.99334085
-1.7027344 -0.6990332 0.10976448 0.99265152
-1.7036914 -0.64988279 0.10873634 0.99271995
-1.7075585 0.67608398 0.1044133 0.99266905
-1.7071093 0.70084959 0.10491577 0.99263382
-1.7066602 0.72584957 0.10543937 0.99259716
-1.6127343 0.70995116 0.10018036 0.99296516
-1.4607812 0.70997071 0.092339858 0.99351394
-1.415293 0.70997071 0.09001945 0.9936763
-1.3719921 0.70996094 0.087826155 0.99382991
-1.2914063 0.70998043 0.083783798 0.99411309
-1.2178515 0.70998043 0.080145456 0.99436802
-1.1834179 0.70997071 0.078460388 0.99448615
-1.1187109 0.70997071 0.07532879 0.99470556
-1.0886914 0.71028316 0.073903233 0.99480551
-1.0895703 0.75055665 0.075219765 0.99471325
-1.0905077 0.79234374 0.076635972 0.99461401
-1.0915234 0.83579099 0.078159295 0.99450719
-1.0926367 0.88104492 0.079798318 0.99439234
-1.0932031 0.90442383 0.080664061 0.99433166
-1.093789 0.92830074 0.081562959 0.99426877
-1.0944335 0.9527539 0.082495652 0.99420333
-5.0058203 7.6730661 0.52086228 0.96396005
-4.8684959 7.6715426 0.51656508 0.96425205
-4.7333984 7.6700583 0.51241726 0.96453381
-4.4695311 7.6670995 0.50455588 0.9650684
-4.3405662 7.6656737 0.50083333 0.9653216
12.950956 15.655068 1.1551299 0.92182302
13.335215 15.318828 1.1546912 0.92185158
13.527656 15.151142 1.1547747 0.92184615
1.3315234 0.86869138 0.090387799 0.99365062
1.3305273 0.821123 0.088890836 0.99375546
1.3300586 0.79794919 0.088182069 0.99380499
1.3295703 0.77509767 0.087499388 0.99385303
1.3291405 0.75263673 0.086840898 0.99389905
1.3719531 0.70996094 0.08782623 0.99383008
1.4152343 0.70995116 0.090019301 0.99367654
1.6127148 0.70997071 0.10018005 0.99296516
1.7931249 0.70997071 0.10964561 0.99230307
1.9160937 0.70346677 0.11604644 0.99185556
1.9165233 0.67644531 0.11554939 0.99189037
1.9165233 -0.67640626 0.11554939 0.99189037
1.9160742 -0.70344722 0.11604667 0.99185568
1.8611327 -0.70992184 0.11324806 0.99205118
1.7931249 -0.70993161 0.10964477 0.99230313
1.7292968 -0.70994139 0.10628013 0.99253851
1.6126952 -0.70992184 0.10017944 0.99296534
1.5592577 -0.70994139 0.097406693 0.99315935
1.5087109 -0.70993161 0.09479782 0.99334192
1.3291405 -0.75259763 0.086840972 0.99389911
1.3305273 -0.82108396 0.088890605 0.99375552
1.3315234 -0.86865234 0.090387955 0.99365073
1.3320312 -0.89306641 0.091178514 0.99359542
1.333164 -0.94323242 0.092848584 0.99347842
1.9518554 -8.9971581 0.5234217 0.96378672
1.8329101 -8.9928217 0.52178663 0.96389771
1.7146875 -8.9886522 0.52025288 0.96400183
1.5971875 -8.9846487 0.51882017 0.96409929
1.4818164 -8.9897852 0.51800102 0.96415496
0.96878904 -7.6687107 0.43945578 0.96950603
-0.33841795 -8.9720211 0.51045585 0.96466768
-0.45128906 -8.9705172 0.51065254 0.96465433
-0.56429684 -8.9690132 0.51092893 0.96463543
-0.67742187 -8.9675093 0.51128775 0.96461105
-0.79074216 -8.9659863 0.51172948 0.96458119
-0.90427732 -8.9644623 0.5122506 0.96454573
-1.0180664 -8.9629583 0.51285428 0.96450466
-1.4764062 -8.9568453 0.51610178 0.96428394
-1.7080468 -8.9537592 0.51823503 0.96413904
-1.9417187 -8.950635 0.52071351 0.9639706
-2.0594921 -8.9490719 0.52208787 0.96387726
-2.2992187 -8.5093555 0.50113738 0.96530133
-2.2889843 -8.0675678 0.47677612 0.96695995
-7.035996 -8.5049314 0.62755692 0.95674002
-7.1993747 -8.4830952 0.632572 0.956402
-4.5887108 -4.8864255 0.3811039 0.97350115
-1.093789 -0.92823237 0.081563108 0.99426895
-1.0920703 -0.85810542 0.078963809 0.99445099
-1.0905077 -0.79228514 0.076636158 0.99461412
-1.090039 -0.77118164 0.075914957 0.99466461
-1.0895703 -0.75049806 0.075219683 0.99471337
-1.1187109 -0.70992184 0.07532829 0.99470568
-1.1504102 -0.70992184 0.076856002 0.99459863
-1.2178515 -0.70991212 0.080144994 0.9943682
-1.2537891 -0.70991212 0.081917264 0.99424404
-1.2913672 -0.70992184 0.083783112 0.99411333
-1.3307421 -0.70991212 0.085750349 0.99397546
-1.4152734 -0.70993161 0.090018921 0.99367642
-1.4607812 -0.70993161 0.092339322 0.993514
-1.5592968 -0.70993161 0.097406767 0.99315923
-1.6126952 -0.70992184 0.10017937 0.99296534
-1.7066406 -0.72581053 0.10543907 0.99259728
-1.7071289 -0.70083004 0.104916 0.99263382
-1.7080274 -0.65153319 0.10393082 0.99270266
-1.7123437 0.65320313 0.0991024 0.99268538
-1.7119336 0.67781246 0.099563673 0.99265146
-1.6127343 0.70995116 0.095283508 0.99296623
-1.5593164 0.70996094 0.092646331 0.99316013
-1.50875 0.70995116 0.090165019 0.99334276
-1.253828 0.70997071 0.077913895 0.99424469
-1.2178515 0.70998043 0.076228291 0.99436891
-1.0865821 0.72853512 0.070740014 0.99477321
-1.0878906 0.79042965 0.072714917 0.99462771
-1.0883594 0.81185544 0.073422812 0.99457562
-1.0898827 0.87883788 0.075708009 0.99440724
-1.0904297 0.90212888 0.076527365 0.99434686
-5.0058203 7.6730661 0.49540314 0.96396548
-4.8684959 7.6715426 0.49131584 0.96425742
-4.7333984 7.6700487 0.4873718 0.96453923
-4.6004491 7.6685643 0.48356751 0.96481121
-4.4695311 7.6670995 0.4798947 0.96507365
-4.3405466 7.6656637 0.47635275 0.96532691
12.883828 15.978544 1.1099197 0.92106652
12.812363 15.48749 1.0869107 0.92263794
13.06125 15.39042 1.0915326 0.92232221
13.31332 15.293681 1.0964494 0.92198628
1.3299999 0.9410156 0.088099897 0.99349481
1.3284374 0.86669922 0.085770644 0.99366623
1.3279687 0.84278321 0.085049056 0.99371928
1.3262109 0.75096679 0.082412258 0.99391341
1.3719921 0.70998043 0.083533704 0.99383086
1.4152734 0.70997071 0.085619278 0.99367732
1.6127148 0.70997071 0.095283352 0.99296623
1.6692969 0.70997071 0.098091274 0.9927597
1.7293359 0.70997071 0.10108597 0.99253947
1.8611327 0.70997071 0.10771354 0.99205232
1.9208789 0.70524412 0.11065025 0.99183655
1.9216796 -0.65118164 0.10972023 0.99190503
1.7931249 -0.70993161 0.10428558 0.99230433
1.7292968 -0.70994139 0.10108543 0.99253964
1.6692969 -0.70992184 0.098090664 0.99275982
1.5592577 -0.70994139 0.092645645 0.99316037
1.5087109 -0.70993161 0.090164259 0.99334294
1.4607812 -0.70992184 0.08782585 0.99351501
1.4152734 -0.70989257 0.085618816 0.9936775
1.3307421 -0.70992184 0.081558913 0.99397635
1.3258203 -0.72883785 0.081811905 0.9939577
1.3270702 -0.79608399 0.083682403 0.99382001
1.3275 -0.81920898 0.084353104 0.99377066
1.3279687 -0.84274411 0.085049205 0.9937194
1.3284374 -0.86664063 0.085770719 0.99366635
1.3294531 -0.91574216 0.087295301 0.99355417
1.3299999 -0.94097656 0.088099897 0.99349487
10.405996 -8.6085348 0.73029196 0.94733745
2.4301171 -8.9938669 0.50378186 0.96336782
2.3088281 -8.9922657 0.50202775 0.96349305
2.0686913 -8.9890623 0.49878591 0.96372432
1.831875 -8.9878511 0.4960086 0.96392274
1.7146094 -8.9883003 0.4948065 0.96400869
1.5978711 -8.9886131 0.49367905 0.96408916
1.4805077 -8.981885 0.49224845 0.96419132
1.0632422 -7.6426754 0.41726479 0.96956265
0.96875 -7.6687107 0.41797981 0.96951067
0.97289062 -8.5653906 0.46614906 0.96605718
-0.11251953 -8.9526758 0.48415175 0.96476972
-0.56427735 -8.9690037 0.4859564 0.9646408
-0.79074216 -8.9659958 0.48671621 0.9645865
-1.4764062 -8.9568453 0.49087638 0.96428931
-1.8246093 -8.9522161 0.49404165 0.96406317
-2.0594921 -8.9490719 0.49657005 0.96388274
-2.1778514 -8.9474897 0.49796036 0.96378338
-7.0384765 -8.7289944 0.60635334 0.95607561
-7.1993747 -8.4830856 0.60165238 0.95640856
-4.4036717 -4.9321485 0.35751954 0.9738611
-7.7622657 -8.4768457 0.6215322 0.95500112
-4.5886717 -4.8864255 0.36247534 0.97350526
-4.666738 -4.846035 0.36380094 0.97340965
-1.091621 -0.9502148 0.078260303 0.9942193
-1.090996 -0.92585933 0.077378005 0.99428439
-1.0904297 -0.90207028 0.076527521 0.99434698
-1.0898827 -0.87878907 0.075708047 0.99440736
-1.0878906 -0.79038084 0.072714992 0.99462783
-1.0874219 -0.7693457 0.072032623 0.9946782
-1.0869921 -0.74872071 0.07137455 0.99472666
-1.0866015 -0.7284863 0.070739977 0.99477327
-1.0882422 -0.70991212 0.070260659 0.99480861
-1.1503906 -0.70992184 0.073099516 0.99459952
-1.1834375 -0.70992184 0.074624978 0.99448705
-1.2178515 -0.70991212 0.07622768 0.99436903
-1.2537891 -0.70991212 0.077913359 0.99424493
-1.3719531 -0.70992184 0.083533019 0.9938311
-1.4152734 -0.70993161 0.085618816 0.99367744
-1.4607812 -0.70993161 0.08782585 0.99351501
-1.5087109 -0.70993161 0.09016449 0.99334294
-1.6126952 -0.70992184 0.095283128 0.99296641
-1.7110547 -0.72768551 0.10054436 0.99257934
-1.7158984 0.70446289 0.095148616 0.99259824
-1.6693164 0.70996094 0.093051985 0.99276072
-1.5593164 0.70996094 0.08788681 0.99316114
-1.4607812 0.7099902 0.083314516 0.99351585
-1.3719727 0.70998043 0.079242207 0.99383181
-1.3307421 0.70998043 0.077369384 0.99397713
-1.253828 0.70996094 0.073910981 0.99424553
-1.217832 0.70997071 0.072312124 0.9943698
-1.1834375 0.70998043 0.070791624 0.9944877
-1.1187109 0.70997071 0.067966036 0.99470717
-1.0882031 0.70998043 0.066651419 0.99480939
-1.0844531 0.74703121 0.067548521 0.99473953
-1.0852929 0.78853512 0.068814047 0.9946413
-1.0871875 0.87664062 0.071639366 0.9944219
-1.0876952 0.89984375 0.072413139 0.99436188
-1.0882422 0.92355466 0.073215522 0.99429953
-1.0887696 0.94783199 0.074048311 0.99423492
-5.1454687 7.6746192 0.47397026 0.96366829
-5.0058203 7.6730762 0.46995267 0.9639706
-4.7334375 7.6700292 0.46233383 0.9645443
-4.6004491 7.6685643 0.45872313 0.96481621
-4.3405857 7.6656833 0.45188093 0.96533173
-4.2945704 7.811738 0.45727453 0.96492541
3.0147069 11.741601 0.62183988 0.95260632
12.822617 15.499873 1.0318943 0.92258942
13.078671 15.410947 1.0368375 0.92223364
13.542773 15.168076 1.0430695 0.92178476
1.3268359 0.93879879 0.083375551 0.99351108
1.3263476 0.9136523 0.082615584 0.99356997
1.3258398 0.88895506 0.081882857 0.99362689
1.3249023 0.84084958 0.080494918 0.99373466
1.3236718 0.77165037 0.078593597 0.99388206
1.3307421 0.7099902 0.077369459 0.99397707
1.3719921 0.70998043 0.079241902 0.99383175
1.5087304 0.70998043 0.085532457 0.99334377
1.6127148 0.70997071 0.090388335 0.99296731
1.6692969 0.70997071 0.093051828 0.99276078
1.7292968 0.70997071 0.095893018 0.99254066
1.9260741 0.67982423 0.10477516 0.99185252
1.9264843 0.65284181 0.10434189 0.99188602
1.9264648 -0.65281248 0.10434173 0.99188614
1.925703 -0.70698243 0.10522857 0.99181736
1.6126952 -0.70992184 0.09038765 0.99296743
1.5087109 -0.70993161 0.085532151 0.99334389
1.3719531 -0.70991212 0.079241484 0.99383199
1.3228906 -0.72723633 0.077437855 0.99397188
1.3236328 -0.77160156 0.07859344 0.9938823
1.3240625 -0.79428709 0.079204366 0.99383485
1.3244531 -0.81736326 0.079837762 0.99378574
1.3258593 -0.88890624 0.081883088 0.99362695
1.326328 -0.91358393 0.082615584 0.99357021
10.649258 -8.5867186 0.70173097 0.94668263
10.405976 -8.6085443 0.69277388 0.94734496
4.8215036 -9.0374022 0.52543861 0.95980382
4.5256639 -9.0217867 0.51775289 0.96038002
1.0632422 -7.6426854 0.39582396 0.96956694
0.97291011 -8.5654593 0.4422065 0.96606177
-0.11251953 -8.9526758 0.45927978 0.96477473
-0.22560546 -8.9735346 0.46045828 0.96468592
-0.56427735 -8.9690037 0.46099013 0.96464586
-0.79074216 -8.9659958 0.46171224 0.96459156
-0.90425777 -8.9644728 0.46218207 0.96455616
-1.2433984 -8.9375782 0.46287909 0.96450323
-1.3612305 -8.9583979 0.46481055 0.96435809
-1.4763867 -8.9568548 0.4656575 0.96429443
-1.5919726 -8.9553318 0.46657988 0.96422487
-1.8245898 -8.9522266 0.4686608 0.96406829
-1.9417382 -8.9506636 0.46982062 0.96398109
-2.0594726 -8.9490814 0.47105765 0.96388787
-2.177871 -8.9475193 0.47237852 0.96378845
-2.2912109 -8.9236135 0.47260031 0.96377182
-7.1993747 -8.4830856 0.57074195 0.95641482
-7.7622657 -8.4768457 0.58960044 0.95500755
-4.5886912 -4.886416 0.34385321 0.97350907
-1.088789 -0.94778317 0.074048616 0.99423498
-1.0876952 -0.89980465 0.072412759 0.99436194
-1.0871875 -0.87658203 0.07163921 0.99442202
-1.0862304 -0.8316406 0.07017532 0.99453562
-1.0853125 -0.7884863 0.068813853 0.99464136
-1.1186913 -0.70993161 0.067965545 0.99470735
-1.1503906 -0.70992184 0.069343947 0.9946003
-1.1834375 -0.70993161 0.070791282 0.99448782
-1.2913672 -0.70992184 0.075594291 0.99411505
-1.3307421 -0.70991212 0.077368617 0.99397725
-1.4152734 -0.70991212 0.081220165 0.99367839
-1.4607812 -0.70991212 0.083313823 0.99351597
-1.5087109 -0.70993161 0.085532151 0.99334389
-1.5592968 -0.70993161 0.087886199 0.99316126
-1.6126952 -0.70992184 0.090387955 0.99296743
-1.6693164 -0.70993161 0.093051225 0.99276078
-1.7158984 -0.70442379 0.095148541 0.9925983
-1.7163086 -0.67951173 0.094690397 0.99263382
-1.7211132 0.65655273 0.089375608 0.99265009
-1.7207031 0.68128908 0.089793548 0.992616
-1.5592968 0.70998043 0.083128355 0.99316216
-1.415293 0.7099902 0.076823577 0.99367905
-1.3719727 0.70998043 0.074951746 0.99383265
-1.3307421 0.70997071 0.073180385 0.99397796
-1.2913867 0.70997071 0.071501769 0.99411571
-1.1834375 0.70998043 0.06695877 0.99448848
-1.1504102 0.70997071 0.06559021 0.99460083
-1.1187109 0.70997071 0.064286307 0.99470788
-1.0815039 0.7251367 0.063177489 0.99479902
-1.0835546 0.8296777 0.066213988 0.99454963
-1.0840234 0.85183591 0.066890679 0.99449402
-1.0844727 0.87445313 0.067592241 0.99443656
-1.0854688 0.92121094 0.069075428 0.99431479
-5.287539 7.6761618 0.4522467 0.96336013
-4.7333984 7.6700387 0.43730223 0.96454912
-4.4687696 7.6658688 0.43052337 0.96508902
-4.3386912 7.6623926 0.42723235 0.96535116
3.0147264 11.741611 0.5881719 0.9526127
12.913301 16.015059 0.99817127 0.92091501
13.3408 15.325224 0.98583579 0.92185307
12.416288 10.011542 0.77387136 0.93812305
1.3232422 0.91150391 0.077959478 0.99358588
1.3227735 0.88688475 0.077269666 0.99364251
1.3219141 0.83893555 0.07596264 0.99374962
1.3210937 0.79254884 0.074747428 0.9938494
1.3207031 0.76992184 0.074172512 0.99389654
1.3203321 0.74763668 0.073618464 0.99394202
1.3199999 0.72570312 0.073084064 0.99398571
1.3307421 0.70998043 0.07318031 0.99397796
1.3720117 0.70998043 0.074951664 0.99383253
1.4152734 0.70997071 0.076823197 0.99367911
1.6127148 0.70997071 0.085494533 0.99296826
1.7292968 0.70997071 0.090700909 0.99254167
1.8610938 0.70997071 0.096647486 0.9920547
1.9305078 0.70878905 0.099781185 0.9917981
1.9308984 -0.68148434 0.099350281 0.99183339
1.7931249 -0.70993161 0.093571931 0.99230647
1.7292968 -0.70994139 0.090700455 0.99254173
1.6126952 -0.70990235 0.085494079 0.99296844
1.5087109 -0.70993161 0.080901258 0.99334478
1.4152734 -0.70989257 0.076822735 0.99367929
1.3719531 -0.70991212 0.074951172 0.99383283
1.3199804 -0.72564453 0.073083952 0.99398589
1.3203515 -0.74758786 0.073618464 0.99394208
1.3210937 -0.79250973 0.074747503 0.99384946
1.3223437 -0.86264646 0.076604269 0.99369717
1.3232226 -0.91144532 0.077959247 0.99358606
1.3237109 -0.93651366 0.078674845 0.99352741
10.405996 -8.6085443 0.65526742 0.94735199
5.4194336 -9.0337105 0.51113325 0.95868951
5.2649999 -9.0316601 0.50723511 0.95899814
5.1129103 -9.0296288 0.50347334 0.95929593
4.6736131 -9.0317183 0.49340826 0.96009308
1.0632031 -7.6426854 0.37438202 0.96957111
0.96876949 -7.6687207 0.37503943 0.96951914
-0.11251953 -8.9526663 0.43441215 0.96477956
-0.33839843 -8.9720116 0.43562835 0.96468294
-0.56427735 -8.9690037 0.43603194 0.96465069
-0.79074216 -8.9659767 0.43671417 0.96459645
-0.90427732 -8.9644728 0.4371585 0.96456093
-1.3612305 -8.9583788 0.43964592 0.96436304
-1.4763867 -8.9568357 0.4404473 0.96429932
-1.5919726 -8.9553127 0.44132018 0.96422976
-1.8245898 -8.9522066 0.44328696 0.96407324
-1.9417382 -8.9506445 0.44438192 0.96398604
-2.177871 -8.9475193 0.4468039 0.96379334
-2.2991796 -8.5092573 0.42766967 0.96531665
-7.0359764 -8.5049124 0.53556138 0.95675862
-7.1993747 -8.4831057 0.53984201 0.9564206
-4.363945 -4.8876562 0.31791624 0.97410107
-7.7623043 -8.4768457 0.55767846 0.95501351
-4.5886912 -4.886416 0.32523665 0.97351271
-4.666738 -4.8460546 0.32642639 0.97341704
-1.085996 -0.94534177 0.069859385 0.9942506
-1.0854492 -0.92116207 0.069075547 0.99431497
-1.0840234 -0.85178709 0.066890337 0.99449414
-1.0835546 -0.82959962 0.066213988 0.99454981
-1.0826952 -0.78660154 0.064932823 0.99465495
-1.081875 -0.7452246 0.063741416 0.99475282
-1.1186913 -0.70993161 0.064285964 0.99470806
-1.1834375 -0.70993161 0.066958502 0.99448854
-1.2178515 -0.70992184 0.068396263 0.99437064
-1.2537891 -0.70991212 0.069909059 0.99424654
-1.4607812 -0.70991212 0.078803211 0.99351686
-1.6126952 -0.70992184 0.085494004 0.99296838
-1.6693164 -0.70993161 0.088013455 0.99276173
-1.720332 -0.70624024 0.090229034 0.99258029
-1.7207421 -0.68125975 0.089793622 0.99261594
-1.7211132 -0.65651363 0.089375459 0.99265015
-1.7247655 0.70809567 0.085285716 0.99256217
-1.6692969 0.70998043 0.082977369 0.99276268
-1.5592968 0.70998043 0.078371234 0.99316299
-1.50875 0.70997071 0.076272465 0.9933455
-1.253828 0.70996094 0.065908812 0.99424708
-1.1187109 0.70997071 0.060607564 0.9947086
-1.0882031 0.70998043 0.059435233 0.99481076
-1.0790234 0.72346675 0.059424017 0.99481159
-1.0793555 0.74352539 0.059953153 0.99476564
-1.0797266 0.76395506 0.06050209 0.99471784
-1.0801171 0.78478515 0.061071049 0.99466819
-1.080918 0.82765621 0.06227329 0.99456358
-1.0817969 0.87228513 0.063566245 0.99445099
-1.0827148 0.91886717 0.064957581 0.99432993
-1.0832031 0.94296873 0.065692864 0.99426591
-5.1412888 7.668457 0.4223156 0.96370655
-4.7254686 7.6572266 0.41158774 0.96461189
-4.5915036 7.6536813 0.40826499 0.96489263
-4.4596872 7.6502342 0.40505949 0.96516335
-4.2021093 7.643652 0.39899063 0.96567613
-4.0761719 7.6404686 0.39611983 0.9659189
-3.6768749 8.0756245 0.40588805 0.96509355
-3.6437695 8.2771778 0.4136833 0.96443516
-3.6400781 8.5588379 0.42544043 0.96344304
2.7087109 16.433144 0.76184118 0.9354859
3.0147264 11.741601 0.55451447 0.95261878
12.899062 15.997421 0.94001621 0.92100847
12.843085 15.524658 0.92164665 0.92249066
13.117617 15.456875 0.92733401 0.92203134
13.315 15.295615 0.92762566 0.92200786
12.416133 10.011396 0.72957772 0.93813169
1.320586 0.93436521 0.073997498 0.99354333
1.3185155 0.81371093 0.070871927 0.99381518
1.318125 0.79077148 0.070312157 0.99386394
1.3174218 0.74598628 0.06925194 0.99395615
1.3170702 0.72411132 0.068750836 0.99399978
1.3720117 0.70998043 0.070662573 0.9938333
1.4152734 0.70997071 0.072427064 0.99367994
1.5087304 0.70998043 0.076272085 0.9933455
1.5592968 0.7099902 0.078371122 0.99316299
1.6127148 0.70997071 0.080602184 0.99296916
1.6692969 0.7099902 0.082977064 0.99276268
1.7931249 -0.70993161 0.088217162 0.99230748
1.6692969 -0.70992184 0.082976453 0.9927628
1.6126952 -0.70990235 0.080601573 0.99296933
1.5592968 -0.70992184 0.078370586 0.99316311
1.5087109 -0.70993161 0.076271705 0.99334568
1.4607812 -0.70992184 0.074293479 0.9935177
1.3307421 -0.70992184 0.06899219 0.99397886
1.3184961 -0.81366211 0.070871733 0.99381536
1.3188672 -0.83696288 0.071452327 0.99376488
1.3192773 -0.86067379 0.072054483 0.99371248
1.3197266 -0.8847754 0.072678909 0.99365807
1.3201562 -0.90929687 0.073326223 0.9936018
10.872695 -8.5436325 0.63252455 0.94613576
0.96876949 -7.6687012 0.35358101 0.96952313
-0.33841795 -8.9720116 0.41069901 0.96468747
-0.56429684 -8.9690037 0.41108063 0.96465522
-0.79074216 -8.9659767 0.41172263 0.96460098
-1.4763867 -8.9568357 0.4152416 0.96430391
-1.5919726 -8.9553127 0.41606444 0.96423435
-1.7080274 -8.9537497 0.41695663 0.96415913
-2.177871 -8.9475002 0.42123619 0.96379805
-2.2991796 -8.5092182 0.4031935 0.96532124
-2.2890234 -8.0675879 0.38360107 0.96697831
-7.0359373 -8.5048828 0.50491238 0.95676434
-7.1993747 -8.4830952 0.50895017 0.9564262
-7.3829684 -8.4810448 0.51435363 0.95597398
-1.0822265 -0.89527345 0.064249039 0.99439174
-1.0817969 -0.87224609 0.063565977 0.99445111
-1.0813282 -0.84968746 0.06290783 0.9945085
-1.0805078 -0.80595702 0.061661374 0.99461699
-1.0797266 -0.76391602 0.060502052 0.9947179
-1.0793945 -0.74347657 0.059953269 0.99476558
-1.1186913 -0.70993161 0.060607146 0.99470872
-1.2178515 -0.70992184 0.064482614 0.99437135
-1.3307421 -0.70992184 0.068992078 0.99397886
-1.3719531 -0.70993161 0.070662193 0.9938336
-1.4607812 -0.70992184 0.074293628 0.9935177
-1.7248046 -0.7080664 0.085285716 0.99256206
-1.7255077 -0.6581738 0.084476694 0.99263245
-1.7299414 0.6599316 0.079554133 0.99261439
-1.6692969 0.70998043 0.077941969 0.99276358
-1.50875 0.70996094 0.071643941 0.99334627
-1.4607812 0.70998043 0.069785692 0.99351841
-1.2913867 0.70997071 0.063319318 0.9941172
-1.253828 0.70996094 0.061909255 0.99424779
-1.1834375 0.70998043 0.059296187 0.99448985
-1.0765234 0.7217871 0.05568878 0.99482423
-1.0775391 0.78291988 0.057228848 0.99468154
-1.0779296 0.80407226 0.057780456 0.99463034
-1.0783007 0.82564449 0.05835247 0.99457735
-1.0791405 0.87012696 0.059561156 0.99446529
-1.0799999 0.9165625 0.060861662 0.99434483
-1.0804297 0.94057614 0.061548613 0.99428117
-5.5681639 7.6639452 0.40702865 0.96278268
-5.2735934 7.6560059 0.39944029 0.96346378
-5.1304102 7.6521873 0.3958458 0.96378648
-4.9897656 7.6484861 0.39238051 0.9640978
-4.8515625 7.6449118 0.38903755 0.96439815
-4.1937108 7.6283298 0.37402862 0.96574783
-4.0680857 7.6252732 0.37134176 0.96598959
-3.7017186 7.6165819 0.36386129 0.96666318
-3.6319921 9.1733303 0.42391914 0.9612689
13.136542 15.479131 0.87231606 0.9219327
1.3166602 0.8827734 0.068110615 0.99367344
1.3162891 0.85874021 0.067526817 0.99372739
1.3151562 0.78900391 0.065897562 0.99387842
1.3145117 0.74434566 0.064906083 0.99397016
1.3141992 0.72252929 0.064437523 0.99401355
1.3307421 0.70998043 0.064805984 0.99397945
1.3720117 0.70998043 0.066374704 0.99383408
1.4152734 0.70997071 0.068032146 0.99368072
1.4607812 0.70997071 0.069785647 0.99351841
1.5087109 0.7099902 0.071643636 0.99334639
1.6692969 0.7099902 0.077942044 0.99276358
1.7293359 0.7099902 0.080321498 0.9925434
1.9402539 0.71235353 0.088808365 0.99175894
1.9405859 0.68494141 0.088422775 0.99179459
1.9409374 0.65773433 0.088054277 0.99182856
1.940918 -0.65771484 0.088054277 0.99182868
1.9405859 -0.68489254 0.088423155 0.99179465
1.7293164 -0.70992184 0.080321193 0.99254358
1.4607812 -0.70992184 0.069785044 0.99351847
1.3719531 -0.70991212 0.066374056 0.99383444
1.3307421 -0.70992184 0.06480556 0.99397957
1.3142188 -0.72246093 0.064437561 0.99401361
1.3144921 -0.74428707 0.064906269 0.99397033
1.3151758 -0.78895503 0.065897517 0.99387848
1.3155273 -0.81182617 0.066421047 0.99382997
1.3158789 -0.83505857 0.066963844 0.99377978
1.3166406 -0.88273436 0.068110615 0.99367356
1.3175 -0.93211913 0.069343492 0.9935593
10.405859 -8.390439 0.57434684 0.94788885
10.406034 -8.6085835 0.58028305 0.94736481
-0.22560546 -8.973525 0.38568801 0.96469957
-0.33841795 -8.9720211 0.38577583 0.96469164
-0.45130858 -8.9705172 0.38592559 0.96467829
-0.56429684 -8.9690132 0.38613495 0.96465945
-0.67744142 -8.9675093 0.38640571 0.96463507
-0.90427732 -8.9644823 0.38713324 0.96456975
-1.1903125 -8.5561523 0.37117377 0.96600515
-1.4763867 -8.9568653 0.39004394 0.96430808
-1.8246288 -8.9522161 0.3925589 0.96408212
-1.9417773 -8.950654 0.3935298 0.96399492
-2.0594726 -8.9490719 0.3945677 0.96390182
-2.177871 -8.9475098 0.39567307 0.9638024
-2.2890234 -8.0675879 0.3603234 0.96698231
-7.1993747 -8.4831057 0.47806486 0.95643145
-4.3447657 -4.8661327 0.28029686 0.97421998
-4.4626169 -4.8734961 0.28392822 0.97389042
-4.5886912 -4.886416 0.28801674 0.97351933
-1.0787109 -0.84760737 0.058945693 0.99452245
-1.0779296 -0.80403316 0.057780571 0.99463046
-1.0771874 -0.76209956 0.056696698 0.99473101
-1.076875 -0.74173826 0.056183737 0.99477845
-1.0765234 -0.72174805 0.055688858 0.99482435
-1.2178515 -0.70992184 0.060569495 0.99437201
-1.3719531 -0.70993161 0.066374317 0.99383438
-1.4152734 -0.70992184 0.068031542 0.99368083
-1.5087109 -0.70991212 0.071643181 0.99334651
-1.6692969 -0.70991212 0.077941626 0.9927637
-1.7299218 -0.65987301 0.079554215 0.99261457
-1.734375 0.66163087 0.074607238 0.99259639
-1.7340429 0.6865918 0.074958764 0.9925617
-1.6692969 0.70997071 0.072907791 0.99276441
-1.4607812 0.70998043 0.065278322 0.99351913
-1.253828 0.70996094 0.057910841 0.99424845
-1.2178711 0.70997071 0.056657676 0.99437255
-1.1834375 0.70998043 0.055466384 0.9944905
-1.0749999 0.7810449 0.053405456 0.99469471
-1.075332 0.80212891 0.053919066 0.99464387
-1.0756836 0.82364255 0.054451674 0.99459112
-1.076875 0.89085937 0.056170922 0.99442071
-1.0776953 0.93815428 0.057426564 0.99429637
-5.2623825 7.639668 0.37284362 0.96354437
-5.1195703 7.6359959 0.36949676 0.96386576
-4.9793358 7.6324511 0.36626783 0.9641757
-4.7060547 7.6256442 0.36015037 0.96476334
-4.4417186 7.6193943 0.35446975 0.96530944
-4.3135548 7.6179686 0.3518534 0.96556097
-4.1872263 7.6165719 0.34933066 0.96580362
-3.6228905 9.8679199 0.42249304 0.95879138
-3.6178124 10.250595 0.4368968 0.95741695
3.0147069 11.741601 0.48722199 0.9526298
12.863671 15.549531 0.81109732 0.92238909
13.382109 15.372705 0.81916386 0.9216485
13.573086 15.202031 0.8190949 0.92165488
12.415781 10.011143 0.6410253 0.9381476
1.3143749 0.92997068 0.064712293 0.9935751
1.3140038 0.90512693 0.064127803 0.99363291
1.3132422 0.85677731 0.063020818 0.99374253
1.3129296 0.83321285 0.062496681 0.99379432
1.3125585 0.81003904 0.061990965 0.99384445
1.3116211 0.74271482 0.060580481 0.99398404
1.3720117 0.70998043 0.062087517 0.99383479
1.4607812 0.70997071 0.065278433 0.99351913
1.5087109 0.7099902 0.067016333 0.99334717
1.5592968 0.70998043 0.068860851 0.99316466
1.6127343 0.70996094 0.070820771 0.99297076
1.7293359 0.70998043 0.075133592 0.99254429
1.8610938 0.7099902 0.080059506 0.99205756
1.9451562 0.71418941 0.083282091 0.99173909
1.9455078 0.68666989 0.082920074 0.9917748
1.9457812 -0.65933591 0.082573317 0.99180925
1.5087109 -0.70994139 0.067015879 0.99334723
1.4607812 -0.70992184 0.065277822 0.99351925
1.3307421 -0.70992184 0.060619771 0.99398029
1.3122461 -0.78720701 0.06150379 0.99389273
1.3125585 -0.81 0.061991196 0.99384457
1.3129101 -0.83316404 0.062496603 0.9937945
1.3132617 -0.85673827 0.063020818 0.99374253
1.3140038 -0.90506834 0.064128034 0.99363303
1.3143945 -0.92993164 0.064712144 0.99357516
10.872715 -8.5436716 0.55576736 0.9461481
10.40584 -8.3904295 0.53725308 0.94789475
10.406034 -8.6085939 0.54280496 0.94737065
10.388515 -8.816328 0.54762405 0.94691569
0.96878904 -7.6687012 0.31067145 0.96953028
0.97292966 -8.565732 0.34648544 0.96607763
-0.2253125 -8.9624023 0.36033034 0.96474653
-0.33841795 -8.9720211 0.36085945 0.96469569
-0.67746091 -8.9675093 0.36144912 0.96463907
-0.90427732 -8.9644823 0.36212844 0.96457374
-1.0180664 -8.9629583 0.36255592 0.96453273
-1.3595312 -8.9472847 0.36373618 0.96441925
-1.4763867 -8.9568653 0.36485144 0.96431214
-1.5919726 -8.9553223 0.36557418 0.9642427
-1.7080663 -8.9537592 0.36635971 0.96416742
-1.9417773 -8.950654 0.36811364 0.96399897
-2.0595117 -8.9490919 0.36908346 0.96390575
-2.177871 -8.9475098 0.37011901 0.96380651
-2.2912109 -8.9236135 0.37029105 0.96378982
-2.29916 -8.50916 0.35426375 0.96532959
-2.2889647 -8.0675678 0.337051 0.96698618
-4.1310935 -10.433896 0.45103094 0.95607013
-4.1259961 -10.050156 0.43665069 0.95744056
-7.0358982 -8.5048532 0.44363928 0.95677459
-7.1993747 -8.4831057 0.44718689 0.95643634
-1.0772656 -0.91418946 0.056787223 0.99435985
-1.0760742 -0.84554684 0.055003967 0.9945364
-1.0753516 -0.80208981 0.053919103 0.99464393
-1.0743555 -0.74000973 0.052432671 0.99479121
-1.0882422 -0.70991212 0.052222174 0.99481201
-1.1834375 -0.70993161 0.055466115 0.99449056
-1.2178515 -0.70992184 0.056657448 0.99437267
-1.2913672 -0.70993161 0.059229545 0.99411803
-1.3307421 -0.70992184 0.060619812 0.99398029
-1.3719531 -0.70993161 0.062087059 0.99383509
-1.4607812 -0.70992184 0.065277979 0.99351925
-1.5087109 -0.70991212 0.067016177 0.99334729
-1.6692969 -0.70992184 0.072907373 0.99276453
-1.7337109 -0.71172851 0.075325236 0.99252558
-1.7340624 -0.68652344 0.074959025 0.9925617
-1.734375 -0.66157228 0.074607313 0.99259645
-1.7385352 0.68835938 0.069965243 0.99254328
-1.7382421 0.71363282 0.070308074 0.9925068
-1.6127343 0.70996094 0.065931775 0.99297154
-1.4607812 0.70998043 0.060771942 0.99351984
-1.415293 0.70998043 0.059244916 0.99368203
-1.3719921 0.70997071 0.057801552 0.99383551
-1.3307421 0.70997071 0.05643547 0.99398082
-1.2913867 0.70997071 0.055141144 0.99411851
-1.253828 0.70996094 0.053912811 0.99424905
-1.1834375 0.70998043 0.051637497 0.9944911
-1.1504102 0.70997071 0.050581891 0.9946034
-1.0715625 0.71845704 0.048272628 0.99484921
-1.0718554 0.73834962 0.048699722 0.99480373
-1.0721874 0.75859374 0.049142454 0.99475646
-1.0727735 0.8002246 0.050077207 0.99465716
-1.0730859 0.82166016 0.050570447 0.99460471
-1.0734375 0.84353513 0.051082227 0.99455023
-1.0738281 0.86584961 0.051612776 0.99449366
-1.0741796 0.8886621 0.052163124 0.99443513
-1.0745312 0.91195309 0.052733991 0.99437451
-1.0749609 0.93577147 0.053326376 0.99431145
-6.0053515 7.6424608 0.36368048 0.96184134
-5.8484569 7.6384373 0.35996291 0.96222389
-5.1134176 7.6268454 0.34357581 0.96391213
-4.9746485 7.6253028 0.34066397 0.96421248
-4.7039452 7.6222949 0.33514112 0.96478236
-4.3135352 7.6179686 0.32756478 0.96556467
-4.1872263 7.6165719 0.3252162 0.96580726
-3.5712891 7.84375 0.32247818 0.96609014
-3.6507421 8.2930269 0.33903837 0.96438038
-3.6345313 9.5278416 0.38156113 0.9600032
-3.6178124 10.250586 0.40673569 0.95742148
-3.6066601 11.100165 0.43671164 0.95435619
2.9724803 16.721279 0.63547409 0.93427801
3.0147069 11.741601 0.45358863 0.95263475
13.174453 15.523799 0.76183903 0.9217332
13.395937 15.388583 0.76340413 0.92157888
13.874257 15.539346 0.77947122 0.9199962
12.415625 10.011025 0.59676492 0.93815476
1.3116796 0.95300782 0.060665473 0.99353111
1.3109375 0.9030273 0.059562605 0.99364835
1.3099219 0.83131832 0.058050688 0.9938091
1.3093359 0.78548825 0.05713043 0.99390686
1.3087499 0.74106443 0.056274872 0.99399787
1.3084766 0.71935546 0.055869825 0.99404091
1.4607812 0.70997071 0.060771827 0.99351984
1.6127343 0.70996094 0.065931775 0.99297154
1.6692969 0.70998043 0.067874603 0.99276519
1.7931445 0.7099902 0.072161369 0.99230999
1.8611132 0.70998043 0.074532777 0.9920584
1.950664 0.66107422 0.077066228 0.99178958
1.9506836 -0.66100585 0.077066228 0.99178958
1.9503906 -0.68833005 0.077390708 0.99175525
1.7930859 -0.70994139 0.072161138 0.99231029
1.6692773 -0.70992184 0.067874335 0.99276537
1.6126952 -0.70991212 0.065931626 0.99297178
1.4607812 -0.70992184 0.060771827 0.9935199
1.3719531 -0.70991212 0.057801053 0.99383581
1.3084766 -0.71931636 0.055870093 0.99404103
1.3087499 -0.74102539 0.056274757 0.99399799
1.3093359 -0.78544921 0.05713043 0.99390692
1.3096093 -0.80819333 0.057582319 0.99385899
1.3102343 -0.85478514 0.05853672 0.99375755
1.3106054 -0.87866211 0.059040412 0.9937039
1.3112891 -0.92774409 0.060104139 0.99359095
10.40584 -8.3904295 0.5001657 0.94790024
10.406054 -8.6085939 0.50533181 0.94737607
10.45459 -9.1008396 0.51863831 0.94602877
10.189101 -9.0972748 0.51109707 0.94679213
9.9312105 -9.0938377 0.50385338 0.94752616
1.0632422 -7.642695 0.28871024 0.9695853
0.96878904 -7.6687303 0.28922623 0.96953338
-0.22529297 -8.9624119 0.33545533 0.96475017
-0.33841795 -8.9720306 0.33594933 0.96469933
-0.45128906 -8.9705076 0.33607787 0.9646861
-0.56427735 -8.9690037 0.33626083 0.9646672
-0.67742187 -8.9674997 0.33649695 0.96464282
-0.79072267 -8.9659767 0.33678702 0.96461302
-0.90425777 -8.9644728 0.33713034 0.9645775
-1.0180273 -8.9629488 0.33752745 0.96453655
-1.1306835 -8.9503222 0.33756042 0.96453315
-1.3595312 -8.9472752 0.33862716 0.96442306
-1.4763671 -8.9568548 0.33966589 0.96431595
-1.7080078 -8.9537697 0.34106812 0.96417117
-1.9417578 -8.9506445 0.34270117 0.96400285
-2.0594921 -8.9490814 0.34360504 0.96390963
-2.1778514 -8.9475002 0.34456742 0.96381038
-2.2912304 -8.9236231 0.34472945 0.96379364
-2.2991407 -8.5091209 0.32980743 0.9653334
-2.2890038 -8.0675678 0.31378454 0.96698964
-4.1423631 -11.282822 0.4497264 0.9530285
-4.1365232 -10.84375 0.43426377 0.95460635
-3.7529297 -8.5250092 0.34852639 0.96340233
-4.1164451 -8.4698925 0.3523702 0.96300632
-4.2481251 -8.4684277 0.35450172 0.96278667
-6.9223437 -8.8092775 0.41921499 0.95614469
-6.8313866 -8.472187 0.4072254 0.95737165
-7.1912498 -8.4735155 0.41584685 0.95648903
-4.3336134 -4.9782128 0.24696365 0.9739266
-4.3327732 -4.8527732 0.24342185 0.97429568
-1.0745312 -0.91191405 0.052733991 0.99437463
-1.0741601 -0.88859373 0.052163083 0.99443537
-1.073789 -0.86580074 0.051612701 0.9944939
-1.073125 -0.82162106 0.050570447 0.99460465
-1.0724219 -0.77916014 0.049601324 0.994708
-1.0882422 -0.70991212 0.048617285 0.99481255
-1.1503906 -0.70992184 0.050581589 0.99460357
-1.2178515 -0.70992184 0.052746236 0.99437326
-1.2537891 -0.70991212 0.053912427 0.99424928
-1.2913672 -0.70993161 0.055140723 0.99411863
-1.4152734 -0.70992184 0.059244614 0.99368221
-1.4607812 -0.70992184 0.060771748 0.9935199
-1.6126952 -0.70991212 0.065931551 0.99297178
-1.7388281 -0.66328126 0.069636345 0.99257833
-1.6692969 0.70997071 0.062843017 0.9927659
-1.6127343 0.70996094 0.061044004 0.99297225
-1.5592968 0.70997071 0.059354514 0.99316609
-1.4607812 0.70998043 0.056266632 0.9935205
-1.415293 0.70998043 0.054852903 0.99368268
-1.3719921 0.70997071 0.0535165 0.99383616
-1.3307421 0.70997071 0.052251432 0.99398142
-1.2913867 0.70997071 0.051053084 0.99411911
-1.1187109 0.70997071 0.045900993 0.99471092
-1.0691211 0.71681637 0.04459133 0.99486142
-1.0693749 0.73664063 0.044984818 0.99481618
-1.0696484 0.75683594 0.045392685 0.99476928
-1.0699219 0.77735353 0.045815773 0.99472082
-1.0708593 0.84148437 0.047180288 0.99456388
-1.0722265 0.9334082 0.049247589 0.99432635
-6.6541014 7.6439648 0.35108772 0.96024948
-6.3205271 7.640244 0.34351227 0.96109033
-6.0008202 7.6367087 0.33646408 0.96187323
-5.8457813 7.6349802 0.33312538 0.96224439
-5.1134176 7.6268454 0.31810623 0.96391565
-4.9746485 7.6253028 0.31540915 0.96421599
-4.7039452 7.6223145 0.31029579 0.9647857
-4.571836 7.6208301 0.30787322 0.96505582
-4.4417186 7.6194043 0.30553511 0.96531647
-4.3135548 7.6179686 0.30328017 0.96556801
-4.1872263 7.6165624 0.30110663 0.96581066
-3.9398828 7.6138182 0.29698807 0.96627021
-3.8187108 7.6124902 0.29504097 0.96648753
-3.6990623 7.6111522 0.29316443 0.96669716
-3.5808983 7.6098337 0.29135725 0.96689904
-3.5713086 7.8437204 0.29856947 0.96609354
-3.6567578 8.3066988 0.31441855 0.9643262
-3.6004491 11.573876 0.41990995 0.952645
13.193516 15.54626 0.7063812 0.92163205
12.415488 10.010879 0.55251676 0.93816149
1.3085546 0.95075196 0.056035195 0.99354708
1.3079296 0.9009375 0.055018995 0.99366355
1.3072656 0.85287106 0.054073371 0.99377221
1.3069726 0.82945311 0.053625755 0.99382359
1.3066992 0.80641598 0.053193968 0.99387318
1.3064063 0.78375 0.05277767 0.99392104
1.3061328 0.76142579 0.052375946 0.99396718
1.305625 0.7178027 0.05161579 0.99405444
1.3307421 0.70998043 0.052251663 0.99398142
1.3719727 0.70998043 0.05351631 0.99383622
1.4152734 0.70997071 0.05485275 0.99368274
1.4607812 0.70997071 0.056266591 0.9935205
1.6127343 0.70996094 0.061044157 0.99297225
1.7931445 0.7099902 0.066812016 0.99231076
1.8611132 0.70998043 0.069007188 0.99205917
1.9556054 0.66271484 0.071532592 0.99176973
1.9555858 -0.66267574 0.071532398 0.99176985
1.9553515 -0.69008785 0.071834259 0.99173516
1.7292968 -0.70992184 0.064761125 0.99254602
1.6126952 -0.70991212 0.061043624 0.99297243
1.5087109 -0.70994139 0.057764243 0.9933486
1.3719531 -0.70991212 0.053515777 0.9938364
1.3307421 -0.70992184 0.052251168 0.99398148
1.305625 -0.71775389 0.05161579 0.99405456
1.3058593 -0.73940426 0.051988792 0.99401176
1.3069531 -0.82940429 0.05362602 0.99382377
1.3072656 -0.85282224 0.054073486 0.99377233
1.3075781 -0.87666011 0.054537695 0.99371898
1.3078907 -0.90088868 0.055019036 0.99366379
1.3082422 -0.92558593 0.055518225 0.99360645
10.406074 -8.6086035 0.46787208 0.94738114
0.96878904 -7.6687303 0.26778045 0.96953636
-0.22558594 -8.9735155 0.31097227 0.96471077
-0.33841795 -8.9720306 0.31104177 0.96470279
-0.45130858 -8.9705267 0.3111631 0.96468943
-0.56427735 -8.9690037 0.3113324 0.96467066
-0.90427732 -8.9644728 0.3121357 0.96458095
-1.0180273 -8.9629488 0.31250504 0.96454
-1.4763671 -8.9568548 0.3144834 0.96431947
-1.591953 -8.9553127 0.31510749 0.96425003
-1.7080078 -8.9537697 0.31578225 0.96417469
-1.9417578 -8.9506445 0.31729355 0.96400636
-2.0594921 -8.9490814 0.31813049 0.9639132
-4.1485934 -11.754335 0.43182814 0.9513343
-4.138535 -10.452695 0.38946235 0.95600164
-3.7529297 -8.5249805 0.32268789 0.96340603
-4.1164842 -8.469902 0.32624754 0.96300989
-4.3814063 -8.4669533 0.33027229 0.96256226
-4.9323044 -8.4608393 0.33928427 0.96156061
-5.2195702 -8.4576559 0.34430847 0.96100247
-5.3664451 -8.4560251 0.34696022 0.96070814
-5.515625 -8.4543552 0.34970778 0.9604032
-6.5551171 -8.7878418 0.37981009 0.95706898
-6.6424217 -8.4530659 0.37243918 0.95788425
-6.8162889 -8.4534473 0.376201 0.95746803
-6.9937496 -8.4538965 0.38010246 0.95703661
-7.1749997 -8.4543753 0.38414755 0.9565894
-4.3316798 -4.975986 0.22855102 0.97394067
-4.4423046 -4.8513083 0.22788253 0.97401601
-4.6667576 -4.8460646 0.23307304 0.97343206
-1.071875 -0.90960938 0.048702009 0.99438918
-1.0715234 -0.88641602 0.048176076 0.99444956
-1.0711719 -0.86367184 0.047669332 0.99450791
-1.0708593 -0.84144527 0.047180329 0.99456394
-1.0705273 -0.81962889 0.046708945 0.99461824
-1.0699219 -0.77730465 0.045815773 0.99472094
-1.0693749 -0.73657227 0.044984665 0.99481636
-1.0691016 -0.71675777 0.044591367 0.9948616
-1.0882422 -0.70991212 0.045013007 0.99481308
-1.1503906 -0.70992184 0.046831664 0.99460411
-1.1834375 -0.70993161 0.047809027 0.99449176
-1.2178515 -0.70992184 0.048835944 0.99437386
-1.3719531 -0.70993161 0.053515892 0.99383634
-1.4152734 -0.70992184 0.054852445 0.99368286
-1.5087109 -0.70991212 0.057764549 0.99334866
-1.5592968 -0.70992184 0.059354477 0.99316615
-1.6126952 -0.70991212 0.061043624 0.99297243
-1.6692969 -0.70992184 0.062842518 0.99276602
-1.7427734 -0.71545899 0.065265581 0.99248815
-1.7430469 -0.69009763 0.064946249 0.99252486
-1.7476171 0.69194335 0.059902456 0.99250597
-1.7473632 0.71736324 0.060197905 0.99246913
-1.6692969 0.70997071 0.057811812 0.99276656
-1.50875 0.70996094 0.053140562 0.99334908
-1.3307421 0.70997071 0.048068464 0.99398196
-1.253828 0.70996094 0.045919951 0.99425018
-1.2178711 0.70997071 0.044926491 0.99437422
-1.1834375 0.70998043 0.043981779 0.99449211
-1.1504102 0.70997071 0.043082807 0.99460447
-1.0666797 0.71517575 0.040927581 0.99487358
-1.0668945 0.73493165 0.04128788 0.9948287
-1.0671484 0.75505859 0.041661605 0.99478197
-1.0674024 0.77554685 0.042048797 0.99473363
-1.0685546 0.86161131 0.043745536 0.99452168
-1.0695117 0.93104488 0.04519058 0.99434125
-8.9653711 8.0047359 0.38303846 0.95303851
-7.9526172 7.6583691 0.35185853 0.95677716
-7.7529297 7.6561327 0.34725371 0.9573307
-7.1836329 7.6498241 0.33443975 0.95887232
-7.0029883 7.6478219 0.33047935 0.95934939
-6.8265233 7.6458592 0.3266626 0.95980948
-6.3205271 7.640244 0.31601143 0.96109384
-6.0008593 7.6366892 0.3095282 0.96187669
-5.8457813 7.6349802 0.30645689 0.96224785
-5.5446873 7.6316209 0.30063355 0.96295178
-5.3983202 7.6299901 0.29787245 0.96328562
-5.1133986 7.6268358 0.29263809 0.96391898
-4.5718164 7.62082 0.28322539 0.9650591
-4.1872458 7.6165624 0.27700064 0.9658137
-3.8187108 7.6124902 0.27142045 0.96649057
-3.6990623 7.6111522 0.26969421 0.96670014
-3.5808983 7.6098337 0.26803282 0.96690202
-3.6492186 9.5664158 0.32630891 0.95985216
-3.6066406 11.100098 0.37196419 0.95436502
-3.5784764 13.244023 0.43722075 0.9465763
3.0147264 11.741611 0.38634124 0.95264357
1.3055078 0.94852537 0.051427916 0.9935627
1.3048632 0.89886719 0.050497666 0.99367887
1.3045899 0.87467772 0.050056875 0.99373382
1.3040234 0.82758784 0.049221497 0.99383807
1.3032422 0.75976562 0.048076972 0.993981
1.3030078 0.73784178 0.047722396 0.99402523
1.3027734 0.71625 0.047380522 0.99406791
1.4607812 0.70997071 0.051762044 0.99352109
1.7293359 0.70998043 0.059576567 0.9925465
1.7931445 0.7099902 0.061463125 0.99231142
1.9602929 0.69188476 0.066251069 0.99171507
1.9605469 -0.66433591 0.065971904 0.99174982
1.8610938 -0.70992184 0.063482434 0.99206007
1.6692773 -0.70992184 0.057811543 0.99276674
1.6126952 -0.70991212 0.056156769 0.99297309
1.5592773 -0.70992184 0.054602355 0.99316686
1.5087109 -0.70994139 0.053140145 0.99334925
1.4152343 -0.70992184 0.050460968 0.99368358
1.3307421 -0.70992184 0.048068199 0.99398208
1.3030078 -0.73780274 0.047722474 0.99402529
1.303789 -0.80458981 0.048826065 0.99388736
1.3046093 -0.8746289 0.050056685 0.99373388
1.3048828 -0.89879882 0.050497551 0.99367893
1.3051953 -0.92339844 0.050954435 0.99362195
10.701504 -8.409111 0.43375441 0.9469887
0.97292966 -8.5659084 0.27475083 0.96608692
-0.22560546 -8.9735155 0.28607604 0.96471399
-0.33841795 -8.9720306 0.28614241 0.964706
-0.45130858 -8.9705267 0.28625175 0.96469265
-0.56431639 -8.9690037 0.28640753 0.96467388
-0.67744142 -8.9674997 0.28660971 0.9646495
-1.2433984 -8.9375677 0.28758299 0.96453136
-1.3612499 -8.9583979 0.28878096 0.96438628
-1.4763671 -8.9568548 0.28930739 0.96432269
-1.7080468 -8.9537497 0.2905024 0.96417803
-1.8246093 -8.9522066 0.29117271 0.96409678
-2.1778905 -8.9475002 0.29348296 0.96381712
-2.2912109 -8.9236231 0.29361984 0.96380043
-2.29916 -8.5090723 0.28090918 0.96534014
-4.1601171 -11.786953 0.39836004 0.95120698
-3.7529297 -8.5249805 0.29685354 0.96340936
-3.8577538 -8.4727535 0.29670006 0.96342796
-3.986367 -8.4713278 0.29838058 0.96322465
-4.2481446 -8.4684372 0.30194533 0.96279365
-4.3814063 -8.4669628 0.30383125 0.9625656
-4.5163865 -8.4654589 0.3057898 0.96232891
-4.6531639 -8.4639254 0.30782408 0.96208322
-4.9323044 -8.4608393 0.31212187 0.96156412
-5.0748825 -8.4592476 0.31439093 0.96129012
-5.3664451 -8.4560251 0.31918198 0.96071172
-5.5156446 -8.4543552 0.32171202 0.96040672
-5.6672068 -8.4526949 0.3243331 0.96009076
-5.8213282 -8.4509764 0.32704824 0.95976341
-6.1375389 -8.4474802 0.33277825 0.95907301
-6.4652147 -8.4438381 0.33893004 0.95833248
-6.8054881 -8.4400682 0.34553587 0.95753777
-7.1595116 -8.4361229 0.35263062 0.95668495
-4.3292189 -4.8487792 0.2071614 0.97432137
-4.5385351 -4.8330274 0.21129721 0.97381556
-8.5454102 -8.4385738 0.38274863 0.95307344
-1.0691797 -0.90733397 0.044690896 0.99440372
-1.0688672 -0.88422847 0.044209823 0.99446374
-1.0674218 -0.77548826 0.042048834 0.99473369
-1.0668945 -0.73488277 0.041287839 0.99482882
-1.0666797 -0.71511716 0.040927619 0.9948737
-1.2178515 -0.70992184 0.04492626 0.99437439
-1.2537891 -0.70991212 0.045919724 0.99425036
-1.2913672 -0.70993161 0.046965599 0.99411976
-1.3719531 -0.70993161 0.049231604 0.99383694
-1.4152734 -0.70992184 0.050461274 0.99368346
-1.4607812 -0.70992184 0.051761817 0.99352115
-1.5087109 -0.70991212 0.053140145 0.99334925
-1.5592968 -0.70992184 0.054602355 0.9931668
-1.6692969 -0.70992184 0.057811543 0.99276668
-1.7473437 -0.71733397 0.060197599 0.99246925
-1.7523828 0.6684863 0.054573555 0.99252266
-1.7521875 0.69374019 0.054833107 0.99248707
-1.751914 0.71924806 0.055104215 0.99245018
-1.6692969 0.70997071 0.052781906 0.99276721
-1.5592968 0.70997071 0.049852028 0.99316728
-1.415293 0.70998043 0.046070937 0.99368382
-1.3307421 0.70997071 0.043886259 0.99398249
-1.253828 0.70996094 0.041924439 0.99425066
-1.2178711 0.70997071 0.041017417 0.99437469
-1.0882031 0.70998043 0.037806664 0.99481398
-1.0642383 0.71353513 0.037281111 0.99488574
-1.0644531 0.73323238 0.037608564 0.99484098
-1.0651562 0.794541 0.038665123 0.99469644
-1.0654101 0.81576169 0.039043121 0.9946447
-1.0656641 0.83741212 0.039435197 0.99459112
-1.0659375 0.85952145 0.039841726 0.99453545
-1.0662304 0.88208008 0.040263519 0.99447775
-1.0665234 0.9051367 0.04070095 0.99441791
-1.0668163 0.92870116 0.041154593 0.99435592
-1.0671484 0.95282227 0.041625481 0.99429142
-8.3684568 7.6629782 0.33015722 0.95560861
-7.7529297 7.6561522 0.31704056 0.95733416
-7.1836329 7.6498241 0.30534148 0.95887572
-6.8265233 7.6458492 0.29823837 0.95981288
-6.6541209 7.6439452 0.29488006 0.96025634
-6.1590428 7.6384473 0.28550315 0.9614954
-6.0008397 7.6366796 0.28259742 0.96187991
-5.8457813 7.6349707 0.27979231 0.96225101
-5.693789 7.6332812 0.27708679 0.96260911
-5.3983202 7.6300097 0.2719557 0.96328861
-5.2546091 7.6283984 0.26952422 0.96361089
-5.1134372 7.6268358 0.26717675 0.9639219
-4.9746485 7.6253123 0.26491258 0.96422219
-4.5718164 7.6208396 0.25858209 0.9650619
-4.1872263 7.6165524 0.25289878 0.96581662
-3.9398632 7.6138282 0.24944076 0.96627605
-3.8186913 7.6124902 0.24780418 0.96649343
-3.6990623 7.6111717 0.24622817 0.96670288
-3.6297851 9.8868256 0.30645064 0.95872968
-3.606621 11.100078 0.33959877 0.95436889
-3.5698047 13.903447 0.41766998 0.94417667
-3.5603125 14.627148 0.43803358 0.94153637
2.708828 16.433916 0.48462752 0.93552172
13.231718 15.591309 0.595007 0.92142749
12.415136 10.010615 0.46404707 0.93817371
1.3024414 0.94629878 0.046842992 0.99357831
1.301875 0.89677733 0.045997541 0.99369389
1.3010937 0.82572263 0.044837989 0.99385238
1.3001953 0.73624021 0.04347511 0.99403864
1.2999804 0.71469724 0.043164596 0.99408114
1.5087109 0.7099902 0.048516579 0.99334973
1.5592968 0.70998043 0.049851988 0.99316728
1.6692969 0.70998043 0.052781828 0.99276716
1.7293359 0.70998043 0.054393157 0.99254715
1.7931445 0.7099902 0.056115225 0.99231207
1.8611132 0.70998043 0.057959516 0.99206054
1.9646484 0.72130859 0.060896032 0.99165994
1.9648438 0.66583008 0.060363729 0.99173248
1.9648438 -0.6658203 0.060364075 0.99173248
1.7292968 -0.70992184 0.054393157 0.99254733
1.6692773 -0.70992184 0.052781332 0.99276733
1.6126952 -0.70991212 0.051270597 0.99297369
1.5592773 -0.70992184 0.049851455 0.9931674
1.5087109 -0.70992184 0.048516121 0.99334979
