# .PCD v0.7 - Point Cloud Data file format
VERSION 0.7
FIELDS x y z intensity
SIZE 4 4 4 4
TYPE F F F F
COUNT 1 1 1 1
WIDTH 1082
HEIGHT 1
VIEWPOINT 0 0 0 1 0 0 0
POINTS 1082
DATA ascii
1.3307421 -0.70995116 -0.06899219 0.9939788
1.2913867 -0.70995116 -0.067409821 0.99411654
1.2620312 -0.77883786 -0.067836761 0.99407935
1.261914 -0.80084962 -0.068366542 0.99403328
1.2618164 -0.8231836 -0.068915747 0.99398547
1.2615625 -0.86900389 -0.070074081 0.9938848
1.2613281 -0.91642576 -0.07131733 0.99377656
1.2612109 -0.94076169 -0.071972996 0.99371952
6.8890624 -5.2746973 -0.39688751 0.96585429
6.8225193 -5.3610935 -0.39690495 0.96585286
6.6862497 -5.5313282 -0.39694062 0.96584988
6.6165233 -5.6151853 -0.39695889 0.96584827
6.473906 -5.7802243 -0.39699617 0.96584523
6.2523437 -6.0209765 -0.39705417 0.9658404
6.0997071 -6.1768456 -0.39709407 0.96583688
5.5355468 -6.691328 -0.39724159 0.96582431
5.1935153 -6.9625583 -0.39733091 0.96581686
5.0174999 -7.0916991 -0.39737692 0.96581292
4.5636716 -7.3949413 -0.39749545 0.96580297
4.4706445 -7.4521775 -0.39751974 0.96580088
4.376914 -7.5082126 -0.39754423 0.96579885
4.0916014 -7.6692967 -0.39761871 0.96579248
3.8003514 -7.8195605 -0.39769471 0.96578604
3.7020311 -7.867197 -0.3977204 0.96578389
3.6030858 -7.9136329 -0.39774621 0.96578169
3.3029296 -8.0453711 -0.3978245 0.96577513
3.2017577 -8.0867767 -0.3978509 0.96577293
2.8952734 -8.2033691 -0.39793086 0.96576613
2.7921875 -8.2396584 -0.39795774 0.96576381
2.6885545 -8.2746487 -0.39798477 0.9657616
1.9521874 -8.4829397 -0.39817679 0.96574533
1.8455859 -8.5073919 -0.39820457 0.96574301
1.6314453 -8.5522757 -0.39826038 0.9657383
1.5239453 -8.5727243 -0.3982884 0.96573585
1.4161913 -8.5917768 -0.3983165 0.96573359
1.3841602 -9.1094427 -0.42147383 0.96377778
1.2696874 -9.1267576 -0.42150363 0.96377528
1.0400586 -9.1570997 -0.42156348 0.96377015
0.69433594 -9.1917477 -0.42165354 0.96376258
0.3475 -9.2133884 -0.42174393 0.96375483
0.23169921 -9.2176466 -0.42177409 0.96375245
-1.953125e-05 -9.2218943 -0.42183447 0.96374732
-0.34765625 -9.2173147 -0.42192501 0.96373969
-0.46349609 -9.2128706 -0.42195517 0.96373719
-0.92607421 -9.1805763 -0.4220756 0.96372694
-1.2716796 -9.1411133 -0.4221656 0.96371931
-1.3866016 -9.1250677 -0.42219549 0.96371675
-1.5012109 -9.1075487 -0.42222533 0.9637143
-1.7298633 -9.0682125 -0.42228484 0.96370935
-1.7426562 -8.5499506 -0.3991392 0.96566391
-1.850039 -8.5279589 -0.39916718 0.96566164
-1.9572265 -8.5046387 -0.39919505 0.9656592
-2.0640624 -8.4799709 -0.39922285 0.96565688
-2.170625 -8.4539547 -0.3992506 0.96565449
-2.2768164 -8.4265432 -0.39927822 0.96565235
-2.3827147 -8.397871 -0.39930576 0.9656499
-2.488203 -8.3678513 -0.39933321 0.96564758
-3.0097656 -8.1978903 -0.39946887 0.96563607
-3.1127343 -8.1599798 -0.39949566 0.96563381
-3.2152538 -8.1207714 -0.3995223 0.96563148
-3.4187305 -8.0384569 -0.39957517 0.96562713
-3.5197265 -7.9953809 -0.39960146 0.96562487
-3.72 -7.9054489 -0.39965355 0.96562046
-3.8193164 -7.8585935 -0.39967933 0.96561825
-4.113574 -7.7105269 -0.39975587 0.96561182
-4.2104297 -7.6587009 -0.39978102 0.96560967
-4.3066015 -7.6056638 -0.39980596 0.96560758
-4.7771482 -7.3224998 -0.39992824 0.96559709
-4.9601951 -7.2009668 -0.39997581 0.96559328
-5.0506248 -7.1384959 -0.39999926 0.96559119
-5.1402149 -7.0748925 -0.40002257 0.96558923
-5.2289844 -7.0101366 -0.4000456 0.96558738
-5.3169923 -6.9442773 -0.40006843 0.96558535
-5.5758786 -6.7400684 -0.40013567 0.96557969
-5.6604295 -6.6698437 -0.4001576 0.96557784
-5.7441406 -6.5985546 -0.40017936 0.96557593
-5.8269138 -6.5262012 -0.40020084 0.96557409
-5.9087501 -6.4527831 -0.40022209 0.96557248
-5.3944921 -5.0657616 -0.33850387 0.97080308
-1.0309765 -0.94406247 -0.06394428 0.99441814
-1.0311133 -0.92062497 -0.063230477 0.99448031
-1.03125 -0.89772457 -0.062541962 0.99454021
-1.0316406 -0.83182615 -0.060619507 0.99470764
-1.0317578 -0.81074214 -0.06002304 0.99475956
-1.031875 -0.79004884 -0.059447594 0.99480969
-1.0319922 -0.76977539 -0.058891866 0.99485803
-1.0320898 -0.74985349 -0.058355443 0.99490476
-1.0321679 -0.73029298 -0.057837866 0.99494994
-1.0323046 -0.71107417 -0.057338178 0.99499333
-1.0588672 -0.70993161 -0.058316305 0.99490833
-1.1187109 -0.70995116 -0.060607109 0.99470866
-1.1504296 -0.70994139 -0.061836395 0.99460155
-1.3307421 -0.70994139 -0.06899219 0.9939788
-1.3719531 -0.70995116 -0.070662268 0.9938336
-1.4152734 -0.70994139 -0.072426759 0.99368
-1.4607812 -0.70994139 -0.074293554 0.99351764
-1.5592968 -0.70994139 -0.078370929 0.99316311
-1.6692969 -0.70995116 -0.08297687 0.99276274
-1.7293359 -0.70994139 -0.085510179 0.99254256
-1.7853124 -0.70685548 -0.08783222 0.99234086
-1.7852343 -0.68099606 -0.087401047 0.99237835
-10.399863 -3.6705272 -0.50447869 0.95680034
-10.445391 -3.5396483 -0.50449038 0.95679945
-10.531523 -3.2761621 -0.50451255 0.95679754
-10.572089 -3.1436424 -0.50452298 0.95679659
-10.717461 -2.6086817 -0.50456023 0.95679355
-10.835664 -2.0670116 -0.50459045 0.95679092
-10.860898 -1.9307226 -0.50459689 0.95679051
-10.884453 -1.794121 -0.50460285 0.95678991
-10.926328 -1.5200391 -0.50461346 0.95678902
-10.961249 -1.245 -0.50462228 0.95678836
-10.976113 -1.107168 -0.50462604 0.95678806
-11.000586 -0.83100581 -0.50463212 0.95678759
-11.010195 -0.69270504 -0.50463444 0.95678747
-11.018085 -0.55428708 -0.50463635 0.95678723
-10.396563 0.13066407 -0.50447375 0.95921654
-10.394062 0.26126954 -0.50447297 0.95921665
-10.38996 0.39188474 -0.50447172 0.95921665
-10.376758 0.65285152 -0.50446802 0.95921695
-10.34457 1.0434766 -0.50445926 0.95921773
-10.314941 1.3030761 -0.50445122 0.95921826
-10.258203 1.6908789 -0.50443608 0.95921946
-10.235957 1.8196288 -0.50443017 0.95922017
-10.212187 1.9480664 -0.5044238 0.95922053
-10.186777 2.0762208 -0.504417 0.95922101
-10.131094 2.3315039 -0.50440228 0.95922214
-10.100821 2.4585838 -0.50439423 0.95922285
-10.068965 2.585283 -0.50438583 0.95922351
-10.000429 2.8373828 -0.50436771 0.95922506
-9.9638081 2.9627635 -0.50435799 0.95922577
-9.9256048 3.0876856 -0.50434792 0.95922649
-9.8858395 3.2120996 -0.50433743 0.95922726
-9.8444138 3.3359766 -0.50432652 0.9592284
-1.7861524 0.70719725 -0.093208924 0.99233621
-1.6127343 0.70994139 -0.085494496 0.9929682
-1.5592773 0.70995116 -0.083128281 0.99316227
-1.4607812 0.70996094 -0.078803673 0.9935168
-1.3719921 0.70995116 -0.07495182 0.99383265
-1.3307226 0.70995116 -0.073180348 0.99397808
-1.253828 0.70994139 -0.069909513 0.99424636
-1.1834179 0.70994139 -0.066958882 0.9944886
-1.1503906 0.70995116 -0.065590173 0.99460095
-1.1187109 0.70995116 -0.064286269 0.99470794
-1.0882226 0.70996094 -0.063042872 0.99481004
-1.0589062 0.70994139 -0.06185627 0.9949075
-1.0314063 0.74935544 -0.061856039 0.9949075
-1.0310546 0.81017578 -0.063622244 0.99476248
-1.0308985 0.83124024 -0.064253956 0.99471068
-1.0306641 0.87465817 -0.065587156 0.99460119
-1.0303515 0.91996092 -0.067019574 0.99448365
-6.0108204 5.6445212 -0.40007469 0.96751791
-5.9391403 5.7193847 -0.40005592 0.96751928
-5.7929883 5.86625 -0.40001768 0.96752232
-5.7185154 5.9383006 -0.39999825 0.96752393
-5.6432028 6.0093846 -0.39997855 0.96752542
-5.5669532 6.0795212 -0.39995861 0.96752709
-5.4898634 6.1486816 -0.39993843 0.96752864
-5.2533984 6.3502536 -0.39987662 0.96753353
-5.0916014 6.4795895 -0.39983436 0.96753693
-5.009531 6.5427051 -0.39981291 0.9675386
-4.8429685 6.665791 -0.39976943 0.96754223
-4.7585936 6.7257714 -0.39974737 0.96754384
-4.6734376 6.7846384 -0.39972514 0.96754569
-4.325664 7.0092969 -0.3996343 0.9675529
-4.147656 7.1149511 -0.39958784 0.96755666
-3.6916015 7.3591599 -0.39946881 0.96756619
-3.5986328 7.404531 -0.39944452 0.96756804
-3.4110155 7.4917188 -0.39939559 0.96757191
-3.2212694 7.574111 -0.39934608 0.96757597
-2.8359375 7.724453 -0.39924553 0.96758395
-2.7384765 7.7589941 -0.39922011 0.96758592
-2.5423045 7.8243356 -0.39916897 0.96759009
-2.1453905 7.9401364 -0.39906546 0.96759838
-2.0453124 7.9659176 -0.39903939 0.96760058
-1.4389062 8.0941505 -0.39888129 0.96761316
-1.3369726 8.111064 -0.3988547 0.96761525
-1.1325586 8.1410351 -0.39880145 0.96761942
-1.0300976 8.1540527 -0.39877474 0.96762168
-0.92749995 8.1658297 -0.39874801 0.96762371
-0.82476562 8.1763086 -0.39872122 0.96762574
-0.61890626 8.1933298 -0.3986676 0.96763015
-0.51589841 8.1999216 -0.39864078 0.96763223
-0.30964842 8.2091599 -0.39858702 0.96763664
-0.20644531 8.211875 -0.39856014 0.96763867
0 8.2133102 -0.39850637 0.96764314
0.10320313 8.2121487 -0.39847949 0.96764517
0.20636718 8.2096291 -0.39845264 0.96764737
0.30949217 8.2058401 -0.39842579 0.96764952
0.41257811 8.2007809 -0.39839894 0.96765155
0.51552731 8.194375 -0.39837211 0.96765375
0.82384765 8.1674805 -0.39829186 0.96766013
0.92636716 8.1559181 -0.39826515 0.96766233
1.1308594 8.128994 -0.39821193 0.96766657
1.2328515 8.1136131 -0.39818537 0.96766859
1.3346094 8.0969238 -0.39815888 0.9676708
1.5374805 8.0597658 -0.39810607 0.96767497
1.6385156 8.0393066 -0.39807978 0.967677
1.8397655 7.9945016 -0.39802742 0.96768135
2.0162108 8.2833986 -0.41364059 0.96643513
2.5683594 10.003076 -0.50108641 0.95948488
2.6936717 9.9693747 -0.50105381 0.95948738
2.8185546 9.9341106 -0.50102133 0.95948994
2.9429882 9.8972654 -0.50098896 0.9594925
3.1903515 9.8189154 -0.50092465 0.95949763
3.6787498 9.6437597 -0.50079763 0.9595077
3.7993748 9.5961914 -0.50076622 0.95951015
3.9194531 9.5470896 -0.50073498 0.95951259
4.3930664 9.3357906 -0.50061184 0.95952243
4.5097656 9.2793159 -0.50058156 0.95952475
4.625742 9.2213573 -0.5005514 0.95952713
4.7409959 9.1619329 -0.50052148 0.95952952
4.8554296 9.1011038 -0.50049168 0.9595319
5.1940818 8.910058 -0.5004037 0.95953894
5.7416797 8.5638962 -0.50026143 0.9595502
5.9544139 8.4159861 -0.50020623 0.95955455
6.2664061 8.1842575 -0.50012517 0.95956087
6.6682811 7.8574023 -0.50002086 0.95956928
6.7661328 7.7726169 -0.49999544 0.95957124
6.8629684 7.6865721 -0.49997035 0.95957321
6.9586716 7.5993652 -0.49994552 0.95957512
7.0532422 7.5109372 -0.49992093 0.95957714
7.1467185 7.4213672 -0.49989668 0.95957905
7.3302732 7.2387304 -0.49984908 0.95958281
7.4203515 7.1457419 -0.49982575 0.95958447
7.5091796 7.0516014 -0.49980268 0.95958638
7.5967965 6.9563475 -0.49977997 0.95958841
7.8525977 6.6641989 -0.49971366 0.95959347
7.9353905 6.5647168 -0.49969223 0.95959514
8.0169134 6.4642186 -0.49967107 0.95959681
8.097168 6.3626952 -0.4996503 0.95959848
8.1761322 6.2601852 -0.49962983 0.95960015
1.2603515 0.94012696 -0.076289594 0.99372292
1.2607617 0.86842769 -0.074278295 0.9938879
1.2610937 0.80032223 -0.072469555 0.99403638
1.26125 0.7783398 -0.071908109 0.99408227
1.2613281 0.75668943 -0.071366578 0.9941268
1.2614453 0.73536134 -0.070843883 0.99416965
1.2615234 0.71432614 -0.070339657 0.99421108
1.2914063 0.70994139 -0.071502037 0.99411571
1.3719921 0.70995116 -0.074951701 0.99383265
1.4152734 0.70994139 -0.076823458 0.99367917
1.4608203 0.70994139 -0.078803636 0.99351668
1.5087304 0.70994139 -0.080901943 0.99334472
1.5592968 0.70996094 -0.083128318 0.99316216
1.6692969 0.70996094 -0.088013835 0.99276179
1.7293359 0.70996094 -0.090701066 0.99254155
1.7931249 0.70994139 -0.093572579 0.99230647
2.0231836 0.71406251 -0.10409885 0.99144471
2.0230467 0.6855371 -0.1036393 0.99148226
9.9648046 2.5585253 -0.49916789 0.95963669
10.025644 2.3072264 -0.49915233 0.95963794
10.080195 2.0545118 -0.49913841 0.95963895
10.105039 1.9276562 -0.49913204 0.95963967
10.128359 1.8005078 -0.49912611 0.95964003
10.188672 1.4174316 -0.49911079 0.9596414
10.205585 1.2892578 -0.49910656 0.95964181
10.220938 1.1608984 -0.49910268 0.95964193
10.246758 0.90368164 -0.49909621 0.95964247
10.257265 0.77485353 -0.49909362 0.95964259
10.266132 0.64588869 -0.49909145 0.95964283
10.273378 0.51682615 -0.49908969 0.95964307
10.285507 0.12925781 -0.49908698 0.95964324
10.285546 -0.12926757 -0.49908721 0.95964307
10.283125 -0.25850585 -0.49908802 0.95964307
10.279062 -0.38768554 -0.49908918 0.95964307
10.266171 -0.64588869 -0.49909282 0.95964265
10.234648 -1.0323828 -0.49910143 0.95964223
10.188788 -1.4174609 -0.4991138 0.95964098
10.170273 -1.5453515 -0.49911875 0.95964062
10.080235 -2.0545118 -0.49914274 0.95963883
10.053789 -2.1810644 -0.49914977 0.95963812
10.025723 -2.3072557 -0.49915722 0.95963758
9.9960938 -2.4331055 -0.49916506 0.95963699
9.8978319 -2.8082616 -0.49919108 0.95963484
9.8618946 -2.9324803 -0.49920055 0.95963424
9.8244915 -3.0562499 -0.49921042 0.95963335
2.0228906 -0.65727538 -0.10319984 0.9915182
2.0230467 -0.68554688 -0.1036393 0.99148226
1.8611327 -0.70995116 -0.096647106 0.99205458
1.6692578 -0.70995116 -0.088013306 0.99276197
1.5087109 -0.70995116 -0.080901332 0.99334478
1.4607812 -0.70995116 -0.078803137 0.9935168
1.4152539 -0.70995116 -0.076822892 0.99367923
1.3719531 -0.70994139 -0.074951172 0.99383283
1.3307421 -0.70995116 -0.073179893 0.99397796
1.2615234 -0.71431637 -0.070339814 0.99421114
1.2614062 -0.73535156 -0.070843928 0.99416977
1.2613281 -0.75667965 -0.071366653 0.99412686
1.2610937 -0.80032223 -0.072469518 0.99403638
1.2609961 -0.82265621 -0.073051184 0.99398857
1.2608984 -0.8453418 -0.073653869 0.9939391
1.2607422 -0.86843747 -0.074278183 0.99388796
1.2603515 -0.94011718 -0.076289482 0.99372298
6.4337497 -5.0555663 -0.39700589 0.96776289
6.2394137 -5.295156 -0.39705676 0.96775883
6.1726561 -5.3733983 -0.39707422 0.9677574
6.036211 -5.5273046 -0.39710993 0.9677546
5.8244138 -5.7516794 -0.39716533 0.96775019
5.5291405 -6.0382519 -0.39724255 0.96774399
5.453125 -6.1075487 -0.39726242 0.96774232
5.3762107 -6.1759176 -0.39728251 0.96774071
5.2984762 -6.2432809 -0.39730284 0.96773911
5.1404099 -6.3751268 -0.39734417 0.96773589
5.0601563 -6.4395504 -0.39736509 0.96773422
4.9791017 -6.5029883 -0.39738631 0.96773249
4.8972654 -6.5654001 -0.39740768 0.96773076
4.7312498 -6.6871386 -0.39745104 0.96772724
4.64709 -6.7464256 -0.39747301 0.96772557
4.3032031 -6.972949 -0.39756283 0.96771848
4.1271286 -7.0797262 -0.39760879 0.96771467
3.9483593 -7.1820507 -0.39765549 0.96771097
3.8580272 -7.2315135 -0.39767906 0.96770912
3.6755469 -7.3270798 -0.39772668 0.96770519
3.4906445 -7.4180079 -0.39777496 0.96770149
3.2091796 -7.5457029 -0.3978484 0.96769559
3.1142969 -7.5858788 -0.39787313 0.96769369
3.0189061 -7.6249218 -0.39789802 0.9676916
2.8267186 -7.6993456 -0.39794818 0.96768761
2.5349803 -7.8019137 -0.39802429 0.96768153
2.3384376 -7.86415 -0.39807552 0.96767747
2.2395704 -7.8934274 -0.39810133 0.96767539
1.9408593 -7.9738083 -0.3981792 0.96766913
1.7400781 -8.0211134 -0.39823154 0.96766496
1.6392773 -8.042881 -0.39825782 0.96766281
1.5381836 -8.0633688 -0.39828417 0.96766078
1.4368163 -8.0825872 -0.3983106 0.9676587
1.233418 -8.1172361 -0.39836359 0.96765441
0.7215234 -8.1813965 -0.39849702 0.9676438
0.51578122 -8.1980562 -0.3985506 0.96763945
0.41273436 -8.2044334 -0.39857745 0.96763736
0.20648438 -8.2133303 -0.39863122 0.96763301
0.10322265 -8.2158003 -0.39865807 0.96763098
0 -8.217021 -0.39868495 0.96762878
-0.19207031 -7.6410742 -0.37085685 0.96985382
-0.30976561 -8.2128515 -0.39876562 0.96762234
-0.72222656 -8.1891108 -0.39887306 0.96761376
-0.82515621 -8.1799507 -0.39889982 0.96761155
-1.1330664 -8.1446676 -0.39898002 0.96760523
-1.2354296 -8.1303225 -0.39900663 0.96760309
-1.3375781 -8.1146975 -0.39903322 0.967601
-1.5412695 -8.0795898 -0.39908627 0.96759677
-1.6428125 -8.0601263 -0.3991127 0.96759462
-1.8450586 -8.0173635 -0.3991653 0.96759039
-2.0462303 -7.9695215 -0.39921767 0.96758616
-2.1463671 -7.9436717 -0.39924368 0.96758419
-2.7396874 -7.7624512 -0.39939806 0.96757174
-2.8371875 -7.7278905 -0.39942339 0.96756977
-2.9342382 -7.6920896 -0.39944866 0.96756786
-3.0308592 -7.6551266 -0.39947379 0.96756572
-3.2226954 -7.5774899 -0.39952365 0.96756172
-3.3178515 -7.5368457 -0.39954841 0.96755981
-3.412539 -7.495029 -0.399573 0.96755779
-3.5066795 -7.4520311 -0.39959747 0.96755576
-3.7857029 -7.3158789 -0.39967003 0.9675501
-3.968828 -7.2192869 -0.39971763 0.96754628
-4.0594921 -7.1692576 -0.39974117 0.96754444
-4.2388673 -7.0658102 -0.39978778 0.96754068
-4.327539 -7.0123825 -0.39981082 0.96753889
-4.415586 -6.9578514 -0.39983368 0.96753705
-4.58957 -6.8454785 -0.39987892 0.96753335
-4.760664 -6.7287107 -0.39992335 0.96752989
-4.8450975 -6.6687303 -0.39994526 0.96752816
-5.0116796 -6.5455661 -0.3999885 0.96752477
-5.0938673 -6.4824314 -0.40000984 0.96752286
-5.2556639 -6.3530469 -0.40005186 0.96751964
-5.4142575 -6.2196188 -0.40009302 0.96751618
-5.6456637 -6.0120115 -0.40015307 0.96751148
-5.8691015 -5.7958007 -0.40021101 0.96750683
-5.9417381 -5.7218456 -0.40022987 0.9675054
-5.3934569 -5.0647559 -0.35898152 0.97080493
-1.0302343 -0.9433496 -0.067775495 0.99442148
-1.0304883 -0.89707029 -0.066290431 0.99454349
-1.0306641 -0.87466794 -0.065587275 0.99460113
-1.0307813 -0.8527441 -0.064908713 0.99465686
-1.0310546 -0.81019527 -0.063622281 0.99476242
-1.0316211 -0.71059567 -0.060778312 0.99499595
-1.0588672 -0.70993161 -0.061855964 0.99490768
-1.0882226 -0.70993161 -0.063042566 0.9948101
-1.1504296 -0.70994139 -0.06558983 0.99460083
-1.2913867 -0.70995116 -0.071501389 0.99411577
-1.3307421 -0.70994139 -0.073179968 0.99397802
-1.3719531 -0.70995116 -0.074951284 0.99383277
-1.4152734 -0.70994139 -0.076822735 0.99367917
-1.4607812 -0.70994139 -0.078803211 0.9935168
-1.6127148 -0.70993161 -0.085494116 0.99296832
-1.6692969 -0.70995116 -0.088013567 0.99276179
-1.7860937 -0.68131834 -0.092750698 0.9923737
-1.7860156 -0.65572262 -0.092311703 0.99240965
-9.8445892 -3.336035 -0.50433367 0.95922768
-9.9639845 -2.9628222 -0.50436437 0.95922506
-10.035605 -2.7115624 -0.50438279 0.95922381
-10.131171 -2.3315332 -0.50440729 0.95922184
-10.186874 -2.0762403 -0.50442147 0.95922065
-10.212304 -1.9481055 -0.50442797 0.95922005
-10.297734 -1.4325976 -0.50444967 0.95921832
-10.314981 -1.3030859 -0.50445402 0.95921814
-10.330625 -1.1733788 -0.50445795 0.95921779
-10.344628 -1.0434668 -0.50446147 0.95921749
-10.356992 -0.91338867 -0.50446457 0.95921725
-10.367695 -0.78318357 -0.50446725 0.95921707
-10.376777 -0.65285152 -0.50446945 0.95921683
-9.828476 0.24705078 -0.50432569 0.96138722
-9.8190622 0.4939746 -0.50432295 0.96138757
-9.8120699 0.61732423 -0.50432104 0.96138763
-9.8035154 0.7405566 -0.50431865 0.96138775
-9.7684374 1.1095215 -0.50430912 0.96138847
-9.7536325 1.232168 -0.50430512 0.96138883
-9.7194138 1.4768554 -0.50429595 0.96138954
-9.6565228 1.8420898 -0.50427914 0.96139079
-9.6324997 1.9632519 -0.50427282 0.96139121
-9.6069136 2.0841112 -0.50426602 0.96139187
-9.5798435 2.2046289 -0.50425881 0.96139234
-9.5211716 2.4445996 -0.50424325 0.9613933
-9.4894724 2.5640137 -0.50423491 0.96139419
-9.4563665 2.6830273 -0.50422615 0.96139473
-9.3856249 2.9196875 -0.50420749 0.9613961
-9.3480072 3.0373633 -0.50419754 0.96139681
-9.3089056 3.1545117 -0.50418723 0.96139765
-1.786875 0.65602535 -0.097642779 0.992405
-1.7869531 0.68166012 -0.098107256 0.992369
-1.7292968 0.70995116 -0.095892526 0.99254072
-1.5087304 0.70994139 -0.085532717 0.99334383
-1.4152734 0.70996094 -0.081220627 0.99367827
-1.3719921 0.70995116 -0.079242058 0.99383181
-1.3307226 0.70995116 -0.077369422 0.99397725
-1.1503906 0.70995116 -0.069344364 0.99460024
-1.1187109 0.70995116 -0.067966081 0.99470723
-1.0589062 0.70994139 -0.065396838 0.99490684
-1.0308985 0.71011716 -0.064214475 0.99499875
-1.0305859 0.76871091 -0.065952145 0.99486369
-1.0303124 0.8096289 -0.067217365 0.9947654
-1.0301758 0.83066404 -0.067884445 0.99471366
-1.0300391 0.85213864 -0.068575397 0.99465996
-1.0298828 0.87404293 -0.0692918 0.99460441
-5.4782419 5.5475097 -0.39993605 0.96925539
-5.4078512 5.6156735 -0.39991766 0.9692567
-5.3365817 5.68291 -0.39989901 0.96925825
-5.1916208 5.8146582 -0.39986113 0.96926105
-5.1178904 5.8791699 -0.39984185 0.96926248
-5.0433593 5.9427147 -0.39982238 0.96926403
-4.9680467 6.0053515 -0.39980268 0.9692654
-4.8919334 6.0669823 -0.39978281 0.96926701
-4.8150778 6.1276755 -0.39976272 0.9692685
-4.6591015 6.2460938 -0.39972198 0.9692716
-4.4196873 6.4162302 -0.39965943 0.96927637
-4.3384767 6.4709473 -0.39963821 0.96927792
-4.2566013 6.5246286 -0.39961684 0.96927941
-4.1740232 6.5772166 -0.39959526 0.9692812
-4.0908203 6.6287985 -0.39957353 0.96928281
-4.0069919 6.679287 -0.39955169 0.96928453
-3.922539 6.7287693 -0.39952964 0.96928608
-3.7517967 6.8244433 -0.39948505 0.96928948
-3.6655078 6.8706837 -0.39946255 0.96929121
-3.5786912 6.915791 -0.39943984 0.96929294
-3.4912889 6.9598532 -0.39941704 0.96929455
-3.3149219 7.0445213 -0.39937103 0.96929824
-3.1364648 7.1248045 -0.39932445 0.96930164
-3.0465233 7.1632223 -0.39930099 0.96930343
-2.8652148 7.2366505 -0.3992537 0.96930707
-2.5899608 7.3382225 -0.3991819 0.96931237
-2.4973826 7.3697166 -0.39915773 0.96931428
-2.404453 7.4000878 -0.39913347 0.96931601
-2.3111327 7.4292769 -0.39910918 0.96931779
-2.2174413 7.4572654 -0.39908472 0.9693197
-1.9344531 7.534121 -0.39901093 0.96932542
-1.8395312 7.5573826 -0.39898619 0.96932721
-1.7442968 7.5794234 -0.39896137 0.96932912
-1.4571093 7.63833 -0.39888653 0.96933484
-1.2645313 7.6715817 -0.39883631 0.9693386
-1.1679492 7.6863475 -0.39881113 0.96934062
-1.0712304 7.6999707 -0.39878592 0.96934235
-0.87724608 7.723496 -0.39873537 0.96934617
-0.78007811 7.7333884 -0.3987101 0.96934819
-0.58541012 7.7495995 -0.39865935 0.96935189
-0.39046875 7.760869 -0.39860854 0.96935576
-0.097617187 7.7685742 -0.3985323 0.96936154
0.19521484 7.765244 -0.39845604 0.96936733
0.29273435 7.7616696 -0.39843062 0.96936929
0.39023438 7.756865 -0.39840522 0.96937132
0.58496094 7.7436423 -0.39835453 0.96937507
0.6821875 7.7351952 -0.39832923 0.96937698
0.77927732 7.7255173 -0.39830393 0.96937889
0.87623048 7.7146287 -0.39827868 0.9693808
0.97304684 7.702529 -0.39825347 0.9693827
1.1661524 7.6746774 -0.39820319 0.96938646
1.6452343 7.5839257 -0.39807853 0.96939594
1.7402929 7.5621777 -0.3980538 0.96939784
1.9828906 8.1466408 -0.43009725 0.96697557
2.4294922 9.4622068 -0.50112319 0.96162772
2.9011328 9.3259373 -0.50100046 0.96163684
3.0178905 9.2881441 -0.50097013 0.96163929
3.1341796 9.2489452 -0.50093985 0.96164149
3.3652148 9.166152 -0.50087976 0.96164602
3.5940819 9.0776072 -0.50082028 0.96165049
3.7076561 9.0312204 -0.50079072 0.96165258
3.9329882 8.9341307 -0.50073212 0.96165705
4.1557422 8.8314552 -0.50067425 0.96166146
4.3758984 8.7232418 -0.50061703 0.96166569
4.4849219 8.6670799 -0.50058866 0.96166778
5.226953 8.2363768 -0.50039583 0.96168232
5.3297653 8.1695995 -0.50036919 0.96168435
5.4316993 8.1015425 -0.50034267 0.96168643
5.5328126 8.0322657 -0.50031644 0.96168822
5.8306832 7.8167672 -0.50023907 0.96169424
5.928164 7.7425194 -0.50021374 0.96169603
6.3084569 7.4334083 -0.50011504 0.96170342
6.4010544 7.3532028 -0.50009102 0.96170521
6.5832028 7.1893358 -0.50004375 0.96170878
6.6727147 7.1057129 -0.5000205 0.96171051
6.7611718 7.0209665 -0.49999756 0.9617123
7.4290819 6.3047853 -0.49982437 0.96172529
7.5845313 6.1155953 -0.49978408 0.96172845
7.7352538 5.9226074 -0.49974501 0.96173126
1.2596289 0.91517574 -0.07986854 0.99378324
1.2598828 0.86784178 -0.078477971 0.9938913
1.2600585 0.84481442 -0.07781864 0.9939422
1.2601953 0.82212889 -0.077182271 0.99399161
1.2604101 0.77785152 -0.075975262 0.99408531
1.2605078 0.75620115 -0.075403363 0.99412984
1.2607422 0.71386719 -0.074319378 0.99421388
1.3719921 0.70995116 -0.079242021 0.99383181
1.4608203 0.70994139 -0.083314359 0.99351579
1.5087304 0.70994139 -0.08553268 0.99334383
1.6692969 0.70996094 -0.093051754 0.99276078
1.7293359 0.70996094 -0.095892787 0.99254054
1.8611327 0.70995116 -0.10217998 0.99205351
1.9337695 0.70994139 -0.10566894 0.9917832
2.0242188 0.68592775 -0.10963482 0.99147618
2.0241992 0.65770507 -0.109179 0.99151158
9.3968945 2.5389941 -0.49931583 0.96176356
9.4279099 2.4206738 -0.4993079 0.96176416
9.582715 1.7034765 -0.49926832 0.96176708
9.6032419 1.5829102 -0.49926311 0.96176755
9.6223049 1.4620996 -0.49925825 0.96176785
9.6398439 1.3410645 -0.49925384 0.96176809
9.655859 1.2198046 -0.49924979 0.96176839
9.6947651 0.85500973 -0.49924007 0.96176922
9.7130861 0.61110348 -0.49923551 0.96176958
9.7253513 0.36679688 -0.49923262 0.9617697
9.7322655 -9.7656248e-06 -0.49923119 0.9617697
9.7314844 -0.12231445 -0.49923152 0.96176976
9.7291603 -0.2445703 -0.49923223 0.96176982
9.7253704 -0.36679688 -0.49923339 0.96176964
9.7199993 -0.48899412 -0.49923491 0.96176958
9.6833782 -0.97676754 -0.49924499 0.96176875
9.6703901 -1.0983984 -0.4992485 0.96176851
9.6223431 -1.4621191 -0.49926138 0.96176767
9.6033201 -1.5829296 -0.49926648 0.96176726
9.5607424 -1.8238281 -0.4992778 0.9617663
9.5371876 -1.9438477 -0.49928409 0.96176583
9.5121088 -2.0635643 -0.49929073 0.96176547
9.4575586 -2.3020313 -0.49930519 0.96176422
9.4280071 -2.4207129 -0.499313 0.96176374
9.3969917 -2.5390234 -0.49932119 0.96176314
9.3305664 -2.7744823 -0.49933878 0.96176177
9.2951174 -2.8915527 -0.49934813 0.96176112
2.0242188 -0.71442384 -0.11011185 0.99143916
1.8611327 -0.70995116 -0.1021788 0.99205351
1.7292968 -0.70995116 -0.095892027 0.99254072
1.5592577 -0.70995116 -0.087885931 0.99316138
1.2913867 -0.70995116 -0.075594254 0.99411494
1.2607422 -0.71387696 -0.074319378 0.99421388
1.260625 -0.73489255 -0.074851565 0.99417257
1.2605078 -0.75619137 -0.075403437 0.99412984
1.2602929 -0.79981446 -0.076568104 0.99403936
1.2601563 -0.82212889 -0.077182308 0.99399173
1.2600391 -0.84480464 -0.077818751 0.99394232
1.2599218 -0.86785156 -0.078478046 0.99389112
1.2597656 -0.89130855 -0.079160959 0.99383819
1.2596484 -0.91519529 -0.079868354 0.99378318
6.0264258 -4.8592577 -0.39711177 0.96946919
5.7106638 -5.2291894 -0.39719439 0.96946269
5.6447067 -5.3007617 -0.39721167 0.96946156
5.5779295 -5.3715134 -0.39722914 0.96946013
5.5102148 -5.4413962 -0.39724684 0.96945894
5.3019528 -5.6460056 -0.39730132 0.96945471
5.2308202 -5.7124414 -0.39731991 0.96945333
5.1588473 -5.777998 -0.39733872 0.96945196
4.8629684 -6.031074 -0.39741603 0.96944612
4.7870507 -6.092031 -0.3974359 0.96944451
4.6329298 -6.2110157 -0.39747614 0.96944153
4.0708594 -6.5964451 -0.39762297 0.96943045
3.9042187 -6.6973729 -0.39766645 0.96942723
3.8199804 -6.7462888 -0.39768845 0.9694255
3.6496484 -6.8409176 -0.39773291 0.96942216
3.4769921 -6.9312692 -0.397778 0.96941864
3.213789 -7.0586033 -0.39784667 0.96941358
3.0357811 -7.1379881 -0.39789313 0.96940994
2.7650781 -7.2486033 -0.39796373 0.96940464
2.6739061 -7.2832227 -0.39798751 0.96940285
2.4903514 -7.3490038 -0.39803544 0.96939921
2.3979492 -7.3801661 -0.39805952 0.96939737
2.3051562 -7.4101562 -0.39808372 0.96939558
2.211992 -7.4390135 -0.39810801 0.96939367
2.1184766 -7.46666 -0.39813238 0.96939188
2.0246093 -7.4931445 -0.39815688 0.96939003
1.9304297 -7.5184665 -0.39818144 0.96938813
0.97349608 -7.7059374 -0.39843085 0.96936935
0.87664062 -7.7180662 -0.3984561 0.96936738
0.77960938 -7.7289648 -0.39848137 0.96936548
0.58521485 -7.7470899 -0.39853203 0.96936166
0.39041016 -7.7603612 -0.39858279 0.96935773
0.29289061 -7.7651563 -0.39860821 0.96935576
-0.096367188 -7.6696386 -0.39345804 0.96974581
-0.39058593 -7.764287 -0.39878622 0.96934247
-0.48820311 -7.7592773 -0.39881164 0.96934044
-0.58566403 -7.753037 -0.398837 0.96933848
-0.78042966 -7.7368455 -0.39888775 0.96933466
-0.87763667 -7.7269139 -0.39891303 0.96933281
-0.97474605 -7.7157712 -0.39893833 0.96933085
-1.0716797 -7.7033982 -0.39896354 0.96932894
-1.3615234 -7.6589746 -0.399039 0.96932328
-1.4577343 -7.641748 -0.399064 0.96932137
-1.745039 -7.5827928 -0.39913878 0.96931571
-1.8403125 -7.5607224 -0.39916357 0.96931386
-1.9353125 -7.5374703 -0.39918831 0.96931195
-2.124336 -7.4873729 -0.39923751 0.96930832
-2.3121483 -7.432529 -0.39928633 0.96930456
-2.8664844 -7.2398825 -0.39943054 0.96929359
-3.0478516 -7.1663961 -0.39947769 0.96929008
-3.4048827 -7.0058494 -0.39957049 0.96928298
-3.492871 -6.9629002 -0.39959338 0.96928126
-3.5802734 -6.9188375 -0.39961612 0.96927959
-3.7534375 -6.8274512 -0.39966109 0.96927619
-3.83916 -6.7801266 -0.39968339 0.96927446
-3.9242578 -6.7317481 -0.3997055 0.96927273
-4.0087695 -6.6822557 -0.39972743 0.96927112
-4.5021677 -6.3633399 -0.39985561 0.96926147
-4.5820117 -6.306582 -0.39987633 0.96925992
-4.6611328 -6.2488575 -0.39989692 0.96925825
-4.739531 -6.1900682 -0.39991724 0.96925682
-4.8171873 -6.1303611 -0.39993742 0.96925521
-4.8941016 -6.0696387 -0.39995739 0.96925372
-4.9702344 -6.0079589 -0.39997715 0.96925217
-5.0455856 -5.945322 -0.3999967 0.96925068
-5.3389063 -5.6853709 -0.40007284 0.96924508
-5.4101954 -5.6181149 -0.40009132 0.96924359
-5.4806051 -5.5499215 -0.40010959 0.96924227
-5.5501757 -5.4808788 -0.40012762 0.96924084
-1.0297656 -0.89642578 -0.070034444 0.99454659
-1.0299023 -0.8740527 -0.069291689 0.99460429
-1.0300781 -0.85214841 -0.068575516 0.99465978
-1.0304297 -0.78899413 -0.066573523 0.99481547
-1.0306641 -0.74884766 -0.065352552 0.99491036
-1.0308203 -0.72931641 -0.064773403 0.99495518
-1.0309374 -0.71013671 -0.064214632 0.99499857
-1.0589062 -0.70995116 -0.06539654 0.99490678
-1.1187109 -0.70995116 -0.067965582 0.99470723
-1.2537891 -0.70993161 -0.073910519 0.99424571
-1.3307421 -0.70994139 -0.077368736 0.99397719
-1.3719531 -0.70995116 -0.079241373 0.99383193
-1.4607812 -0.70994139 -0.083313785 0.99351591
-1.5087109 -0.70993161 -0.085532151 0.99334389
-1.5592968 -0.70994139 -0.087886237 0.99316126
-1.7293359 -0.70994139 -0.095892332 0.9925406
-1.7870312 -0.70751953 -0.098592028 0.99233145
-1.786875 -0.65603513 -0.097642817 0.992405
-9.2684565 -3.2712109 -0.50418359 0.96139795
-9.3090229 -3.1545606 -0.50419396 0.96139717
-9.4564838 -2.6830468 -0.50423187 0.96139431
-9.5212498 -2.4446387 -0.5042485 0.961393
-9.5513668 -2.3248339 -0.50425625 0.9613924
-9.679101 -1.7206347 -0.50428885 0.96139002
-9.7000389 -1.598877 -0.50429422 0.96138972
-9.7373438 -1.3546289 -0.50430363 0.96138901
-9.7537107 -1.2321777 -0.50430775 0.96138853
-9.7933979 -0.86370116 -0.5043177 0.96138787
-9.8035154 -0.74057615 -0.5043202 0.96138769
-9.8120899 -0.61732423 -0.50432229 0.96138757
-9.8191013 -0.49398437 -0.50432402 0.96138746
-9.8245697 -0.37054688 -0.50432533 0.96138728
-9.828476 -0.24705078 -0.50432622 0.96138722
-9.830781 -0.12352539 -0.50432664 0.96138728
-9.3233204 0.11716796 -0.50419426 0.9633382
-9.3210745 0.23431639 -0.50419354 0.96333838
-9.3121872 0.46848631 -0.50419098 0.96333855
-9.3055468 0.58545899 -0.50418907 0.96333867
-9.2766991 0.93574214 -0.50418127 0.96333933
-9.2641792 1.0522559 -0.50417787 0.96333939
-9.2346287 1.284707 -0.50416988 0.9633401
-9.0853901 2.0908399 -0.50413018 0.96334279
-8.9354687 2.6569922 -0.50409049 0.96334565
-8.8655272 2.8805761 -0.50407207 0.96334708
-8.8284569 2.991709 -0.50406229 0.96334773
-1.7292968 0.70994139 -0.10108585 0.99253964
-1.5592773 0.70995116 -0.092646331 0.99316031
-1.4607812 0.70996094 -0.087826572 0.99351496
-1.4152734 0.70996094 -0.085619353 0.99367738
-1.2914063 0.70995116 -0.07968872 0.99411404
-1.253828 0.70994139 -0.077913895 0.99424475
-1.0882226 0.70996094 -0.070261113 0.99480861
-1.0306835 0.70995116 -0.067675516 0.99499911
-1.0301563 0.72883785 -0.068235889 0.99495775
-1.0298437 0.76820308 -0.069476776 0.99486649
-1.0294532 0.83009762 -0.071510658 0.99471653
-1.0293359 0.85153317 -0.072238199 0.99466288
-1.0288671 0.91862303 -0.074584082 0.99449003
-5.1291013 5.3261914 -0.39984533 0.97081387
-5.0615234 5.3899803 -0.39982769 0.97081524
-4.8541017 5.5761814 -0.39977348 0.97081912
-4.7834764 5.6364746 -0.39975497 0.97082031
-4.7120314 5.695869 -0.39973634 0.97082174
-4.6398435 5.7543454 -0.39971748 0.97082317
-4.5669923 5.8119335 -0.39969844 0.97082442
-4.4933591 5.8685741 -0.39967921 0.97082585
-4.4190626 5.9242868 -0.39965978 0.97082722
-4.3440428 5.9790626 -0.3996402 0.97082865
-4.1919923 6.085742 -0.39960048 0.97083151
-4.1149802 6.1376071 -0.39958039 0.970833
-3.9590623 6.2384472 -0.39953962 0.97083586
-3.8801367 6.2873731 -0.39951903 0.97083741
-3.5585742 6.4730468 -0.3994351 0.97084343
-3.4767578 6.5168848 -0.39941373 0.97084504
-3.3944139 6.5597363 -0.39939225 0.97084647
-3.3115625 6.6014938 -0.39937061 0.97084802
-3.2281444 6.6422362 -0.39934886 0.97084963
-3.1442578 6.6819139 -0.39932695 0.97085118
-2.7177734 6.8642478 -0.3992157 0.97085911
-2.6311328 6.8974705 -0.39919308 0.97086072
-2.4566796 6.9605956 -0.39914757 0.97086412
-2.2807226 7.0193357 -0.3991017 0.9708674
-2.1922264 7.0470114 -0.39907858 0.97086912
-2.1033592 7.0736227 -0.39905542 0.97087067
-1.9247265 7.1234078 -0.39900887 0.97087401
-1.8349414 7.1466112 -0.39898545 0.97087574
-1.7448828 7.1687012 -0.39896193 0.97087735
-1.6545898 7.1896091 -0.39893845 0.97087914
-1.4732031 7.2280369 -0.39889112 0.97088265
-1.290918 7.2619433 -0.39884362 0.97088593
-1.1995312 7.2771583 -0.3988198 0.97088766
-1.1079297 7.2912302 -0.39879593 0.97088933
-1.0161328 7.304111 -0.398772 0.97089118
-0.74000001 7.3359275 -0.39870003 0.97089618
-0.55531251 7.3512988 -0.39865196 0.97089976
-0.46289062 7.3572459 -0.39862785 0.97090149
-0.37039062 7.3620605 -0.39860374 0.97090316
-0.18521483 7.3681345 -0.39855552 0.97090667
0.18515624 7.3663278 -0.39845905 0.97091371
0.3701953 7.3584762 -0.39841086 0.97091711
0.46257812 7.3528123 -0.39838681 0.97091877
0.55490232 7.3459764 -0.39836276 0.9709205
0.83124995 7.3185153 -0.39829084 0.97092569
1.379668 7.2325191 -0.39814806 0.97093594
1.4996874 7.3581834 -0.4060716 0.97036624
1.5607812 7.1947165 -0.39810097 0.97093934
1.6609765 7.2175097 -0.40048632 0.97076786
2.4173045 8.9464941 -0.50112689 0.96355718
2.5294139 8.9148827 -0.50109774 0.96355933
2.6410351 8.8818941 -0.50106865 0.96356136
2.7523046 8.8474998 -0.50103974 0.96356338
2.863086 8.8116894 -0.50101089 0.96356553
2.9734375 8.7745018 -0.50098222 0.96356761
3.1926172 8.6960249 -0.50092518 0.96357167
3.9426951 8.3786621 -0.50073022 0.96358562
4.047461 8.3280077 -0.50070298 0.96358752
4.1515427 8.2760544 -0.50067592 0.96358943
4.3577733 8.1682425 -0.50062233 0.96359318
4.4598045 8.1123924 -0.50059581 0.96359521
4.5611911 8.0552826 -0.50056946 0.963597
4.6617966 7.9969039 -0.5005433 0.96359897
4.7616601 7.9372849 -0.50051737 0.96360081
4.8607812 7.8764257 -0.50049162 0.9636026
5.438652 7.4856639 -0.50034153 0.96361327
5.7160935 7.2743163 -0.50026947 0.96361846
5.896543 7.1277051 -0.50022262 0.9636218
6.0732422 6.9766307 -0.50017679 0.96362507
6.4149609 6.6614647 -0.5000881 0.96363151
6.5797262 6.4976172 -0.50004536 0.96363461
6.660625 6.4141407 -0.50002438 0.96363604
6.8191795 6.2442479 -0.49998328 0.96363878
6.8967967 6.1578026 -0.49996313 0.96364033
7.1231637 5.8927927 -0.49990448 0.9636445
7.3393946 5.6195016 -0.49984846 0.96364844
1.2586328 0.93883789 -0.084908828 0.99372971
1.2589452 0.89070308 -0.083392292 0.99384135
1.2590625 0.86727536 -0.082673378 0.99389434
1.2592187 0.84424806 -0.081979215 0.99394536
1.259375 0.82160157 -0.081309356 0.99399459
1.2598437 0.73440427 -0.078855515 0.99417543
1.4152734 0.70994139 -0.085619465 0.99367738
1.5087304 0.70994139 -0.090164945 0.99334282
1.5592968 0.70996094 -0.092646368 0.99316025
1.7293359 0.70995116 -0.10108612 0.99253947
1.7931249 0.70994139 -0.10428661 0.99230427
1.9337695 0.70994139 -0.11139168 0.99178201
2.0241406 0.71439451 -0.11607151 0.99143827
8.8196869 2.7436621 -0.49946597 0.9636758
8.8855467 2.5210643 -0.49944904 0.96367705
8.9458199 2.2969043 -0.49943358 0.96367812
8.9738283 2.1842773 -0.49942642 0.96367872
9.0004683 2.0712988 -0.49941957 0.96367913
9.0718164 1.7305468 -0.49940139 0.96368039
9.130312 1.3873438 -0.49938652 0.96368152
9.1469336 1.2724999 -0.49938232 0.96368188
9.1758986 1.042207 -0.49937499 0.96368235
9.2164841 0.57986325 -0.49936491 0.96368307
9.2230463 0.46398437 -0.4993633 0.96368307
9.2317381 0.23206054 -0.49936134 0.96368331
9.2339058 -0.11604492 -0.4993611 0.96368337
9.2317572 -0.23208007 -0.49936178 0.96368319
9.2281246 -0.34805664 -0.49936286 0.96368313
9.2164841 -0.57985348 -0.49936613 0.96368307
9.188262 -0.92683589 -0.49937388 0.96368235
9.1759768 -1.0422363 -0.49937719 0.96368206
9.0718746 -1.7305664 -0.49940506 0.96368015
9.0005856 -2.0713184 -0.49942398 0.96367866
8.9164648 -2.4091992 -0.49944624 0.96367729
8.8533983 -2.6325977 -0.49946287 0.9636761
8.8198042 -2.7436914 -0.49947175 0.96367538
2.024121 -0.68592775 -0.11556812 0.99147528
2.0241015 -0.71439451 -0.1160712 0.99143845
1.9337499 -0.70996094 -0.11139087 0.99178207
1.8611327 -0.70995116 -0.10771263 0.99205232
1.6692578 -0.70995116 -0.098090589 0.99275988
1.5592577 -0.70995116 -0.092645682 0.99316037
1.5087109 -0.70995116 -0.090164259 0.99334288
1.4152539 -0.70995116 -0.085618973 0.99367744
1.2913867 -0.70995116 -0.07968834 0.9941141
1.2599413 -0.71342772 -0.078295246 0.99421668
1.2597265 -0.75572264 -0.07943657 0.99413258
1.2596093 -0.77733397 -0.080038719 0.99408829
1.2594922 -0.79928708 -0.080662765 0.99404228
1.2592187 -0.84422851 -0.08197929 0.99394542
1.2590625 -0.86727536 -0.082673296 0.99389434
1.2589258 -0.89072263 -0.083392255 0.99384135
1.2586328 -0.93884766 -0.084908903 0.99372971
6.0408983 -4.6253319 -0.41141662 0.96998215
5.8892965 -4.6277733 -0.40502083 0.97044188
5.7422853 -4.630127 -0.39887789 0.97088343
5.6598239 -4.6822166 -0.39720705 0.97100365
5.6007614 -4.7531543 -0.39722252 0.97100252
5.48 -4.8927927 -0.39725414 0.97100019
5.4182811 -4.9614649 -0.39727026 0.97099912
5.355742 -5.0293651 -0.39728662 0.97099793
5.2923436 -5.0964746 -0.39730322 0.97099674
5.2281055 -5.1628122 -0.39732 0.97099549
5.1630077 -5.2283106 -0.39733702 0.97099435
4.8256054 -5.5434275 -0.39742523 0.97098798
4.6852145 -5.6634569 -0.39746195 0.97098535
4.395586 -5.8928223 -0.39753762 0.97097993
4.3214064 -5.9478903 -0.39755699 0.9709785
4.2465234 -6.0020213 -0.3975766 0.97097707
4.1709766 -6.0552244 -0.3975963 0.97097564
4.0947657 -6.107451 -0.39761618 0.97097421
4.0178905 -6.15874 -0.39763626 0.97097278
3.9403906 -6.2090526 -0.39765656 0.97097135
3.7041404 -6.3541403 -0.39771819 0.97096688
3.6241796 -6.4005175 -0.39773908 0.97096545
3.3809373 -6.5336132 -0.39780256 0.9709608
3.1327538 -6.6574802 -0.39786735 0.97095621
3.0490625 -6.6966991 -0.3978892 0.97095454
2.9648046 -6.7348533 -0.39791119 0.97095299
2.8800781 -6.7719431 -0.39793327 0.9709515
2.794961 -6.8080077 -0.39795551 0.97094971
2.5367968 -6.9096484 -0.39802283 0.970945
2.4498827 -6.9413671 -0.39804548 0.97094345
2.274961 -7.0015621 -0.39809117 0.97094005
2.1868749 -7.0299902 -0.39811409 0.9709385
2.0985155 -7.057363 -0.39813715 0.97093666
2.0097852 -7.0835547 -0.39816028 0.97093511
1.5615039 -7.1978807 -0.39827719 0.9709267
1.4710156 -7.2173824 -0.39830077 0.97092497
1.198164 -7.2689743 -0.39837188 0.97091991
1.0152344 -7.2976851 -0.39841956 0.97091639
0.92351562 -7.3102927 -0.39844349 0.97091472
0.73958981 -7.3320704 -0.39849135 0.97091126
0.64746094 -7.3412399 -0.39851537 0.97090948
0.46281248 -7.3560543 -0.39856353 0.97090614
0.37035155 -7.3617477 -0.39858761 0.97090435
0.27781248 -7.3662696 -0.39861166 0.97090262
0.092656247 -7.3718262 -0.39865991 0.97089911
-0.092636719 -7.372695 -0.39870819 0.97089571
-0.55558592 -7.3545508 -0.39882872 0.97088706
-0.74029297 -7.33916 -0.39887688 0.97088361
-1.1083984 -7.2944431 -0.39897266 0.97087669
-1.2915235 -7.2651563 -0.39902034 0.97087324
-1.3827734 -7.2487888 -0.3990441 0.97087151
-1.4738476 -7.2312598 -0.39906779 0.97086984
-1.745664 -7.1718454 -0.39913851 0.97086477
-2.1042969 -7.0767384 -0.39923182 0.97085804
-2.3699219 -6.9936132 -0.39930096 0.97085303
-2.6322656 -6.9004979 -0.39936915 0.9708482
-2.7189453 -6.8672361 -0.39939171 0.97084659
-2.8909764 -6.7975488 -0.39943644 0.97084326
-2.9763281 -6.7610545 -0.39945865 0.97084165
-3.06125 -6.723496 -0.3994807 0.97084004
-3.6414452 -6.4309669 -0.3996315 0.97082931
-3.722168 -6.3850389 -0.39965248 0.97082776
-3.8818359 -6.2901464 -0.39969397 0.97082478
-3.9607615 -6.2411718 -0.39971447 0.97082341
-4.1938281 -6.0883884 -0.399775 0.970819
-4.2702146 -6.0354881 -0.39979485 0.97081763
-4.3459373 -5.9816504 -0.39981452 0.9708162
-4.4209766 -5.9268746 -0.39983398 0.9708147
-4.4953318 -5.8711329 -0.39985329 0.97081333
-4.6418748 -5.7568455 -0.39989135 0.97081065
-4.7855272 -5.638906 -0.39992866 0.97080797
-4.8562107 -5.5785837 -0.39994696 0.97080672
-4.9261718 -5.5173731 -0.39996514 0.97080535
-4.9953513 -5.4552732 -0.39998308 0.97080404
-5.1313281 -5.3284864 -0.40001836 0.97080147
-5.391367 -5.0628223 -0.39992905 0.97080785
-1.028711 -0.9419629 -0.075424194 0.9944281
-1.0288281 -0.91861326 -0.07458397 0.99449015
-1.0293554 -0.85153317 -0.072238274 0.99466282
-1.0296093 -0.80905271 -0.070808485 0.99476826
-1.0298828 -0.76820308 -0.069476619 0.99486637
-1.03 -0.74833006 -0.068845287 0.99491298
-1.0301172 -0.72882813 -0.068235815 0.99495786
-1.0882226 -0.70993161 -0.070260733 0.99480867
-1.1187109 -0.70995116 -0.07164631 0.99470645
-1.1504296 -0.70994139 -0.073099442 0.99459934
-1.2178515 -0.70994139 -0.076227799 0.99436897
-1.2537891 -0.70993161 -0.077913664 0.99424487
-1.3307421 -0.70994139 -0.081558876 0.99397629
-1.4152734 -0.70994139 -0.085619047 0.99367738
-1.4607812 -0.70994139 -0.087826118 0.99351496
-1.6692969 -0.70995116 -0.098090626 0.99275976
-1.7293164 -0.70995116 -0.10108536 0.99253953
-8.8285933 -2.9917576 -0.50406867 0.9633472
-8.8656244 -2.8806152 -0.50407821 0.96334666
-8.935586 -2.6570117 -0.50409621 0.96334517
-8.9683981 -2.5445604 -0.50410461 0.96334463
-8.9998045 -2.4317088 -0.50411266 0.9633441
-9.0298042 -2.3184569 -0.50412041 0.9633435
-9.0582809 -2.2048144 -0.50412768 0.96334326
-9.0854492 -2.0908594 -0.5041346 0.96334255
-9.1111326 -1.9765625 -0.50414121 0.96334207
-9.158144 -1.7470312 -0.50415319 0.96334118
-9.234726 -1.2847167 -0.50417268 0.96333975
-9.2641993 -1.0522363 -0.50418007 0.96333933
-9.2974606 -0.70234376 -0.50418836 0.96333861
-9.3173828 -0.35142577 -0.50419319 0.96333843
-8.8654881 0.11142578 -0.50407499 0.96510148
-8.8633785 0.22281249 -0.50407434 0.96510154
-8.8598824 0.33416015 -0.50407326 0.96510148
-8.8408785 0.66785157 -0.50406796 0.96510196
-8.8212109 0.88980466 -0.50406265 0.96510231
-8.8092966 1.0005761 -0.50405937 0.96510243
-8.7812109 1.2216308 -0.50405186 0.96510303
-8.7650776 1.3318652 -0.50404751 0.96510339
-8.708437 1.6612304 -0.50403243 0.96510428
-8.686758 1.770498 -0.50402665 0.9651047
-8.6637106 1.8794824 -0.50402057 0.96510518
-8.5578909 2.3123047 -0.5039925 0.96510696
-8.4303122 2.7391894 -0.50395882 0.96510935
-8.3585157 2.9500487 -0.50393993 0.9651106
-1.7885938 0.65666014 -0.10832447 0.99239546
-1.7292968 0.70994139 -0.10628071 0.99253851
-1.5087304 0.70994139 -0.094798394 0.9933418
-1.4152734 0.70996094 -0.090019532 0.99367636
-1.3719921 0.70995116 -0.087826118 0.99382997
-1.2914063 0.70995116 -0.083783798 0.99411315
-1.253828 0.70994139 -0.081917644 0.99424386
-1.1834375 0.70996094 -0.078460269 0.99448609
-1.0882226 0.70996094 -0.073871724 0.99480778
-1.0589062 0.70994139 -0.072481424 0.99490529
-1.0293164 0.74782223 -0.072334476 0.9949156
-1.0291797 0.76767576 -0.072997548 0.99486911
-1.0290234 0.78790039 -0.07368435 0.99482101
-1.0287499 0.8295117 -0.075133093 0.99471939
-1.0285938 0.85093749 -0.075896949 0.99466586
-1.0284375 0.87279296 -0.076688647 0.99461037
-1.0282617 0.89512694 -0.077508964 0.99455291
-1.0281249 0.91793942 -0.078359716 0.99449319
-1.0279297 0.94126952 -0.079241633 0.99443144
-5.1267576 4.8143554 -0.3998453 0.97221625
-5.0656638 4.8781834 -0.39982933 0.97221738
-4.9410934 5.0035253 -0.39979675 0.97221959
-4.8133397 5.1257129 -0.39976332 0.97222191
-4.7483592 5.185586 -0.39974636 0.97222304
-4.6826367 5.2446094 -0.39972916 0.97222418
-4.6161718 5.3028026 -0.39971179 0.97222537
-4.4124217 5.4722753 -0.39965853 0.97222912
-4.3431249 5.5270309 -0.39964041 0.97223032
-4.2024608 5.6339355 -0.39960369 0.97223282
-3.9133594 5.8368554 -0.39952818 0.97223794
-3.8394921 5.885293 -0.39950889 0.97223932
-3.765039 5.9327927 -0.39948943 0.97224069
-3.6900389 5.9793458 -0.39946985 0.97224194
-3.614414 6.0249414 -0.39945009 0.97224331
-3.5382421 6.0695701 -0.39943022 0.97224474
-3.4615428 6.1132421 -0.39941019 0.97224605
-3.3064842 6.1976757 -0.39936972 0.97224885
-3.228164 6.2384176 -0.39934927 0.97225028
-3.1493359 6.2781739 -0.39932871 0.97225165
-2.9100389 6.3914061 -0.39926627 0.97225595
-2.8293359 6.4271483 -0.3992452 0.97225732
-2.748203 6.4618258 -0.39922404 0.97225887
-2.6666405 6.4955077 -0.39920276 0.97226036
-2.3364062 6.619873 -0.39911664 0.9722662
-2.2529297 6.6483297 -0.39909485 0.97226769
-2.1691015 6.6757517 -0.39907297 0.97226918
-2.0849218 6.7021189 -0.39905101 0.97227067
-1.915625 6.7516503 -0.39900687 0.97227371
-1.8305273 6.7748046 -0.39898467 0.97227526
-1.7451562 6.7969041 -0.39896244 0.97227675
-1.6595312 6.8179002 -0.39894012 0.9722783
-1.4874804 6.856699 -0.39889526 0.97228134
-1.4011328 6.8744531 -0.39887276 0.97228289
-1.3145508 6.8911328 -0.39885017 0.97228444
-1.1408594 6.9212012 -0.39880487 0.97228754
-1.0537109 6.9345994 -0.39878219 0.97228909
-0.35228515 7.0020995 -0.39859942 0.97230172
-0.26421875 7.0056052 -0.3985765 0.97230315
-0.088085935 7.0092282 -0.3985306 0.97230631
0 7.0093846 -0.39850768 0.97230786
0.088066407 7.0083981 -0.39848471 0.97230953
0.35210937 6.9989061 -0.39841598 0.97231418
0.44 6.993535 -0.39839309 0.97231573
0.52781248 6.987041 -0.39837021 0.97231734
0.61550778 6.9794431 -0.39834738 0.97231895
0.70316404 6.9707713 -0.39832458 0.97232044
0.87800777 6.9501171 -0.39827904 0.97232354
1.1391211 6.9109082 -0.39821106 0.97232819
1.4888476 6.8630271 -0.39926445 0.97225612
1.6373438 7.1146874 -0.41506949 0.97117382
2.2992969 8.5097456 -0.50115812 0.96529979
2.4059179 8.4797068 -0.50113034 0.96530169
2.6179688 8.4156542 -0.50107521 0.96530539
2.7233593 8.3816109 -0.50104779 0.96530735
2.8282812 8.3462791 -0.50102049 0.9653092
2.9328125 8.3096285 -0.50099331 0.96531105
3.1403515 8.2324018 -0.50093931 0.96531481
3.2433789 8.1918459 -0.50091255 0.96531659
3.4478319 8.1068945 -0.50085938 0.96532023
3.5492773 8.0625 -0.50083297 0.96532202
3.6501172 8.0168848 -0.50080681 0.96532369
3.7503514 7.9699411 -0.50078076 0.96532559
3.8499999 7.9217672 -0.50075483 0.96532738
3.9490623 7.8723631 -0.50072908 0.96532905
4.1452537 7.7698631 -0.50067806 0.96533245
4.2423434 7.7167478 -0.50065285 0.96533424
4.434453 7.6069531 -0.50060296 0.96533763
4.5294919 7.5502634 -0.50057828 0.96533924
4.6237497 7.4923534 -0.50055379 0.96534109
4.8101172 7.3731151 -0.50050539 0.96534425
4.9021678 7.3117285 -0.50048143 0.96534586
4.9934373 7.2492089 -0.50045776 0.96534747
5.0838866 7.185576 -0.50043428 0.96534902
5.3503513 6.9878612 -0.50036508 0.96535385
5.5237498 6.8505564 -0.50032002 0.96535701
5.6091404 6.7803221 -0.50029784 0.9653585
5.6936717 6.7090135 -0.50027597 0.96535993
5.859961 6.563242 -0.50023276 0.96536285
5.9417186 6.4888182 -0.50021154 0.96536428
6.0225391 6.4133692 -0.50019056 0.96536571
6.1813083 6.2594824 -0.50014943 0.96536851
6.2592187 6.1810741 -0.50012916 0.96536988
6.3361325 6.1016603 -0.50010926 0.96537131
6.6336718 5.7747169 -0.50003213 0.96537656
6.914453 5.43332 -0.49995932 0.9653815
6.9819531 5.34583 -0.49994186 0.96538258
1.2579297 0.91394532 -0.088401295 0.99378973
1.2582421 0.86668944 -0.086864352 0.99389744
1.2585547 0.82104492 -0.085432202 0.99399763
1.2586719 0.79877931 -0.084753148 0.9940452
1.2587891 0.77683592 -0.084097788 0.99409115
1.2589062 0.75523436 -0.083465651 0.9941355
1.3307421 0.70996094 -0.085750885 0.99397534
1.3719921 0.70995116 -0.087826081 0.99382997
1.4608203 0.70994139 -0.092339858 0.99351382
1.5087304 0.70994139 -0.094798662 0.9933418
1.5592968 0.70996094 -0.09740749 0.99315917
1.6127148 0.70996094 -0.10018001 0.99296522
1.7293164 0.70995116 -0.10628082 0.99253839
2.0240428 0.71437496 -0.12203193 0.99143738
2.0240624 0.68587887 -0.1215031 0.99147427
2.0240624 0.65765625 -0.12099769 0.99150962
8.3904686 2.610127 -0.49957788 0.96540743
8.5105076 2.1851366 -0.49954706 0.96540946
8.586484 1.8627441 -0.49952766 0.96541077
8.6091013 1.7546582 -0.49952185 0.96541125
8.6688671 1.428916 -0.49950662 0.9654122
8.7163477 1.1011132 -0.49949461 0.96541303
8.7294331 0.99152344 -0.49949133 0.96541327
8.7411718 0.88172847 -0.49948841 0.96541339
8.7515039 0.7718066 -0.49948582 0.96541363
8.7680464 0.55163085 -0.49948174 0.96541399
8.7742968 0.44142577 -0.49948025 0.96541393
8.7791014 0.3311035 -0.49947909 0.96541411
8.7825775 0.22078125 -0.49947828 0.96541411
