# .PCD v0.7 - Point Cloud Data file format
VERSION 0.7
FIELDS x y z intensity
SIZE 4 4 4 4
TYPE F F F F
COUNT 1 1 1 1
WIDTH 1088
HEIGHT 1
VIEWPOINT 0 0 0 1 0 0 0
POINTS 1088
DATA ascii
10.991679 10.06496 0.51631492 0.94209367
1.3085938 0.95074219 0.056036185 0.99354702
1.3082616 0.9255957 0.05551891 0.99360633
1.3079296 0.90091795 0.055019911 0.99366361
1.3073046 0.85285157 0.054074515 0.99377215
1.3066992 0.80639648 0.053194806 0.99387318
1.3064452 0.78372067 0.052778397 0.99392092
1.3058984 0.73942381 0.051989783 0.99401158
1.3307617 0.70995116 0.052251928 0.99398136
1.4607812 0.70994139 0.056266859 0.99352056
1.5087304 0.70994139 0.057764929 0.99334854
1.5593164 0.70995116 0.059354667 0.99316603
1.6693164 0.70995116 0.062843286 0.9927659
1.793164 0.70994139 0.066812284 0.9923107
1.9550781 0.71777344 0.072150461 0.99169898
1.9553515 0.69012696 0.071834944 0.9917351
1.9556249 0.66269529 0.071533129 0.99176967
1.9556445 -0.66270506 0.071533203 0.99176961
1.9553515 -0.69011718 0.071834981 0.9917351
1.8611327 -0.70995116 0.069007188 0.99205911
1.7931445 -0.70996094 0.066811442 0.99231076
1.5592968 -0.70995116 0.059354361 0.99316609
1.5087109 -0.70996094 0.057764702 0.9933486
1.4152734 -0.70995116 0.054852523 0.9936828
1.3056445 -0.71778321 0.05161659 0.99405444
1.3064258 -0.78374022 0.052778281 0.99392098
1.3066992 -0.80641598 0.053194769 0.99387318
1.3069922 -0.82944334 0.053626709 0.99382359
1.3079296 -0.90092772 0.055019911 0.99366361
1.3082616 -0.92561519 0.055518799 0.99360633
11.937578 -9.1401758 0.52085888 0.94159907
11.32418 -9.1309271 0.50395197 0.9434402
9.4199018 -8.4105463 0.43748423 0.95071286
9.181426 -8.407383 0.43128306 0.95139432
8.3360739 -9.1035833 0.42762417 0.95179635
1.953125e-05 -8.9799805 0.31109661 0.96469676
-1.4757031 -8.9529781 0.3143481 0.96433467
-1.5952344 -8.9737692 0.31575587 0.96417767
-2.06375 -8.9675388 0.31878772 0.96384013
-2.5831249 -8.6870308 0.31397113 0.96437645
-3.5426953 -8.9478321 0.33339328 0.96221471
-3.6524413 -8.896719 0.33315021 0.96223927
-3.6608593 -8.0405178 0.30605564 0.96525788
-5.5348239 -11.388359 0.43865824 0.95058393
-5.5299997 -11.023867 0.42725825 0.95183635
-5.5253711 -10.677753 0.41650355 0.95301992
-5.1473632 -8.829834 0.35407862 0.95991832
-5.2289844 -8.4729395 0.34493014 0.96093345
-5.3760939 -8.4713087 0.34758732 0.96063864
-8.3680468 -8.4737988 0.41257426 0.95345271
-8.5819139 -8.4746675 0.41783497 0.95287341
-8.8013668 -8.4755764 0.42330188 0.952272
-9.0267181 -8.4765921 0.42898303 0.9516471
-9.2561331 -8.4756832 0.43479082 0.95100892
-1.0721874 -0.93338865 0.049247436 0.99432653
-1.0718163 -0.90962887 0.048701666 0.9943893
-1.0711523 -0.86371094 0.0476688 0.99450785
-1.0705078 -0.81964844 0.046708524 0.99461824
-1.0699219 -0.77734375 0.045815427 0.99472082
-1.0693555 -0.73662108 0.044984434 0.9948163
-1.1834179 -0.70996094 0.047809485 0.99449176
-1.2178515 -0.70995116 0.04883625 0.9943738
-1.2913672 -0.70996094 0.0510532 0.99411917
-1.3307226 -0.70994139 0.052251738 0.99398154
-1.3719531 -0.70996094 0.053516388 0.99383628
-1.4152734 -0.70996094 0.05485256 0.9936828
-1.4607812 -0.70997071 0.056266479 0.9935205
-1.5087109 -0.70996094 0.057764586 0.9933486
-1.5592577 -0.70995116 0.059354667 0.99316627
-1.6126952 -0.70994139 0.061044119 0.99297237
-1.6692969 -0.70994139 0.062842786 0.99276596
-1.7430469 -0.69013673 0.064946055 0.9925248
-1.7433202 -0.66501951 0.064639702 0.99255991
-1.7475781 0.69190431 0.059902303 0.99250615
-1.5592577 0.70994139 0.054602928 0.99316686
-1.4607812 0.70995116 0.051762465 0.99352109
-1.4152734 0.70993161 0.050461616 0.9936834
-1.3307421 0.70994139 0.048068695 0.99398202
-1.2537891 0.70993161 0.045920182 0.99425036
-1.2178515 0.70994139 0.044926681 0.99437433
-1.1834375 0.70993161 0.043981969 0.99449223
-1.1503906 0.70994139 0.043082923 0.99460459
-1.1186913 0.70994139 0.042226601 0.99471158
-1.0882031 0.70993161 0.04140972 0.99481362
-1.0673828 0.77550781 0.042048566 0.99473381
-1.0676563 0.79638672 0.042449836 0.99468362
-1.0679296 0.81768554 0.042866249 0.99463165
-1.0685157 0.86156249 0.043745115 0.99452192
-1.0691601 0.90735352 0.044690818 0.99440372
-7.9364452 7.6427832 0.35114482 0.95686311
-7.7371483 7.6405468 0.34654942 0.9574157
-6.8126755 7.6302929 0.32599887 0.95988953
-6.6405859 7.6283884 0.32232493 0.96033233
-6.4723043 7.6265135 0.31878519 0.96075946
-6.1464844 7.6229196 0.31207675 0.96156907
-5.9886327 7.6211524 0.30889934 0.96195275
-5.8339062 7.619453 0.30583394 0.96232313
-5.3873048 7.6144824 0.29726878 0.96335894
-5.2439256 7.6128902 0.29461032 0.96368051
-5.1030078 7.6113281 0.29204464 0.96399099
-4.9644918 7.6098046 0.2895692 0.96429074
-5.0269532 9.4225779 0.34036076 0.95816016
-5.0395703 9.738965 0.34947804 0.95706427
-5.006289 10.995518 0.3850345 0.95279944
-4.9893942 11.731552 0.4062939 0.95025992
-4.9722657 13.034814 0.44461522 0.94569778
1.6625781 16.481993 0.52794528 0.93585366
11.635976 15.599453 0.62022716 0.92507136
1.3055469 0.94850582 0.051428907 0.99356264
1.3052148 0.92343748 0.050955199 0.99362177
1.3049023 0.89882809 0.050498236 0.99367881
1.304336 0.85091794 0.04963249 0.99378681
1.3040625 0.82756835 0.049222372 0.99383795
1.3032812 0.75974607 0.048077621 0.99398088
1.302832 0.71622068 0.04738136 0.99406773
1.3307617 0.70995116 0.048068658 0.99398196
1.3719921 0.70995116 0.049232293 0.99383676
1.415293 0.70994139 0.050461575 0.99368334
1.4607812 0.70994139 0.051762238 0.99352115
1.793164 0.70994139 0.061463393 0.99231142
1.8611718 0.70995116 0.063483119 0.99205971
1.960039 0.71960938 0.066543154 0.99167871
1.9603125 0.69186521 0.066251375 0.99171501
1.9605469 0.66434568 0.065972328 0.99174982
1.9602929 -0.69185543 0.066251412 0.99171507
1.960039 -0.71960938 0.06654308 0.99167871
1.8611327 -0.70995116 0.063482814 0.99205989
1.7293164 -0.70995116 0.059576605 0.99254662
1.6692969 -0.70995116 0.057811849 0.99276662
1.5592968 -0.70995116 0.054602623 0.99316674
1.5087109 -0.70996094 0.053140067 0.99334919
1.3719921 -0.70995116 0.049231946 0.99383676
1.3307421 -0.70995116 0.048068427 0.99398202
1.3032812 -0.75975585 0.048077468 0.99398088
1.3035351 -0.78201169 0.048445396 0.99393493
1.303789 -0.80458981 0.048826676 0.99388736
1.3040429 -0.82757813 0.04922222 0.99383801
1.3046093 -0.87468749 0.050057486 0.99373376
1.3049219 -0.89883786 0.05049812 0.99367875
1.3051953 -0.92345703 0.050955277 0.99362183
9.4199219 -8.4105368 0.40245998 0.95071727
9.0169134 -8.4674511 0.39421198 0.95170254
8.3341799 -9.1015425 0.39330333 0.95181131
2.8062499 -9.0209179 0.30108166 0.9628973
1.953125e-05 -8.9799805 0.2861931 0.96469992
-0.3858203 -7.6691599 0.24472636 0.96973634
-1.5952344 -8.9737692 0.29047695 0.96418089
-1.711543 -8.9722261 0.29110071 0.96410543
-1.8283789 -8.970664 0.29177174 0.96402413
-1.9457421 -8.969101 0.29249454 0.96393681
-2.0637305 -8.9675388 0.29326549 0.96384341
-2.421699 -8.9627533 0.2958855 0.96352631
-2.5454297 -8.9714842 0.29719767 0.96336651
-2.5867577 -8.6992092 0.28924006 0.96433061
-2.7866015 -8.9578905 0.29898182 0.96315175
-3.0344141 -8.9545898 0.30132213 0.96286869
-3.4139061 -8.9495306 0.3052685 0.96239173
-3.6524413 -8.896699 0.3064439 0.96224272
-5.5209961 -10.348545 0.3738094 0.95414412
-5.1473632 -8.829814 0.32573131 0.95992202
-5.3761325 -8.4713087 0.31975925 0.96064216
-5.5255466 -8.4696579 0.32229313 0.96033669
-5.6774607 -8.4679785 0.32491863 0.96002001
-5.8318357 -8.46626 0.32763773 0.95969218
-6.3112302 -8.4609375 0.33640546 0.95863628
-6.8177733 -8.4553318 0.34616083 0.95746267
-7.9373045 -8.4522753 0.36952838 0.95465702
-8.3478518 -8.4533396 0.37862927 0.95356661
-8.5609179 -8.4539356 0.38344523 0.95299017
-8.7795706 -8.4545994 0.38844815 0.95239156
-9.234746 -8.4560738 0.39905757 0.95112377
-9.4718752 -8.4569044 0.40468121 0.95045239
-1.0694922 -0.93103516 0.045190047 0.99434131
-1.0685157 -0.86160153 0.043745305 0.9945218
-1.0682031 -0.83943355 0.043297768 0.99457771
-1.0679296 -0.81770504 0.042866249 0.99463159
-1.0676563 -0.79639649 0.042450063 0.99468362
-1.0668945 -0.73490232 0.041287534 0.99482876
-1.0666211 -0.71513671 0.040927276 0.99487388
-1.0882226 -0.70995116 0.041409645 0.99481356
-1.1186719 -0.70995116 0.04222637 0.99471158
-1.1834179 -0.70996094 0.043982048 0.99449223
-1.3307226 -0.70994139 0.048068542 0.99398208
-1.3719921 -0.70996094 0.049231641 0.99383676
-1.4607812 -0.70997071 0.051762007 0.99352109
-1.5592577 -0.70995116 0.05460285 0.99316686
-1.6692969 -0.70994139 0.057811737 0.99276662
-1.7473047 -0.71735352 0.060197257 0.99246937
-1.7521484 0.6937207 0.054833107 0.99248725
-1.751914 0.71923828 0.055104062 0.99245024
-1.6127148 0.70993161 0.051271096 0.99297357
-1.5592577 0.70994139 0.049852181 0.99316746
-1.253828 0.70993161 0.041924667 0.99425071
-1.2178515 0.70994139 0.041017912 0.99437481
-1.1834375 0.70993161 0.040155295 0.99449271
-1.1187109 0.70994139 0.038552511 0.99471194
-1.0641992 0.71349609 0.037280999 0.99488598
-1.0644336 0.73321289 0.037608452 0.99484104
-1.0646484 0.75324219 0.037947766 0.99479473
-1.0648828 0.77368164 0.038299866 0.99474657
-1.0651367 0.79449219 0.038664587 0.99469662
-1.0664843 0.90507811 0.040700722 0.9944182
-1.0667969 0.92866206 0.041154213 0.9943561
-8.3514843 7.6473532 0.32948956 0.95569682
-7.7371874 7.6405468 0.3163963 0.9574191
-7.3536716 7.6363082 0.30846712 0.95846373
-7.1690235 7.6342578 0.30472249 0.95895761
-6.9887304 7.6322556 0.30111238 0.95943379
-6.1464844 7.6229 0.28492314 0.96157229
-5.8339062 7.6194434 0.27922565 0.96232629
-5.6822267 7.6177731 0.27652407 0.96268362
-5.5333982 7.6161132 0.27391872 0.96302879
-5.1030078 7.6113281 0.26663509 0.96399397
-4.9625974 7.8198242 0.26948321 0.96361637
-4.9814062 12.581689 0.3937389 0.94728941
-4.9589453 14.050351 0.43353945 0.94211835
1.243418 16.45997 0.48030177 0.93607897
11.644921 15.611435 0.56669831 0.92502213
11.814414 15.430243 0.56546593 0.92517895
1.3024609 0.94627929 0.046844099 0.99357831
1.3021874 0.92128903 0.046413343 0.99363708
1.301875 0.89676756 0.04599819 0.99369389
1.3016015 0.872666 0.045597799 0.99374866
1.3008593 0.80280274 0.044479065 0.99390155
1.3006445 0.78026366 0.044132385 0.99394888
1.3004297 0.75807613 0.043798331 0.99399453
1.3001953 0.73622066 0.043475989 0.99403864
1.3719921 0.70995116 0.044948615 0.9938373
1.415293 0.70994139 0.046070937 0.99368387
1.5087304 0.70994139 0.048516806 0.99334973
1.6693164 0.70995116 0.052781865 0.99276716
1.8611718 0.70995116 0.057959516 0.99206036
1.9646679 0.72128904 0.060896721 0.99165988
1.9647655 0.69343746 0.060624693 0.99169695
1.9648632 -0.66583008 0.060364835 0.99173242
1.9646679 -0.72130859 0.060896605 0.99165988
1.8611327 -0.70995116 0.057959136 0.99206054
1.7931445 -0.70996094 0.056115109 0.99231213
1.6692969 -0.70995116 0.05278179 0.99276721
1.6126952 -0.70996094 0.051270828 0.99297363
1.3719921 -0.70995116 0.044948425 0.9938373
1.3307421 -0.70995116 0.043885916 0.99398249
1.3004297 -0.75808591 0.043798331 0.99399453
1.3013672 -0.84899414 0.045211371 0.99380141
1.3016406 -0.87269527 0.045597762 0.99374849
1.3024609 -0.94629878 0.046843987 0.99357826
9.4198828 -8.4105368 0.36744335 0.95072144
9.0169134 -8.4674606 0.35991207 0.95170647
9.0140619 -8.6805172 0.36412349 0.9511553
2.8062499 -9.020937 0.27487421 0.96290034
-0.3858203 -7.6691794 0.22343296 0.96973878
-1.5952344 -8.9737692 0.26520258 0.96418387
-1.9457421 -8.969101 0.2670441 0.96393979
-2.0637305 -8.9675388 0.26774928 0.96384639
-2.3016601 -8.9643555 0.26929623 0.96364129
-2.421699 -8.9627533 0.27014124 0.96352935
-3.1598437 -8.9529295 0.27625155 0.96271986
-3.286289 -8.95123 0.27745211 0.96256101
-3.4139061 -8.9495306 0.27870807 0.96239483
-3.6524217 -8.896699 0.27983928 0.96224588
-3.6924999 -8.6821585 0.27452266 0.96294886
-3.6608789 -8.0405178 0.25706044 0.9652639
-5.5473046 -11.788652 0.37909403 0.94919926
-5.1473632 -8.8297949 0.29739025 0.95992541
-5.3760939 -8.4712982 0.29193804 0.9606455
-5.6774411 -8.4679689 0.29664722 0.9600234
-5.9888282 -8.4645309 0.30170435 0.95935583
-6.3112302 -8.4609175 0.30713519 0.9586398
-6.4768944 -8.4591017 0.30999959 0.95826221
-6.9933004 -8.4533787 0.31922647 0.95704669
-7.1724415 -8.4513769 0.32253116 0.95661199
-8.3332033 -8.4385252 0.34507936 0.95364994
-8.5429296 -8.4361811 0.34934771 0.95309049
-8.7579689 -8.4337893 0.35377857 0.95250982
-8.9815235 -8.4341307 0.35850024 0.9518916
-9.2112694 -8.4346189 0.36341107 0.95124882
-1.0667773 -0.92867184 0.041154366 0.9943561
-1.0664843 -0.90509766 0.040700607 0.99441814
-1.065625 -0.83738279 0.039435044 0.9945913
-1.065371 -0.81573242 0.039042816 0.99464488
-1.0648828 -0.77369142 0.038299866 0.99474651
-1.0646484 -0.75327146 0.037947919 0.99479467
-1.064414 -0.73320311 0.037608411 0.99484116
-1.0641992 -0.71351558 0.037280921 0.99488592
-1.1503906 -0.70995116 0.03933445 0.994605
-1.2178515 -0.70995116 0.041017644 0.99437475
-1.2537891 -0.70996094 0.041924629 0.99425077
-1.2913672 -0.70996094 0.042879675 0.99412024
-1.3307226 -0.70994139 0.043886259 0.99398261
-1.4152734 -0.70996094 0.046071053 0.99368387
-1.4607812 -0.70997071 0.047258377 0.99352163
-1.5592577 -0.70995116 0.049851723 0.99316746
-1.6126952 -0.70994139 0.051270943 0.99297363
-1.6692969 -0.70994139 0.052781753 0.99276721
-1.751914 -0.71923828 0.055103797 0.99245024
-1.7521288 -0.69373047 0.054832991 0.99248731
-1.7569531 0.67022461 0.049501836 0.99250382
-1.7567188 0.69551754 0.049737815 0.9924683
-1.6692969 0.70995116 0.047752839 0.99276775
-1.5592577 0.70994139 0.045102041 0.993168
-1.5087304 0.70993161 0.043893926 0.99335027
-1.4607812 0.70995116 0.04275566 0.99352217
-1.4152734 0.70993161 0.041681021 0.99368441
-1.3307421 0.70994139 0.039704587 0.99398297
-1.1834375 0.70993161 0.036329001 0.99449313
-1.1504102 0.70994139 0.035586432 0.99460536
-1.1187109 0.70994139 0.034879111 0.99471235
-1.0619531 0.73152339 0.03394676 0.99485344
-1.0621874 0.75150388 0.034252431 0.99480712
-1.0630859 0.83534175 0.035591543 0.99460465
-1.0633203 0.85738277 0.035957564 0.99454933
-1.0635546 0.87985349 0.036337089 0.99449199
-1.0638281 0.90284181 0.036730804 0.99443245
-1.0641016 0.92631835 0.037139282 0.9943707
-8.3514452 7.6473727 0.29809231 0.95570022
-7.9364257 7.6427732 0.29004496 0.95687002
-7.3536716 7.6362987 0.27907673 0.95846689
-7.1690235 7.6342578 0.27568659 0.95896071
-6.4723043 7.626533 0.26331621 0.9607656
-6.3076758 7.6247168 0.26049593 0.96117753
-5.8339453 7.6194434 0.25261936 0.96232903
-5.5333982 7.6161032 0.24781802 0.96303159
-5.3873825 7.6144724 0.24554241 0.9633646
-5.243906 7.6129003 0.24334773 0.96368623
-4.9645309 7.6097946 0.23918468 0.96429634
-4.9625974 7.8198047 0.24380596 0.96361917
-5.0552735 8.4267187 0.25868893 0.96144235
-4.9515429 14.611972 0.40613917 0.94013298
-4.9350977 15.864258 0.43735898 0.935682
1.4481446 16.420322 0.43393588 0.93616921
1.6626562 16.482607 0.43609759 0.93586135
1.6329882 11.738017 0.31197375 0.95368612
1.2989062 0.89470702 0.041519888 0.99370879
1.2986718 0.87068355 0.041158941 0.99376321
1.2984375 0.84707028 0.040811043 0.99381578
1.2982031 0.82385743 0.040475387 0.99386656
1.2975781 0.75640625 0.039538153 0.99400812
1.2973828 0.73461914 0.039248083 0.99405199
1.2971874 0.71313477 0.038968008 0.99409431
1.3307617 0.70995116 0.03970455 0.99398291
1.3719921 0.70995116 0.040665779 0.99383771
1.5593164 0.70995116 0.045102041 0.99316776
1.6127343 0.70994139 0.046385765 0.99297404
1.6693164 0.70995116 0.047752798 0.99276769
1.8611718 0.70995116 0.052436981 0.99206102
1.9667187 0.72204101 0.055151213 0.99165183
1.9667969 -0.69416988 0.054904707 0.99168903
1.9667187 -0.72205079 0.055151176 0.99165183
1.7931445 -0.70996094 0.050768279 0.99231273
1.7293164 -0.70995116 0.049210317 0.99254781
1.6692969 -0.70995116 0.04775219 0.99276775
1.6126952 -0.70996094 0.046385422 0.99297416
1.5592968 -0.70995116 0.045101583 0.99316782
1.5087109 -0.70996094 0.043893624 0.99335027
1.4607812 -0.70995116 0.042755317 0.99352217
1.4152734 -0.70995116 0.041680984 0.99368441
1.2974023 -0.73462892 0.039248161 0.99405187
1.2975781 -0.75641602 0.039538193 0.99400812
1.2984179 -0.8470996 0.040810965 0.99381578
1.2986718 -0.8707031 0.041158903 0.99376321
1.2989062 -0.89470702 0.041519813 0.99370879
1.2991406 -0.91917968 0.041893464 0.99365228
9.1814451 -8.4073725 0.327719 0.9514063
9.0140619 -8.6805172 0.32943058 0.951159
8.3326559 -9.0998631 0.32478747 0.95182753
0 -8.97999 0.23639339 0.96470553
-1.4757421 -8.9530172 0.23886295 0.96434337
-1.711543 -8.9722261 0.24044818 0.96411115
-1.8283789 -8.970664 0.24100383 0.96402979
-2.0637305 -8.9675198 0.24223575 0.96384919
-2.1823633 -8.9659567 0.24291553 0.96374965
-2.3016601 -8.9643555 0.24363697 0.96364403
-2.421699 -8.9627533 0.2444002 0.96353209
-2.5454297 -8.9714451 0.24548565 0.96337247
-2.6494141 -8.9100876 0.24470279 0.9634878
-2.910078 -8.9562502 0.24790172 0.96301943
-3.2863281 -8.95123 0.25101504 0.96256381
-3.4139061 -8.9495306 0.25215015 0.96239769
-3.5426953 -8.9478121 0.25333661 0.96222419
-3.6524217 -8.896699 0.2531473 0.96224874
-3.6924999 -8.682148 0.24836467 0.96295172
-3.6608789 -8.0405273 0.23253483 0.96526647
-5.520957 -10.348535 0.30876383 0.95415145
-5.5241795 -10.048467 0.3018581 0.95515352
-5.1473632 -8.8297853 0.26905262 0.95992845
-5.1445312 -8.5754299 0.26325169 0.96077532
-5.2289844 -8.472949 0.26210192 0.96094316
-5.3760939 -8.4712982 0.26412007 0.96064848
-5.6774411 -8.4679689 0.26838213 0.96002638
-5.8317966 -8.4662495 0.27062947 0.95969862
-6.1485934 -8.4627342 0.27536938 0.9590072
-6.3112302 -8.460928 0.27786899 0.95864284
-6.6456637 -8.4572268 0.28314465 0.95787448
-6.8177733 -8.4553223 0.28592715 0.9574694
-7.3553123 -8.4493551 0.29489627 0.95616496
-7.7332029 -8.4451656 0.30143902 0.95521438
-8.5429296 -8.4361811 0.31605905 0.95309401
-8.9785547 -8.4313478 0.32423121 0.95191073
-9.2049608 -8.4288282 0.32855839 0.95128512
-1.0643945 -0.95036131 0.037563056 0.99430656
-1.0638281 -0.90285152 0.036731031 0.99443239
-1.0635742 -0.87987304 0.036337279 0.99449193
-1.0633203 -0.85739255 0.035957526 0.99454927
-1.0626172 -0.79261714 0.034897842 0.99470955
-1.0621874 -0.75152344 0.034252357 0.99480706
-1.0619726 -0.73153317 0.033946723 0.99485332
-1.0617774 -0.71187496 0.03365181 0.99489796
-1.1186719 -0.70995116 0.034878884 0.99471247
-1.1503906 -0.70995116 0.035586279 0.99460542
-1.1834179 -0.70996094 0.036328927 0.99449313
-1.2178515 -0.70995116 0.037109107 0.99437523
-1.3719921 -0.70996094 0.040665358 0.99383771
-1.4152734 -0.70996094 0.041681021 0.99368435
-1.4607812 -0.70997071 0.042755585 0.99352211
-1.5087109 -0.70996094 0.043893967 0.99335027
-1.6692969 -0.70994139 0.047752608 0.99276781
-1.7564844 -0.72113281 0.049984511 0.99243116
-1.7617188 0.64677733 0.044200856 0.99251926
-1.7613281 0.69734371 0.04461731 0.99244916
-1.7611327 0.72299802 0.044838827 0.99241179
-1.5087304 0.70993161 0.039271887 0.99335068
-1.4607812 0.70995116 0.038253248 0.99352258
-1.3719727 0.70994139 0.036383361 0.99383825
-1.3307421 0.70994139 0.035523679 0.99398339
-1.2914063 0.70995116 0.034708899 0.99412096
-1.2178515 0.70994139 0.033201523 0.99437565
-1.1504102 0.70994139 0.031839181 0.99460578
-1.1187109 0.70994139 0.031206245 0.99471271
-1.0593555 0.71025389 0.030039748 0.99490988
-1.0597266 0.74976563 0.03057453 0.99481946
-1.0599023 0.77007812 0.030856857 0.99477178
-1.0603125 0.81182617 0.031452596 0.99467111
-1.0605078 0.83334959 0.031767044 0.994618
-1.0607617 0.85529298 0.03209278 0.9945628
-1.060957 0.87770504 0.032430992 0.99450582
-8.3514452 7.6473727 0.26670244 0.9557032
-8.1411133 7.6450291 0.26303241 0.95629925
-7.5429688 7.6384177 0.25283548 0.95795715
-7.3536716 7.6362987 0.24968815 0.95846969
-6.8126559 7.6302929 0.24091929 0.95989865
-6.6406054 7.6283884 0.238204 0.96034122
-5.8339257 7.6194334 0.22601688 0.96233165
-5.6822267 7.617744 0.22382976 0.96268904
-5.3873825 7.6144724 0.21968624 0.9633671
-5.243906 7.6129003 0.21772273 0.96368867
-5.1030078 7.6113181 0.21582668 0.96399915
-4.9626169 7.8197947 0.21813136 0.96362162
-4.9258595 16.565702 0.40704721 0.93318725
-4.9158788 17.326153 0.4241778 0.93047494
-4.9049997 18.153555 0.44289356 0.92752177
1.2434375 16.460205 0.38878176 0.93608713
1.448164 16.42041 0.38824138 0.93617314
1.6626562 16.48292 0.39018077 0.93586445
1.6329687 11.738027 0.2791222 0.95368922
11.662793 15.635448 0.45941395 0.92492181
10.991055 10.064355 0.35099605 0.94211507
1.2963672 0.94185543 0.037740476 0.99360919
1.2961328 0.91703123 0.03739563 0.99366742
1.2959374 0.89264649 0.037062377 0.99372357
1.2953125 0.82201171 0.036132123 0.99388063
1.294746 0.75475585 0.035297547 0.99402159
1.2945703 0.73301756 0.035038833 0.99406528
1.294414 0.71158201 0.034789391 0.99410737
1.4152539 0.70994139 0.037292175 0.99368489
1.5087304 0.70994139 0.039271966 0.99335068
1.6127343 0.70994139 0.041501045 0.99297452
1.6693164 0.70995116 0.042724036 0.99276823
1.7292968 0.70995116 0.044028472 0.99254841
1.8611327 0.70993161 0.046915207 0.99206173
1.9688281 0.69486326 0.049173888 0.9916811
1.9689062 -0.66719723 0.04896263 0.99171668
1.8611327 -0.70995116 0.046914671 0.99206167
1.7931445 -0.70996094 0.04542198 0.99231327
1.7293164 -0.70995116 0.044027824 0.99254835
1.6692969 -0.70995116 0.042724036 0.99276829
1.6126952 -0.70996094 0.041501008 0.99297464
1.5087109 -0.70996094 0.039271355 0.99335074
1.4607812 -0.70995116 0.038252831 0.99352258
1.3719921 -0.70995116 0.036383208 0.99383819
1.3307421 -0.70995116 0.035523489 0.99398339
1.2943749 -0.71162111 0.034789428 0.99410743
1.2947265 -0.75477535 0.035297468 0.99402159
1.2949023 -0.77683592 0.035565794 0.99397635
1.2955078 -0.84518552 0.036431275 0.99383008
1.2957031 -0.86872071 0.036740988 0.99377781
1.295918 -0.89266598 0.037062529 0.99372357
1.2961328 -0.91703123 0.037395325 0.99366742
1.2963672 -0.94187498 0.037740365 0.99360913
9.4199219 -8.4105463 0.29742396 0.9507283
9.014101 -8.6805172 0.29473993 0.95116216
8.3326559 -9.0998631 0.29058093 0.95183074
2.8062499 -9.020957 0.22250347 0.96290559
-0.38580078 -7.6691699 0.18085651 0.96974319
-1.5952734 -8.9737692 0.21466762 0.96418899
-1.7115625 -8.9722261 0.21512797 0.96411353
-1.9457617 -8.969101 0.21615772 0.96394491
-2.4217186 -8.9627533 0.21866496 0.96353453
-2.5454493 -8.971426 0.21963269 0.96337503
-2.910078 -8.9562502 0.22179714 0.96302193
-3.0344532 -8.9545898 0.222681 0.96287704
-3.2863281 -8.95123 0.2245824 0.96256632
-3.5426953 -8.9478121 0.22665797 0.96222675
-3.6524217 -8.8967085 0.22651912 0.96225125
-5.1445312 -8.5754004 0.2355302 0.96077806
-5.3761325 -8.4713278 0.23630764 0.96065092
-5.6774411 -8.4679785 0.24011974 0.96002907
-5.8318162 -8.4662695 0.24213031 0.95970124
-5.9888477 -8.4645214 0.24421389 0.95936167
-6.1485934 -8.4627342 0.24637249 0.95901
-6.3112106 -8.460928 0.24860874 0.9586457
-6.4768944 -8.4591112 0.2509267 0.95826817
-6.6457028 -8.4572268 0.25332898 0.95787722
-6.8177733 -8.4553223 0.25581706 0.95747232
-7.1723828 -8.4513865 0.26106983 0.95661831
-7.7332225 -8.4451656 0.26969752 0.95521736
-8.1284761 -8.4407711 0.27599475 0.95419598
-8.3331833 -8.4385157 0.27932239 0.95365661
-8.9785347 -8.4313374 0.29008883 0.95191407
-1.0616992 -0.94794917 0.033522148 0.99432135
-1.0601171 -0.79075193 0.03114933 0.99472231
-1.0598828 -0.7700879 0.030856742 0.99477184
-1.0597266 -0.74976563 0.030574683 0.99481946
-1.0595703 -0.72984374 0.030302277 0.99486536
-1.0882226 -0.70995116 0.030602455 0.99481475
-1.1834179 -0.70996094 0.032503393 0.99449348
-1.2178515 -0.70995116 0.033201482 0.99437559
-1.2537891 -0.70996094 0.03393589 0.99425161
-1.5087109 -0.70996094 0.039271697 0.99335074
-1.6126952 -0.70994139 0.041500967 0.99297464
-1.7611327 -0.72301757 0.0448386 0.99241173
-1.7615234 -0.67197263 0.044404447 0.99248493
-1.7617188 -0.64678711 0.044200856 0.99251926
-1.7648437 0.64792967 0.039068565 0.9925065
-1.7648046 0.69872069 0.039443702 0.99243474
-1.7647656 0.72449219 0.039643478 0.99239665
-1.6692969 0.70995116 0.037696075 0.9927687
-1.6127148 0.70993161 0.036617242 0.99297506
-1.5592968 0.70992184 0.035603903 0.99316877
-1.5087304 0.70993161 0.034650154 0.9933511
-1.3719727 0.70994139 0.032101747 0.99383861
-1.2914063 0.70995116 0.030624045 0.99412131
-1.2178515 0.70994139 0.02929428 0.99437594
-1.1504102 0.70994139 0.028092079 0.99460608
-1.0882422 0.70995116 0.027001152 0.99481499
-1.0589062 0.70993161 0.026492804 0.99491245
-1.0571289 0.72814453 0.026675185 0.99487752
-1.0577735 0.80992186 0.027685203 0.9946841
-1.0583594 0.87556636 0.028544273 0.99451953
-1.0585546 0.89836913 0.028852042 0.99446064
-1.058789 0.92167968 0.02917137 0.99439949
-8.1410933 7.6450195 0.23207714 0.95630199
-7.7371678 7.6405563 0.22596675 0.95742774
-7.3537107 7.6362891 0.22030346 0.95847213
-7.1690621 7.6342478 0.21762706 0.95896584
-6.812695 7.6302929 0.21256655 0.95990098
-6.6406054 7.6283884 0.2101717 0.9603436
-6.4723434 7.6265235 0.20786434 0.96077055
-6.1464844 7.62291 0.20348865 0.9615801
-5.9886131 7.6211524 0.20141658 0.96196371
-5.8339062 7.619453 0.1994179 0.96233392
-5.6822267 7.6177635 0.1974905 0.96269125
-5.5333982 7.6161227 0.1956277 0.96303624
-5.3873434 7.6144919 0.19383343 0.96336931
-5.1030078 7.6113281 0.19042797 0.9640013
-4.9645309 7.6098046 0.18881275 0.96430087
-5.0305076 9.1504488 0.21699443 0.95908338
-5.0192575 10.00583 0.23262379 0.95620173
-4.9814258 12.581699 0.28120387 0.94729996
-4.893086 19.057421 0.40887064 0.92429942
1.2434375 16.460312 0.34303194 0.93609053
1.448164 16.420479 0.34255457 0.93617666
1.6329687 11.738037 0.24627331 0.95369196
12.133867 15.441552 0.40810198 0.92443633
1.2929688 0.89061522 0.032626037 0.99373823
1.2927734 0.86672848 0.032343827 0.9937923
1.2925781 0.84326172 0.032071725 0.99384439
1.2922461 0.79747069 0.031555593 0.9939431
1.2920703 0.77512693 0.031311225 0.99398988
1.291914 0.75312501 0.031075707 0.99403495
1.2916211 0.71005857 0.030629691 0.99412036
1.3307617 0.70995116 0.031343117 0.99398369
1.3719921 0.70995116 0.032101631 0.99383855
1.4152539 0.70994139 0.032903366 0.99368531
1.5087304 0.70994139 0.034650229 0.9933511
1.5592773 0.70995116 0.03560375 0.99316877
1.6127343 0.70994139 0.036617164 0.99297494
1.6693164 0.70995116 0.037696112 0.99276865
1.8611327 0.70993161 0.041394196 0.99206221
1.9337695 0.70994139 0.042807542 0.9917922
1.9708788 0.69557613 0.043431893 0.99167299
1.9709375 -0.66789061 0.043244895 0.99170864
1.8611327 -0.70995116 0.041393586 0.99206215
1.7931445 -0.70996094 0.040076673 0.99231374
1.7293164 -0.70995116 0.038846854 0.99254876
1.5087109 -0.70996094 0.034649849 0.9933511
1.4607812 -0.70995116 0.033751257 0.993523
1.4152734 -0.70995116 0.032902982 0.99368519
1.3719921 -0.70995116 0.032101594 0.99383855
1.3307421 -0.70995116 0.031343039 0.99398375
1.2916211 -0.71006835 0.030629348 0.99412036
1.2917578 -0.73145509 0.030848503 0.9940784
1.2924218 -0.82019532 0.031808969 0.99389458
1.2929688 -0.890625 0.032625768 0.99373823
9.1814451 -8.4073629 0.25870249 0.9514125
9.014101 -8.6805172 0.26005328 0.95116508
8.3326559 -9.0998726 0.25638095 0.95183361
3.9062499e-05 -8.9799805 0.18660991 0.96471006
-1.4757227 -8.9530077 0.18855831 0.96434796
-1.8283594 -8.970664 0.19024891 0.96403444
-1.9457421 -8.969101 0.1907191 0.96394712
-2.0637109 -8.9675388 0.19122303 0.96385378
-2.1823437 -8.9659567 0.19175838 0.9637543
-2.3016796 -8.9643745 0.19232845 0.96364862
-3.0344532 -8.9545898 0.19647747 0.9628793
-3.1598437 -8.9529104 0.19729549 0.96272749
-3.2863281 -8.951211 0.19815257 0.96256864
-3.4139061 -8.9495115 0.1990488 0.96240258
-3.5426953 -8.947793 0.19998546 0.96222907
-3.6748047 -8.6405373 0.19512057 0.96313065
-3.6671875 -8.3303804 0.18914211 0.96423984
-3.6608593 -8.0405178 0.18358082 0.965271
-5.520957 -10.348525 0.24373889 0.95415729
-5.1473632 -8.8297558 0.21239085 0.9599337
-5.1445312 -8.5754004 0.20781146 0.96078044
-5.2289648 -8.472949 0.20690554 0.96094817
-5.5255857 -8.4696779 0.21014903 0.96034789
-5.6774411 -8.4679785 0.21186222 0.96003151
-5.9888477 -8.4645214 0.21547367 0.95936412
-6.4769139 -8.4591017 0.22139637 0.95827067
-6.6457028 -8.4572268 0.22351688 0.95787978
-6.8177733 -8.4553223 0.22571224 0.95747489
-6.9932809 -8.4533691 0.22798793 0.95705545
-7.3553514 -8.4493647 0.23279239 0.95617038
-8.1284761 -8.4407806 0.24351551 0.95419866
-8.3331833 -8.4385252 0.24645038 0.95365936
-8.5429296 -8.4361715 0.24950001 0.95309997
-8.7579689 -8.4337788 0.252664 0.95251948
-1.0590234 -0.94555664 0.02950241 0.99433601
-1.0585938 -0.89838862 0.028851928 0.99446052
-1.0572656 -0.74805665 0.026914176 0.99483168
-1.0571094 -0.72819334 0.026675072 0.99487746
-1.0588672 -0.70994139 0.026493033 0.99491251
-1.2178515 -0.70995116 0.02929409 0.99437594
-1.3307226 -0.70994139 0.031343002 0.99398386
-1.3719921 -0.70996094 0.032101516 0.99383855
-1.4152734 -0.70996094 0.03290325 0.99368519
-1.4607812 -0.70995116 0.03375145 0.993523
-1.5087109 -0.70994139 0.034650113 0.99335116
-1.6692969 -0.70994139 0.037696149 0.99276876
-1.7648046 -0.67321289 0.039252091 0.99247146
-1.7656835 0.64824218 0.033874396 0.99250335
-1.765625 0.72484374 0.03437271 0.99239337
-1.6692969 0.70995116 0.032668836 0.99276912
-1.4607812 0.70995116 0.029250335 0.99352336
-1.4152734 0.70995116 0.028515205 0.99368554
-1.3719727 0.70994139 0.027820434 0.99383897
-1.2178515 0.70994139 0.025387572 0.99437624
-1.1834375 0.70993161 0.02485363 0.99449414
-1.1503906 0.70993161 0.024345741 0.99460644
-1.0549804 0.7664746 0.023484878 0.99479663
-1.0556054 0.85116208 0.024421271 0.99458975
-1.0559765 0.89614254 0.024942398 0.99447453
-8.1410933 7.6450391 0.20112681 0.95630419
-7.9364061 7.6427832 0.19842799 0.95687783
-7.7371287 7.6405759 0.1958314 0.95743006
-7.3536716 7.6363082 0.19092327 0.95847434
-7.169004 7.6342578 0.188605 0.95896816
-6.98875 7.6322656 0.18637034 0.95944411
-6.8126559 7.6303124 0.18421841 0.95990312
-6.6405859 7.6283884 0.18214184 0.96034575
-6.4723043 7.6265135 0.18014079 0.96077275
-5.6822071 7.6177635 0.17115185 0.96269327
-5.5333982 7.6161132 0.16953921 0.96303821
-5.3873434 7.6144919 0.16798221 0.96337128
-5.2439451 7.6128902 0.16648105 0.96369272
-4.9645309 7.6098046 0.1636311 0.96430278
-4.9727736 14.089609 0.26908213 0.94197619
-4.9419727 15.886445 0.29962528 0.93560648
-4.8497653 22.355469 0.411971 0.91254604
1.2434765 16.460449 0.29728502 0.93609333
1.448164 16.420576 0.29686838 0.93617958
1.6329687 11.738037 0.21342884 0.9536944
11.890273 15.529355 0.35223514 0.92473584
10.928946 10.00749 0.26687327 0.94243896
11.124102 9.9321194 0.26856953 0.94208384
1.2903515 0.93748045 0.028724059 0.99363947
1.2898437 0.86476558 0.027966805 0.9938066
1.2896875 0.84135741 0.027731819 0.99385852
1.2893945 0.79569334 0.02728672 0.99395674
1.2892578 0.77342772 0.027076073 0.99400324
1.2914063 0.70994139 0.026539993 0.99412167
1.4152539 0.70994139 0.028515318 0.99368566
1.6127343 0.70994139 0.031733818 0.99297529
1.6693164 0.70995116 0.03266903 0.99276906
1.7292968 0.70995116 0.033666532 0.99254924
1.8611327 0.70993161 0.035873488 0.99206263
1.9337695 0.70994139 0.037098616 0.99179262
1.9729687 0.66856444 0.037516173 0.99170059
18.036055 3.9127245 0.33237109 0.92882556
1.9729687 -0.66858399 0.03751621 0.99170059
1.9728906 -0.69631833 0.037678603 0.99166489
1.9337499 -0.70994139 0.037098274 0.99179274
1.8611327 -0.70995116 0.035873335 0.99206257
1.6126952 -0.70996094 0.03173355 0.99297541
1.5592968 -0.70995116 0.030855292 0.99316907
1.5087109 -0.70996094 0.030028572 0.99335146
1.4607812 -0.70995116 0.029250145 0.99352336
1.4152734 -0.70995116 0.028514938 0.99368554
1.3307421 -0.70996094 0.027162742 0.99398404
1.2914063 -0.70996094 0.026539955 0.99412161
1.2892578 -0.7734375 0.027075805 0.99400324
1.2895508 -0.81837887 0.027505377 0.99390841
1.2896875 -0.84138668 0.027731933 0.9938584
1.2898437 -0.86480469 0.027966995 0.99380654
1.2901952 -0.9128418 0.028462486 0.99369705
1.2903515 -0.9375 0.028724059 0.99363941
9.014101 -8.6805372 0.22537242 0.95116758
2.8062694 -9.020957 0.17014034 0.96290976
0 -8.9799805 0.16172267 0.9647119
-1.5952344 -8.9737892 0.16414501 0.96419299
-1.8283594 -8.970664 0.16487743 0.96403635
-2.06375 -8.9675388 0.16572163 0.96385562
-2.3016796 -8.9643745 0.16667835 0.96365052
-2.4216797 -8.9627533 0.16720195 0.96353871
-2.5454102 -8.9713669 0.1679655 0.96337938
-2.6129296 -8.7874317 0.16510364 0.96398777
-2.7866406 -8.9578905 0.16895084 0.96316421
-2.910078 -8.9562502 0.16959636 0.96302611
-3.0344532 -8.9545898 0.17027339 0.96288127
-3.1598437 -8.9529295 0.170984 0.96272939
-3.2863281 -8.95123 0.17172557 0.96257055
-3.4139061 -8.9495306 0.17250247 0.96240449
-3.5426953 -8.9478121 0.17331386 0.96223104
-3.6712108 -8.6320801 0.16893329 0.96316803
-5.5209765 -10.348495 0.21123295 0.9541598
-5.3761325 -8.4713182 0.18069316 0.96065545
-5.6774216 -8.467988 0.18360668 0.9600336
-5.8318162 -8.46626 0.18514392 0.95970583
-5.9888086 -8.4645214 0.18673785 0.95936632
-6.4768748 -8.4591112 0.19187152 0.95827287
-6.9932809 -8.4533491 0.19758274 0.95705777
-7.5421872 -8.4472561 0.20394474 0.95570624
-7.7332225 -8.4451656 0.20622295 0.95522237
-8.1284962 -8.4407806 0.21103977 0.95420104
-8.5429096 -8.4361715 0.21622494 0.95310247
-8.9785547 -8.4313374 0.22181514 0.95191938
-9.2049799 -8.4288378 0.22477512 0.95129377
-1.055957 -0.89617187 0.024942512 0.99447453
-1.0557812 -0.87343746 0.024677277 0.99453312
-1.0554297 -0.82938474 0.024174232 0.99464428
-1.0588672 -0.70994139 0.022959709 0.9949128
-1.1503906 -0.70996094 0.024345664 0.99460638
-1.1833984 -0.70996094 0.024853706 0.9944942
-1.2537695 -0.70997071 0.025948904 0.99425232
-1.2913672 -0.70997071 0.026540032 0.99412173
-1.3307421 -0.70995116 0.027162818 0.9939841
-1.3719921 -0.70996094 0.027820205 0.99383885
-1.4607812 -0.70995116 0.029250182 0.99352336
-1.5087109 -0.70994139 0.030029068 0.99335152
-1.5592577 -0.70995116 0.030855216 0.99316925
-1.6692969 -0.70994139 0.032668836 0.99276912
-1.7655859 -0.72485352 0.034372978 0.99239349
-1.765625 -0.69907224 0.034199599 0.99243164
-1.765664 -0.67354488 0.034033507 0.99246818
-1.7665234 0.64855468 0.028675498 0.99250013
-1.7665234 0.67384762 0.028810462 0.9924649
-1.7664844 0.69939452 0.028951224 0.9924283
-1.7664453 0.72520506 0.029097747 0.99239016
-1.5592968 0.70991212 0.026107902 0.99316943
-1.3307421 0.70994139 0.022983398 0.99398434
-1.2913867 0.70994139 0.022456169 0.99412197
-1.253828 0.70992184 0.021956099 0.9942525
-1.1503906 0.70993161 0.020599479 0.99460673
-1.0882422 0.70995116 0.019799538 0.99481547
-1.0589062 0.70993161 0.01942707 0.99491292
-1.0523046 0.72483397 0.019471398 0.9949013
-1.052539 0.76469725 0.019825287 0.99480891
-1.0527734 0.80608398 0.020205306 0.99470967
-1.0530664 0.84911132 0.020613708 0.99460298
-1.0533594 0.8939355 0.021052627 0.99448842
-1.0536914 0.94076169 0.021524696 0.9943651
-8.3514452 7.6473727 0.17255421 0.95571023
-8.1410933 7.6450391 0.17017956 0.95630616
-7.9364061 7.6427832 0.16789569 0.95687973
-7.7371678 7.6405663 0.16569781 0.95743185
-7.5429688 7.6383982 0.1635818 0.95796388
-6.1464844 7.6229 0.14921504 0.96158385
-5.9886327 7.6211715 0.14769557 0.96196735
-5.8339062 7.619453 0.14623097 0.96233755
-5.6822071 7.6177635 0.14481571 0.96269494
-5.1030078 7.6113281 0.13963719 0.96400481
-4.9645309 7.6098046 0.13845241 0.96430439
-4.9625778 7.8197656 0.14112727 0.96362758
-5.0455856 8.6552734 0.15267688 0.96071362
-4.9505076 15.236201 0.24412052 0.93792194
1.2434765 16.460606 0.251542 0.9360956
1.448164 16.420645 0.25119251 0.9361822
11.909413 15.554355 0.29851604 0.92462271
10.923476 10.00247 0.22567385 0.94246954
1.2873437 0.93531245 0.024247779 0.99365449
1.287207 0.91070312 0.024027595 0.99371195
1.2870507 0.88655269 0.023815116 0.99376738
1.286914 0.86281246 0.023610229 0.99382091
1.2868164 0.83948243 0.023412475 0.9938724
1.2866992 0.81651366 0.023221472 0.99392223
1.2865429 0.7939648 0.023037376 0.99397033
1.2914063 0.70994139 0.02245613 0.99412191
1.3307812 0.70994139 0.022983436 0.99398422
1.3719921 0.70994139 0.023539696 0.9938392
1.5087304 0.70994139 0.025408363 0.99335176
1.5592968 0.70994139 0.026107673 0.99316943
1.6127343 0.70993161 0.0268507 0.99297565
1.7293164 0.70994139 0.02848587 0.99254954
1.7931249 0.70996094 0.029387893 0.99231458
1.8611327 0.70993161 0.030353775 0.99206299
1.9337695 0.70994139 0.031389847 0.99179304
1.9749609 0.69703126 0.031913985 0.9916566
1.9749999 0.66926754 0.031776275 0.99169248
17.99914 3.904707 0.28065157 0.92896909
1.9749999 -0.66927731 0.031776428 0.99169242
1.9749414 -0.69704098 0.031914063 0.99165666
1.8611327 -0.70995116 0.030353164 0.99206299
1.7293359 -0.70996094 0.028485907 0.99254942
1.4152734 -0.70996094 0.024127349 0.99368584
1.3719531 -0.70998043 0.02353958 0.99383926
1.2862109 -0.72831053 0.022523269 0.99410439
1.2863085 -0.74989253 0.022688521 0.99406129
1.286914 -0.86282223 0.023610115 0.99382091
1.2872266 -0.91073239 0.024027633 0.99371183
9.1814642 -8.4073534 0.18970302 0.95141721
8.3326759 -9.0998831 0.18801768 0.95183825
-0.38580078 -7.6691794 0.11701252 0.96974796
-1.5952538 -8.9737692 0.13888775 0.96419466
-1.7306445 -8.4911127 0.13204868 0.96592724
-2.0664842 -8.4899311 0.13314839 0.96564859
-2.1797462 -8.4896288 0.13356258 0.96554357
-2.2937889 -8.4894037 0.13400149 0.96543217
-2.4085937 -8.4892578 0.13446666 0.96531439
-2.7382421 -8.8022366 0.140471 0.96379417
-2.7583008 -8.489131 0.13601536 0.96492183
-2.8767383 -8.4892282 0.13658512 0.96477747
-2.9962108 -8.4893751 0.13718265 0.96462625
-3.2401953 -8.4941311 0.13853137 0.96428454
-5.5421677 -11.403486 0.19320346 0.95054328
-5.5258594 -9.7589254 0.17089221 0.95612711
-5.1473241 -8.8297167 0.15574223 0.95993781
-5.1445312 -8.5753708 0.15238452 0.96078438
-5.3761325 -8.4713182 0.15288913 0.96065718
-5.8318162 -8.46626 0.15665622 0.95970762
-6.1485934 -8.4627247 0.15940075 0.9590165
-6.3112302 -8.4609375 0.16084637 0.95865214
-6.4768748 -8.4591112 0.16234843 0.95827478
-6.6456833 -8.4572163 0.16390048 0.95788395
-6.8177733 -8.4553127 0.16551106 0.95747906
-7.1724219 -8.4513769 0.16891079 0.95662504
-7.7332029 -8.4451561 0.17449176 0.95522445
-7.9285545 -8.4429884 0.17649242 0.95472306
-8.3332033 -8.4385061 0.18071941 0.95366389
-8.5429096 -8.436162 0.18295307 0.95310462
-8.7579689 -8.4337893 0.18527332 0.95252407
-9.2049608 -8.4288282 0.19018932 0.95129603
-1.0535156 -0.91711915 0.021284293 0.9944278
-1.0533594 -0.89396483 0.021052666 0.9944883
-1.0530468 -0.84913087 0.020613555 0.99460298
-1.052539 -0.76474607 0.019825287 0.99480879
-1.0524218 -0.74462891 0.019645043 0.99485582
-1.0523046 -0.72487301 0.01947155 0.99490124
-1.0882226 -0.70996094 0.019799385 0.99481553
-1.1186719 -0.70996094 0.020189781 0.99471366
-1.1503906 -0.70996094 0.020599402 0.99460667
-1.3307421 -0.70995116 0.022983206 0.99398434
-1.3719727 -0.70997071 0.023539657 0.9938392
-1.4152734 -0.70997071 0.024127463 0.99368578
-1.5087109 -0.70995116 0.0254084 0.99335182
-1.7664648 -0.69939452 0.028951187 0.99242842
-1.7665234 -0.64855468 0.028675498 0.99250013
-23.483437 -8.2882128 0.3794775 0.90517759
-22.099785 7.7999315 0.29218128 0.91050971
-1.7673632 0.64886719 0.023472214 0.99249685
-1.7673438 0.69972652 0.023697853 0.99242496
-1.7673047 0.72553712 0.023818016 0.99238676
-1.6692969 0.70994139 0.022615662 0.99276972
-1.6126952 0.70993161 0.021968421 0.99297607
-1.5592968 0.70991212 0.021360511 0.99316972
-1.5087109 0.70992184 0.020788077 0.99335212
-1.4607617 0.70995116 0.020249022 0.99352396
-1.3719727 0.70994139 0.019259337 0.9938395
-1.253828 0.70992184 0.017963791 0.99425268
-1.2178515 0.70994139 0.017575072 0.99437672
-1.1503906 0.70993161 0.016853675 0.99460691
-1.0882422 0.70995116 0.016199302 0.99481571
-1.0499023 0.72320312 0.015894622 0.99491304
-1.0500782 0.76293945 0.016182708 0.99482113
-1.0503125 0.80416989 0.016492309 0.99472231
-1.0505469 0.84707028 0.016824646 0.99461609
-1.0507812 0.89173824 0.017182082 0.99450207
-1.0508984 0.91479492 0.017370949 0.99444193
-1.0510547 0.9384082 0.017566642 0.99437934
-8.3514843 7.6473727 0.14117642 0.95571172
-7.7371483 7.6405563 0.13556682 0.95743358
-7.3536716 7.6362987 0.13216907 0.9584778
-6.98875 7.6322556 0.12901714 0.9594475
-6.6405859 7.628408 0.12609188 0.96034896
-6.4723239 7.6265235 0.12470699 0.96077591
-6.3076954 7.6246972 0.12337025 0.96118778
-6.1464844 7.6228905 0.12208118 0.96158534
-5.8339062 7.6194434 0.11964008 0.96233904
-5.6821876 7.6177535 0.11848308 0.96269643
-5.5333786 7.6161032 0.11736698 0.96304137
-5.3873434 7.6144824 0.11628871 0.96337432
-5.2439451 7.6128902 0.11524868 0.96369576
-4.9625583 7.8197656 0.11546627 0.96362895
-5.033906 8.8901558 0.12737133 0.95995504
-4.9814453 12.581699 0.16870601 0.94730699
-4.9765821 13.555146 0.18001576 0.94387287
-4.972754 14.089609 0.18627842 0.94198096
-4.8974218 20.120653 0.25817218 0.9204995
-0.74800777 8.4814157 0.10615169 0.96651351
-0.63335937 8.3843842 0.10482761 0.96692371
-0.53197265 8.4556341 0.10562793 0.96667588
-0.32441404 8.6016798 0.10731494 0.96615225
1.6627734 16.484091 0.20655452 0.93587244
1.6329687 11.738027 0.14774951 0.95369822
11.69875 15.683661 0.24393772 0.92471373
11.928613 15.579394 0.24462871 0.92450881
10.918437 9.9978809 0.18454051 0.94249737
11.117031 9.9257908 0.18580364 0.94212437
1.2842578 0.90862304 0.019613571 0.99372655
1.2839453 0.83760738 0.019112282 0.99388629
1.2838281 0.81472653 0.018956909 0.99393588
1.2836132 0.77005857 0.018662184 0.99402988
1.2914063 0.70994139 0.018372802 0.99412215
1.3307812 0.70994139 0.018804055 0.99398446
1.3719921 0.70994139 0.019259224 0.99383938
1.5087304 0.70994139 0.020788001 0.993352
1.6692969 0.70992184 0.022615623 0.99276978
1.7931445 0.70995116 0.024044113 0.99231482
1.8611327 0.70992184 0.024834212 0.99206328
1.9337499 0.70993161 0.02568222 0.99179339
1.9770312 0.66994137 0.026024895 0.99168432
17.988905 3.9024706 0.22948803 0.92901069
18.187363 3.7068651 0.23140781 0.92843872
1.793164 -0.70997071 0.024043884 0.9923147
1.7293359 -0.70996094 0.023306007 0.99254972
1.6693164 -0.70996094 0.022615623 0.99276966
1.5592968 -0.70996094 0.021360205 0.99316967
1.4152734 -0.70996094 0.019739989 0.99368608
1.3307421 -0.70996094 0.018803978 0.99398458
1.2913867 -0.70995116 0.018372841 0.99412221
1.2835547 -0.7482422 0.018522758 0.99407429
1.2838281 -0.81474608 0.018956793 0.99393582
1.2841406 -0.88456053 0.019440345 0.99378169
1.2842578 -0.90864253 0.019613303 0.99372649
9.1814642 -8.4073534 0.15520808 0.951419
9.014101 -8.6805658 0.15601841 0.95117152
2.8062694 -9.0209866 0.1177927 0.96291268
0 -8.9799805 0.11195629 0.96471483
-0.38580078 -7.6691599 0.095735051 0.96974915
-1.4757617 -8.9530077 0.11312557 0.96435279
-1.6104883 -8.4424219 0.10715099 0.96620303
-1.7204492 -8.4412012 0.10740146 0.96612537
-1.8309765 -8.4399996 0.10767162 0.96604198
-1.9420507 -8.4387789 0.10795727 0.96595293
-2.507539 -8.4328804 0.1096838 0.96541816
-2.9746873 -8.4282904 0.11143047 0.96487755
-3.2142382 -8.426055 0.11243282 0.96456701
-3.335664 -8.4249315 0.11296771 0.9644013
-3.4582813 -8.4237986 0.11352825 0.96422845
-3.5821483 -8.4227047 0.1141106 0.96404815
-3.6608984 -8.0405369 0.11007908 0.96527559
-5.520195 -9.7489548 0.13967448 0.95617265
-5.2290039 -8.4729681 0.12413044 0.9609533
-5.5255661 -8.4696674 0.12607907 0.96035331
-5.6774411 -8.4679976 0.12710498 0.96003681
-6.4768944 -8.4590912 0.13282566 0.95827639
-6.6456833 -8.4572458 0.13409847 0.95788544
-6.8177733 -8.4553223 0.13541408 0.95748061
-6.9933004 -8.4533882 0.1367805 0.95706117
-7.1724219 -8.4513769 0.13819546 0.95662671
-7.3553319 -8.4493456 0.13966274 0.95617646
-7.9285545 -8.4429884 0.14439777 0.95472479
-1.050332 -0.80422848 0.016492119 0.99472207
-1.0588672 -0.70994139 0.015894355 0.99491322
-1.1503906 -0.70996094 0.016853752 0.99460685
-1.1833984 -0.70996094 0.017205391 0.99449468
-1.2178515 -0.70995116 0.017574959 0.99437672
-1.2913672 -0.70997071 0.018372765 0.99412221
-1.3307421 -0.70995116 0.018804129 0.99398458
-1.3719727 -0.70997071 0.019259032 0.99383944
-1.4152734 -0.70997071 0.019740257 0.99368602
-1.6126952 -0.70994139 0.02196827 0.99297607
-1.6692969 -0.70995116 0.022615738 0.99276972
-1.7673242 -0.69975585 0.023698006 0.99242496
-1.7673438 -0.67418945 0.023582648 0.99246168
-23.048397 7.8104687 0.23597392 0.90724039
-22.099785 7.7999315 0.22724612 0.91051233
-1.7682031 0.64916015 0.018264579 0.99249357
-1.7681836 0.67448241 0.018350409 0.9924584
-1.6692969 0.70994139 0.017590027 0.99276996
-1.5592968 0.70991212 0.016613349 0.9931699
-1.4152734 0.70994139 0.015353279 0.99368632
-1.3719727 0.70994139 0.014979172 0.99383968
-1.3307421 0.70994139 0.014625244 0.99398476
-1.2178515 0.70994139 0.013669204 0.9943769
-1.1834375 0.70993161 0.013381614 0.99449474
-1.1503906 0.70993161 0.013108177 0.99460709
-1.1187109 0.70993161 0.012847557 0.99471396
-1.0882422 0.70995116 0.012599144 0.99481583
-1.0476953 0.76117188 0.012557296 0.99483311
-1.0477734 0.78153318 0.01267498 0.99478483
-1.0478516 0.80228513 0.012796974 0.99473476
-1.0481055 0.86707032 0.013190155 0.99457341
-1.0481836 0.8895703 0.01333107 0.99451572
-1.0483984 0.9360742 0.013628349 0.99439359
-8.1411133 7.6450486 0.10829113 0.95630902
-7.5430079 7.6383982 0.10409275 0.95796657
-7.3536716 7.6362987 0.10279652 0.95847905
-6.98875 7.6322556 0.10034488 0.9594487
-6.8126755 7.6303024 0.099186517 0.95990759
-6.1464844 7.62291 0.094950445 0.96158642
-5.8339062 7.6194625 0.093050726 0.96234012
-5.6821876 7.6177731 0.092152365 0.96269751
-5.5333786 7.6161227 0.091282994 0.96304244
-5.1030469 7.6113477 0.088855818 0.96400714
-4.996367 11.747842 0.12378864 0.95021486
-4.972754 14.089609 0.14488101 0.94198269
-4.9111328 19.127705 0.19149517 0.92404342
-4.8974218 20.120663 0.20079975 0.92050177
-4.8724608 21.172461 0.21066172 0.91676176
-1.4392188 9.4717188 0.09289661 0.96240151
-0.87046874 8.6293745 0.084099956 0.96590066
-0.74457031 8.443017 0.082185246 0.9666636
-0.63195312 8.3660736 0.081353113 0.96699572
-0.53068358 8.4352932 0.08195518 0.96675569
-0.32347655 8.5769043 0.083225518 0.96624911
1.4482031 16.42083 0.15984409 0.93618578
1.6329687 11.738017 0.11491466 0.95369965
10.913398 9.9932709 0.14344753 0.94252485
11.114843 9.9238567 0.14443339 0.94213706
1.2813281 0.90654296 0.01521965 0.99374098
1.2812109 0.88252926 0.015085792 0.99379605
1.2809765 0.81291014 0.014711532 0.99394953
1.2809179 0.79047853 0.014595184 0.99399704
1.2807617 0.74660152 0.014375305 0.99408734
1.2807031 0.72515625 0.014270897 0.99413002
1.3307421 0.70994139 0.014625129 0.99398476
1.3719921 0.70994139 0.014979133 0.99383962
1.4152734 0.70993161 0.015353165 0.99368632
1.4608008 0.70993161 0.015748978 0.99352407
1.5087304 0.70994139 0.01616825 0.99335223
1.5592968 0.70994139 0.016613197 0.9931699
1.6127343 0.70993161 0.01708599 0.99297613
1.9337499 0.70993161 0.019974746 0.99179369
1.9790624 0.69846678 0.020350264 0.99163997
17.985352 3.9017088 0.17845272 0.92902625
1.8611327 -0.70996094 0.019315032 0.99206346
1.6693164 -0.70996094 0.01758953 0.99276984
1.5592968 -0.70996094 0.016613044 0.99316984
1.5087304 -0.70997071 0.016167946 0.99335217
1.4607812 -0.70996094 0.015748786 0.99352407
1.4152734 -0.70996094 0.015353088 0.99368626
1.3719531 -0.70998043 0.014979095 0.99383968
1.2914063 -0.70996094 0.014289665 0.99412227
1.2807031 -0.72518551 0.014270934 0.99412996
1.2807617 -0.74663085 0.014375267 0.99408728
1.2808203 -0.76840818 0.014483261 0.99404299
1.2809765 -0.81294918 0.01471138 0.99394941
1.2811524 -0.85895509 0.014956512 0.99384892
1.28125 -0.88255858 0.015085678 0.99379581
9.4199018 -8.4105463 0.12245113 0.95073944
9.0141211 -8.6805763 0.12134457 0.95117289
2.806289 -9.0209866 0.091603965 0.96291381
-0.3858203 -7.6691599 0.074458696 0.96975011
-1.6064453 -8.4213381 0.083130069 0.96628702
-1.7161523 -8.4200583 0.083323933 0.96620977
-2.0485547 -8.4162989 0.083992384 0.96594369
-2.3868358 -8.4125681 0.084791712 0.96562463
-2.5011132 -8.4113083 0.085090138 0.96550614
-2.966953 -8.4063864 0.086441919 0.96496826
-3.2057812 -8.4039354 0.087216146 0.96465945
-3.3268359 -8.4027243 0.087630957 0.96449459
-3.4491405 -8.4015131 0.088063963 0.96432245
-5.1473241 -8.8297071 0.099103659 0.95994055
-5.1444921 -8.5753317 0.096967198 0.96078724
-5.3761129 -8.4713182 0.097287178 0.96065992
-5.5255661 -8.4696674 0.098059043 0.96035451
-5.8317966 -8.4662695 0.099685781 0.95971036
-5.9888282 -8.4645309 0.10054279 0.95937085
