# .PCD v0.7 - Point Cloud Data file format
VERSION 0.7
FIELDS x y z intensity
SIZE 4 4 4 4
TYPE F F F F
COUNT 1 1 1 1
WIDTH 1080
HEIGHT 1
VIEWPOINT 0 0 0 1 0 0 0
POINTS 1080
DATA ascii
-1.0404297 0.79662108 -0.016336937 0.99477178
-1.0403906 0.81753904 -0.01649639 0.99472088
-1.040293 0.88287109 -0.017010497 0.99455673
-1.0402343 0.92875975 -0.017385712 0.99443704
-7.7243748 7.6279392 -0.13534263 0.95750231
-7.3415427 7.6236815 -0.13194989 0.95854491
-7.1571679 7.6216502 -0.13034935 0.9590379
-6.9771872 7.619658 -0.1288044 0.95951313
-6.8014059 7.6177049 -0.1273164 0.95997131
-6.6296091 7.6158004 -0.12588333 0.96041322
-6.297246 7.6121092 -0.1231657 0.96125066
-6.1363087 7.610322 -0.12187996 0.96164757
-6.0927343 7.7536621 -0.12293956 0.96132058
-6.0477147 17.135244 -0.22653459 0.92988873
-6.0359373 18.576826 -0.24351934 0.92483741
-2.3050389 9.4699802 -0.12151115 0.96176136
-2.1963477 9.5439358 -0.1220974 0.96158081
-1.8642578 8.5935154 -0.10962994 0.96543515
-1.663711 8.7214746 -0.11069252 0.96510565
-2.314414 14.04126 -0.17741844 0.94466275
-1.8446094 13.259472 -0.16689804 0.94785589
-1.6787695 13.288886 -0.16699436 0.94782805
-1.5988476 18.129032 -0.22689779 0.92978376
-1.4355859 22.817793 -0.28503966 0.91259897
0.41308594 16.432276 -0.20493118 0.93636024
9.7709761 9.8945408 -0.17336814 0.94589102
18.172773 13.914208 -0.28534862 0.91250783
1.2716405 0.92388672 -0.019596405 0.99373192
1.2717187 0.87597656 -0.019251861 0.99384171
1.2717578 0.82966793 -0.01893116 0.99394411
1.2718164 0.80709958 -0.018779373 0.99399245
1.2718359 0.78488278 -0.018632583 0.9940393
1.2718555 0.76299804 -0.01849102 0.99408442
1.2718945 0.7414453 -0.018354606 0.99412793
1.3307421 0.70995116 -0.018804055 0.99398458
1.3719727 0.70995116 -0.019259147 0.99383944
1.4608203 0.70993161 -0.020248832 0.99352378
1.5087304 0.70993161 -0.020788154 0.993352
1.6693164 0.70995116 -0.022615585 0.99276966
1.9956249 0.70433593 -0.026384125 0.99157
1.9955859 0.67624021 -0.026269188 0.99160659
16.825155 3.8720214 -0.2152462 0.93326586
1.9955468 -0.6483984 -0.026159553 0.99164152
1.995664 -0.70433593 -0.026384391 0.99156982
1.9337499 -0.70997071 -0.025681915 0.99179339
1.7931445 -0.70994139 -0.024043655 0.99231482
1.5592577 -0.70995116 -0.021360092 0.99316978
1.5087109 -0.70996094 -0.020787887 0.99335206
1.4607812 -0.70996094 -0.020248795 0.9935239
1.3307421 -0.70996094 -0.018803786 0.99398458
1.271914 -0.72020507 -0.018222732 0.99416995
1.271875 -0.7414453 -0.018354453 0.99412799
1.271875 -0.76299804 -0.018490791 0.99408436
1.2718359 -0.78488278 -0.018632354 0.9940393
1.2718164 -0.80710936 -0.01877941 0.99399245
1.2717578 -0.82969725 -0.018931083 0.99394405
1.2716796 -0.89971679 -0.019420929 0.99378783
1.2716405 -0.92388672 -0.01959629 0.99373192
1.2716016 -0.94849604 -0.019777831 0.99367404
9.9683008 -9.1278515 -0.16845012 0.94736713
8.096797 -8.4078999 -0.1455265 0.95437914
7.8856249 -8.61164 -0.14557575 0.954364
0.22636718 -9.0054007 -0.11230846 0.96460575
-2.661953 -8.9521971 -0.11644249 0.96332806
-6.8103123 -21.892372 -0.2858392 0.9123643
-6.7974219 -20.920341 -0.27424279 0.91576582
-6.7855077 -20.023994 -0.26358795 0.91890144
-6.721777 -13.399736 -0.18689834 0.94179338
-4.8901563 -8.895195 -0.12655178 0.96020716
-4.8219528 -8.0377731 -0.1168584 0.96319854
-6.3204684 -8.4733295 -0.13179138 0.95859444
-6.4863672 -8.4714651 -0.13302016 0.95821661
-6.6553903 -8.4695997 -0.13429309 0.95782524
-6.827734 -8.4676857 -0.13561241 0.95741981
-7.18291 -8.4637403 -0.13839778 0.95656466
-7.5532422 -8.4596291 -0.14139041 0.95564646
-7.7445116 -8.4575291 -0.14297011 0.95516211
-7.9401755 -8.4553413 -0.14460975 0.95466
-8.1403713 -8.453105 -0.14630893 0.95413947
-8.3453903 -8.4508495 -0.14807342 0.95359945
-8.5554295 -8.4485159 -0.14990479 0.95303935
-8.7707815 -8.4461126 -0.15180603 0.95245808
-8.9916992 -8.4436617 -0.15378052 0.95185477
-1.0402148 -0.92876953 -0.017385865 0.99443704
-1.040332 -0.86064452 -0.016833114 0.99461341
-1.0403515 -0.83887696 -0.016661681 0.99466813
-1.0403906 -0.81754881 -0.016496429 0.99472088
-1.0404687 -0.75596678 -0.016034355 0.9948684
-1.0405078 -0.73619139 -0.015891036 0.99491411
-1.0405663 -0.71676755 -0.015752716 0.99495822
-1.0589062 -0.70994139 -0.01589405 0.9949131
-1.0882031 -0.70995116 -0.016199036 0.99481583
-1.1503711 -0.70995116 -0.016853446 0.99460697
-1.2913867 -0.70996094 -0.018372688 0.99412215
-1.3307421 -0.70996094 -0.018803978 0.99398458
-1.3719531 -0.70994139 -0.019258918 0.99383956
-1.4607812 -0.70995116 -0.020248832 0.9935239
-1.6692969 -0.70994139 -0.022615317 0.99276972
-1.7749219 -0.67708004 -0.023684081 0.99242949
-1.7749219 -0.65165037 -0.023572501 0.9924649
-23.468729 -8.2829981 -0.31027928 0.90523756
-23.010311 7.7975879 -0.37022266 0.90738016
-1.7758007 0.65194333 -0.02882576 0.99246091
-1.7758007 0.67741209 -0.028961867 0.99242544
-1.6692773 0.70994139 -0.027641676 0.99276954
-1.6127148 0.70993161 -0.026850585 0.99297571
-1.5592773 0.70994139 -0.026107443 0.99316949
-1.4607812 0.70995116 -0.024749335 0.99352366
-1.3719921 0.70994139 -0.02353958 0.9938392
-1.3307031 0.70994139 -0.022983246 0.99398452
-1.2914063 0.70994139 -0.02245613 0.99412191
-1.2537891 0.70995116 -0.021955872 0.99425256
-1.2178711 0.70996094 -0.021481019 0.99437642
-1.0882031 0.70995116 -0.019799309 0.99481565
-1.0588866 0.70995116 -0.019426804 0.99491292
-1.0398047 0.73569334 -0.019409638 0.99491739
-1.0397851 0.75544918 -0.019584732 0.99487162
-1.039746 0.7755664 -0.019766312 0.99482429
-1.0396875 0.79608399 -0.019954186 0.99477524
-1.0396875 0.81695312 -0.020148696 0.99472433
-1.0396484 0.83827144 -0.020350341 0.99467164
-1.0394921 0.90491211 -0.02100132 0.99450177
-1.0394336 0.92806637 -0.02123413 0.99444103
-1.0393945 0.95178711 -0.021475792 0.99437785
-7.5305467 7.6257911 -0.16331172 0.95803171
-7.1571679 7.6216502 -0.15931922 0.95903635
-6.6296091 7.6158004 -0.15386058 0.96041173
-6.2972264 7.6120996 -0.15053928 0.96124929
-6.0927343 7.7536426 -0.15026371 0.96131915
-6.0905075 7.9545603 -0.15266213 0.96071404
-6.0633202 16.515253 -0.26808834 0.93203902
-6.0476952 17.135195 -0.27689368 0.92988634
-6.0451951 17.839375 -0.28702137 0.92741698
-6.0477147 18.613018 -0.29823184 0.92469382
-2.1963282 9.5439253 -0.14923331 0.96157944
-1.8642578 8.5935154 -0.13399342 0.96543384
-1.7636914 8.6534081 -0.1345724 0.96528745
-2.3144336 14.041249 -0.21685112 0.94466066
-2.1505077 14.152802 -0.21813732 0.94434124
-1.8446094 13.259501 -0.20399615 0.9478538
-1.6787499 13.288877 -0.20410851 0.94782615
-2.1510155 18.938202 -0.29044041 0.92658573
-1.715039 22.703388 -0.34693885 0.91294205
-1.4355469 22.817793 -0.34838983 0.91259575
0.41308594 16.432354 -0.25047785 0.93635762
10.825391 15.715713 -0.29079273 0.92649919
9.7611713 10.13625 -0.2144316 0.94526029
10.007617 9.8826265 -0.21432182 0.94528788
19.444374 15.678428 -0.38061622 0.90490681
1.2707813 0.9232617 -0.023935471 0.99373591
1.2708203 0.89912105 -0.023721542 0.9937917
1.2708594 0.87538081 -0.023515129 0.99384564
1.270957 0.82913083 -0.023123702 0.99394768
1.2710156 0.78438473 -0.022758979 0.99404287
1.2710937 0.71972656 -0.022258719 0.99417353
1.2914063 0.70995116 -0.02245613 0.99412191
1.3307421 0.70995116 -0.022983436 0.99398434
1.4152734 0.70993161 -0.024127388 0.9936859
1.4608203 0.70993161 -0.024749564 0.99352354
1.5087304 0.70993161 -0.025408439 0.99335176
1.5592968 0.70995116 -0.026107673 0.99316937
1.6127148 0.70996094 -0.026850661 0.99297571
1.7931249 0.70993161 -0.029387511 0.99231458
1.8611327 0.70995116 -0.03035347 0.99206299
1.9337695 0.70996094 -0.031390153 0.99179298
1.9976953 0.67696285 -0.032141343 0.99159741
1.9976562 0.64907223 -0.032006569 0.9916324
16.84078 3.6533983 -0.26259136 0.93338454
1.9337499 -0.70997071 -0.031389695 0.99179304
1.6692969 -0.70996094 -0.027641905 0.99276942
1.5592577 -0.70995116 -0.026107406 0.99316955
1.5087109 -0.70996094 -0.025408171 0.99335176
1.4152734 -0.70994139 -0.024127349 0.99368584
1.3719921 -0.70995116 -0.02353958 0.99383914
1.2914063 -0.70994139 -0.022456054 0.99412191
1.2710937 -0.7409668 -0.022419471 0.99413145
1.2710546 -0.76251954 -0.022586135 0.99408793
1.2708594 -0.87541014 -0.023515014 0.99384552
1.2707813 -0.92328125 -0.023935623 0.99373585
9.9683199 -9.1278515 -0.20596126 0.94736511
8.096797 -8.4078808 -0.17786987 0.95437747
7.8856249 -8.61166 -0.17792983 0.95436227
1.7208593 -9.0209084 -0.13993931 0.9639281
0.22640625 -9.0054007 -0.13726868 0.96460444
-1.1343945 -8.9798632 -0.13792361 0.96443856
-1.5891016 -8.9391994 -0.13835198 0.96433014
-6.7458787 -17.038212 -0.27923918 0.9293139
-4.7811327 -8.9617872 -0.15477408 0.96018016
-6.6766796 -11.791455 -0.20648724 0.94723475
-4.8395114 -8.0670795 -0.14334571 0.96306551
-6.6637301 -10.500361 -0.18950741 0.95146614
-6.277246 -8.872138 -0.16561215 0.95745361
-6.2746091 -8.6361618 -0.16266581 0.95819432
-6.6553903 -8.4695997 -0.164141 0.95782369
-7.0035348 -8.4657221 -0.16742572 0.95699817
-8.1403713 -8.4530859 -0.17882609 0.9541378
-8.3453903 -8.4508295 -0.18098266 0.95359772
-8.5554295 -8.4485159 -0.18322101 0.95303756
-8.7707815 -8.4460936 -0.18554614 0.95245636
-8.9916601 -8.4436426 -0.18795943 0.9518531
-1.0394921 -0.9049316 -0.021001052 0.99450171
-1.0395508 -0.8822363 -0.02077648 0.99456042
-1.0395703 -0.86003906 -0.020559654 0.99461704
-1.0396093 -0.83830076 -0.020350304 0.99467164
-1.0396875 -0.8169629 -0.020148583 0.99472427
-1.0397656 -0.77558595 -0.019766159 0.99482417
-1.0397656 -0.75544918 -0.019584846 0.99487168
-1.0398437 -0.71627927 -0.019240875 0.9949615
-1.0589062 -0.70994139 -0.019426536 0.99491292
-1.0882031 -0.70995116 -0.019799422 0.99481565
-1.1186719 -0.70994139 -0.020189894 0.99471366
-1.1833984 -0.70994139 -0.021029051 0.9944945
-1.3307421 -0.70996094 -0.022983283 0.99398434
-1.3719531 -0.70994139 -0.023539238 0.99383932
-1.4152343 -0.70995116 -0.024126891 0.99368596
-1.5592968 -0.70995116 -0.026107443 0.99316937
-1.6126952 -0.70994139 -0.026850624 0.99297577
-1.6692969 -0.70994139 -0.027641792 0.99276948
-1.7757812 -0.65194333 -0.028825454 0.99246097
-22.945097 3.7820799 -0.41879836 0.91116256
-21.979042 4.1927443 -0.40296343 0.91437364
-21.865313 4.7434278 -0.40293971 0.91437894
-21.803379 5.0176854 -0.4029268 0.91438121
-21.73785 5.2910838 -0.40291321 0.91438407
-21.596483 5.8352833 -0.40288383 0.91438985
-21.520565 6.1059375 -0.40286812 0.91439325
-21.441288 6.3756247 -0.4028517 0.91439652
-21.090038 7.4435349 -0.40277907 0.91441137
-1.7766016 0.65227538 -0.034084015 0.99245715
-1.7766405 0.70346677 -0.034413338 0.99238455
-1.7292968 0.70996094 -0.033666074 0.99254924
-1.6692773 0.70996094 -0.032668609 0.99276918
-1.5087304 0.70993161 -0.030028952 0.99335146
-1.4607812 0.70995116 -0.029250145 0.99352336
-1.2914063 0.70994139 -0.026539916 0.99412167
-1.2537891 0.70995116 -0.025948867 0.99425226
-1.1503906 0.70994139 -0.024345474 0.99460644
-1.0588866 0.70995116 -0.02295967 0.99491268
-1.0390429 0.77503902 -0.023344802 0.99482751
-1.0389843 0.79551756 -0.023566552 0.99477857
-1.0389062 0.81639647 -0.023796348 0.99472791
-1.0388281 0.85942382 -0.02428112 0.99462068
-1.038789 0.8815918 -0.024536971 0.99456412
-1.0387499 0.90422851 -0.024802284 0.99450552
-1.038711 0.92740232 -0.025077172 0.99444467
-8.1276369 7.6324315 -0.20079246 0.95637476
-7.7243357 7.6279588 -0.19550742 0.95749885
-7.3415036 7.6237011 -0.19060585 0.95854151
-6.6296482 7.6158004 -0.18184166 0.96040982
-6.4616013 7.613945 -0.17984253 0.96083617
-6.1363473 7.610332 -0.17605899 0.96164423
-6.0927343 7.7536621 -0.17758925 0.96131736
-6.0905075 7.9545407 -0.1804235 0.96071237
-6.1714063 8.273613 -0.18588218 0.95954722
-6.1595311 9.7059278 -0.20700428 0.95505232
-6.1380076 11.164961 -0.22945431 0.95030528
-6.0976562 13.851436 -0.27255604 0.94124991
-6.8137498 21.903368 -0.41310984 0.91231519
-6.2594919 22.061659 -0.41299689 0.91233802
-2.4142969 9.403203 -0.17483687 0.96190548
-2.196367 9.5439358 -0.1763715 0.96157765
-1.8642578 8.5935154 -0.15835994 0.96543229
-1.663711 8.7214451 -0.15990028 0.96510285
-2.1505077 14.152822 -0.25780761 0.94433868
-2.2231054 22.039248 -0.39892477 0.91519445
-1.3902735 22.097841 -0.39875525 0.91522944
-1.1123437 22.110653 -0.39869869 0.91524011
-0.55621094 22.125332 -0.3985855 0.91526318
-0.27808592 22.127344 -0.39852893 0.91527498
0 22.126015 -0.39847237 0.91528624
0.20648438 16.431143 -0.29593652 0.93637389
0.41308594 16.432421 -0.29602885 0.93635452
9.1051559 22.996992 -0.44543913 0.90578651
9.0897655 21.372675 -0.41826957 0.91126978
9.0827732 20.632334 -0.4059833 0.91376036
9.6276169 19.809677 -0.39666098 0.91565508
9.8742962 19.68416 -0.39660048 0.91566724
10.119336 19.555567 -0.3965404 0.91567945
10.362695 19.423925 -0.39648071 0.91569167
10.604336 19.289267 -0.39642143 0.91570389
11.0825 19.011084 -0.39630416 0.91572756
11.318828 18.86751 -0.39624617 0.9157396
11.553437 18.72121 -0.39618865 0.91575068
12.245585 18.264618 -0.39601892 0.91578525
10.825352 15.715683 -0.34367523 0.92649609
12.697089 17.945986 -0.39590821 0.91580826
13.797871 18.020781 -0.4087469 0.91319978
14.021679 17.843964 -0.40870154 0.91320908
14.462461 17.482059 -0.40861228 0.9132275
15.106289 16.919209 -0.40848187 0.91325372
15.316093 16.726288 -0.4084394 0.91326243
9.7630072 9.8864355 -0.25023013 0.94592959
10.005703 9.8807125 -0.25324738 0.94529569
16.327988 15.72373 -0.40823454 0.91330373
16.522577 15.515683 -0.40819517 0.91331238
16.90414 15.092813 -0.40811801 0.91332757
17.274902 14.660546 -0.40804303 0.91334283
17.456152 14.440976 -0.40800634 0.91335052
17.634882 14.219356 -0.40797022 0.91335696
1.2698632 0.94721675 -0.02853073 0.99368209
1.2699804 0.89850587 -0.028016547 0.99379557
1.27 0.87480468 -0.027773133 0.99384946
1.2700781 0.85151362 -0.027537765 0.99390125
1.2701172 0.82861328 -0.027310714 0.99395132
1.2914063 0.70995116 -0.026539687 0.99412161
1.3719727 0.70995116 -0.027820395 0.99383897
1.4152734 0.70993161 -0.028515052 0.9936856
1.6127148 0.70996094 -0.03173355 0.99297535
1.8611327 0.70997071 -0.035873182 0.99206257
1.9998437 0.70582032 -0.038192671 0.99155152
20.904219 6.5029297 -0.39426535 0.91614234
21.060547 5.9754295 -0.39425638 0.91614419
21.133749 5.7102442 -0.39425299 0.91614503
21.203711 5.4441895 -0.39425024 0.9161455
16.829725 3.6510155 -0.31014001 0.93342382
21.503553 4.1020212 -0.39424735 0.9161461
21.553476 3.8314843 -0.39424896 0.9161458
21.643085 3.288662 -0.39424986 0.91614532
22.786835 3.1700389 -0.4143289 0.91206861
23.943495 -4.8800583 -0.44006637 0.90686756
21.275116 -5.1784568 -0.39433378 0.91612786
21.209063 -5.4455466 -0.39434752 0.91612524
1.9998437 -0.70580077 -0.038192634 0.99155158
1.8611718 -0.70994139 -0.035873376 0.99206245
1.6692969 -0.70996094 -0.032668762 0.99276912
1.5592577 -0.70995116 -0.030855102 0.99316925
1.5087109 -0.70996094 -0.030028686 0.99335146
1.4607812 -0.70996094 -0.029250029 0.99352336
1.4152734 -0.70994139 -0.028514938 0.99368554
1.3307421 -0.70996094 -0.027162705 0.99398404
1.2914063 -0.70994139 -0.026539916 0.99412167
1.2702343 -0.76203126 -0.026676634 0.99409145
1.2701563 -0.80604488 -0.027091788 0.99399978
1.2700781 -0.8515234 -0.027537765 0.99390125
1.2700195 -0.87481445 -0.027772903 0.99384934
1.2699609 -0.89851558 -0.028016586 0.99379563
1.2699219 -0.92263669 -0.028269004 0.99373984
1.2698828 -0.94722652 -0.028530577 0.99368203
18.431757 -14.112538 -0.4180702 0.91131073
18.254608 -14.344365 -0.41810653 0.91130298
17.70578 -15.02622 -0.41821891 0.91128021
17.517149 -15.248916 -0.4182575 0.91127253
17.325743 -15.469267 -0.41829669 0.91126472
9.9683199 -9.1278706 -0.24339187 0.94736272
8.096797 -8.4078903 -0.21021506 0.95437539
7.8790035 -8.3902636 -0.20726696 0.95499742
7.8856249 -8.6116695 -0.21028812 0.95436019
15.265664 -17.536377 -0.41871807 0.91117954
15.045761 -17.728807 -0.41876301 0.91117013
14.598633 -18.105244 -0.41885439 0.91115177
13.910546 -18.648838 -0.41899496 0.91112334
13.67662 -18.824266 -0.41904274 0.91111392
12.961953 -19.333124 -0.41918868 0.91108423
12.719511 -19.496767 -0.41923824 0.91107422
12.47496 -19.657393 -0.41928813 0.91106421
11.222929 -20.414423 -0.41954368 0.91101217
10.966933 -20.556532 -0.41959593 0.91100103
10.709082 -20.695341 -0.41964853 0.91099036
9.9251947 -21.092157 -0.41980845 0.91095853
9.6606445 -21.218027 -0.41986242 0.91094726
8.857461 -21.575293 -0.42002624 0.91091484
8.5868359 -21.687891 -0.42008141 0.91090304
8.3147459 -21.796944 -0.42013687 0.91089183
8.041152 -21.902451 -0.42019263 0.91088128
7.7663865 -22.004814 -0.42024866 0.91086948
7.2128906 -22.199032 -0.42036146 0.91084647
6.3736715 -22.464169 -0.42053252 0.9108122
6.0917187 -22.545605 -0.42058998 0.9108004
5.8087497 -22.623514 -0.42064765 0.9107886
5.5247655 -22.69787 -0.42070547 0.91077679
4.9539452 -22.835712 -0.42082179 0.91075379
4.6673045 -22.899511 -0.4208802 0.91074127
1.7207421 -9.0203218 -0.16537639 0.96392876
3.8024609 -23.068729 -0.42105633 0.91070592
3.5127733 -23.117889 -0.42111534 0.91069412
2.6400781 -23.24369 -0.42129302 0.91065812
2.3480859 -23.278114 -0.42135245 0.9106468
2.0556836 -23.309326 -0.42141196 0.91063386
1.762871 -23.336592 -0.4214716 0.91062188
1.1761913 -23.380009 -0.42159101 0.91059822
0.22640625 -9.0053806 -0.16223094 0.96460289
0.29429686 -23.417782 -0.42177045 0.91056162
3.9062499e-05 -23.423037 -0.42183036 0.91054922
-0.29435545 -23.424442 -0.42189026 0.91053736
-1.1775585 -23.406786 -0.42206991 0.91050059
-1.4717773 -23.393242 -0.42212981 0.91048926
-2.0597656 -23.355507 -0.42224938 0.910465
-2.6468163 -23.303017 -0.42236876 0.91044062
-1.1344336 -8.9798632 -0.16300632 0.96443695
-1.4742968 -8.9443655 -0.16324393 0.96438366
-1.5891016 -8.9391994 -0.16351157 0.96432853
-1.4578906 -7.6425977 -0.14009513 0.96935278
-1.5599219 -7.6535349 -0.14066719 0.96923459
-4.9777732 -22.945419 -0.42284265 0.91034484
-5.2664061 -22.884071 -0.42290133 0.91033357
-5.5543551 -22.819433 -0.42295989 0.910321
-5.841445 -22.750868 -0.42301819 0.91030961
-6.1277733 -22.678974 -0.42307639 0.91029716
-6.4131055 -22.603203 -0.42313433 0.91028571
-6.9810157 -22.441141 -0.42324972 0.91026193
-3.789336 -8.9098635 -0.17436913 0.96200556
-6.7090039 -14.257412 -0.28377163 0.93890738
-6.7028317 -13.791728 -0.27616021 0.9404968
-6.6969137 -13.350264 -0.26898468 0.94199729
-6.6913867 -12.931103 -0.26221174 0.94341528
-4.7811327 -8.9617577 -0.18293476 0.96017849
-4.8901563 -8.895195 -0.18280765 0.96020389
-4.8395505 -8.0670795 -0.16941974 0.96306378
-6.2772264 -8.8720999 -0.19572841 0.95745188
-6.2746091 -8.6361618 -0.19224818 0.95819247
-6.4863477 -8.4714451 -0.19215129 0.95821327
-6.6554294 -8.4695892 -0.19399054 0.95782173
-7.7445116 -8.45751 -0.20652439 0.95515847
-7.9401755 -8.4553318 -0.20889094 0.9546563
-8.1403513 -8.4530954 -0.21134883 0.95413578
-8.5554295 -8.4484959 -0.21653987 0.95303553
-8.7707815 -8.4461231 -0.21928798 0.95245415
-1.0386914 -0.92740232 -0.025077209 0.99444473
-1.0388086 -0.88158202 -0.024537086 0.99456406
-1.0388671 -0.85941404 -0.024281196 0.99462056
-1.0389062 -0.8376953 -0.024034461 0.9946751
-1.0389843 -0.79554683 -0.023566589 0.99477851
-1.0390625 -0.77504879 -0.023344878 0.99482745
-1.0391015 -0.75493163 -0.023130646 0.99487478
-1.0882031 -0.70995116 -0.023399962 0.99481541
-1.1186719 -0.70994139 -0.02386154 0.99471343
-1.1503711 -0.70995116 -0.024345359 0.99460649
-1.2178515 -0.70995116 -0.02538719 0.99437624
-1.3719531 -0.70994139 -0.02782009 0.99383903
-1.4152343 -0.70995116 -0.028514938 0.99368566
-1.4607812 -0.70995116 -0.029250069 0.99352336
-1.5592968 -0.70995116 -0.030855063 0.99316907
-1.6692578 -0.70994139 -0.032668266 0.99276924
-1.7766796 -0.70343751 -0.034413375 0.99238443
-1.7766211 -0.65225583 -0.034084015 0.99245709
-21.192343 -7.1814551 -0.40297657 0.91437107
-21.281874 -6.9149022 -0.40299451 0.91436738
-21.368124 -6.6472459 -0.40301177 0.91436338
-21.605898 -5.837822 -0.4030593 0.91435421
-21.67828 -5.5660348 -0.40307373 0.91435146
-21.812792 -5.0198436 -0.40310049 0.91434586
-21.874882 -4.7454882 -0.40311286 0.91434318
-21.975977 -4.4790626 -0.40390521 0.91418189
-22.48369 -4.2889938 -0.41221377 0.91249621
-24.383633 -0 -0.50670809 0.90705192
-24.352539 1.2251562 -0.50670046 0.90705299
-24.288359 2.142041 -0.50668639 0.90705556
-24.259218 2.4470508 -0.50668013 0.90705669
-24.189375 3.0558496 -0.50666523 0.90705919
-24.148516 3.3594823 -0.50665665 0.90706116
-24.104004 3.6626074 -0.50664723 0.90706259
-18.971815 3.8667674 -0.40235192 0.92546016
-18.921289 4.1047459 -0.40234137 0.92546189
-18.751503 4.8145704 -0.40230605 0.92546809
-18.688749 5.0496192 -0.40229309 0.92547107
-18.623163 5.2838864 -0.40227947 0.92547357
-18.554766 5.517324 -0.40226531 0.92547566
-18.331524 6.2120118 -0.40221915 0.92548388
-18.251268 6.4416308 -0.40220255 0.9254868
-1.7775195 0.6780566 -0.039534263 0.99241745
-1.7774999 0.70378906 -0.039728355 0.9923805
-1.6692773 0.70996094 -0.037695996 0.99276876
-1.6127148 0.70995116 -0.036617201 0.992975
-1.5087109 0.70995116 -0.034650154 0.99335116
-1.4607812 0.70997071 -0.03375141 0.99352294
-1.3719921 0.70994139 -0.032101594 0.99383855
-1.2914063 0.70994139 -0.030624161 0.99412131
-1.2537891 0.70995116 -0.029942092 0.99425197
-1.2178711 0.70996094 -0.029294128 0.99437588
-1.1834179 0.70995116 -0.028678207 0.99449384
-1.1503906 0.70994139 -0.028091963 0.99460614
-1.0588866 0.70995116 -0.026492767 0.99491245
-1.0384766 0.71533203 -0.026204489 0.99496758
-1.0382812 0.79496092 -0.027174376 0.99478185
-1.038164 0.83710933 -0.02771347 0.99467856
-1.0381055 0.8587988 -0.027997779 0.99462414
-1.0380468 0.88096678 -0.028292617 0.99456769
-1.0380077 0.90358394 -0.028598251 0.99450916
-1.0378516 0.95037109 -0.029243659 0.9943856
-8.1276369 7.6324315 -0.23169439 0.95637244
-7.7243748 7.6279588 -0.22559285 0.95749652
-7.5305076 7.6257911 -0.22271232 0.95802772
-7.3415232 7.6236911 -0.21993862 0.95853931
-7.1571484 7.6216698 -0.21726948 0.95903236
-6.9771872 7.619668 -0.21469527 0.95950758
-6.8014059 7.6177149 -0.21221401 0.95996588
-6.6296287 7.6157908 -0.20982406 0.96040779
-6.4616013 7.6139355 -0.20751868 0.96083415
-6.2972655 7.6120996 -0.20529647 0.96124542
-6.0927148 7.7536521 -0.20491835 0.96131539
-6.090488 7.9545312 -0.20818779 0.96071035
-6.1527147 9.6952047 -0.23861328 0.95509851
-6.1241403 11.834931 -0.27691552 0.94808251
-6.1193748 12.198848 -0.2836068 0.94686151
-7.0862889 18.57666 -0.41316885 0.92353499
-6.8515234 18.662079 -0.41312099 0.92354351
-6.0476561 17.135176 -0.3776091 0.92987972
-6.0477343 18.613007 -0.40669349 0.92468661
-5.6628513 19.044296 -0.41287872 0.92358655
-5.1812305 19.175938 -0.41278061 0.92360437
-2.3050001 9.4699707 -0.20253825 0.96175623
-2.196367 9.5439358 -0.20351344 0.96157563
-1.8642578 8.5935354 -0.18273491 0.96543038
-1.7636914 8.6534081 -0.18352088 0.96528405
-1.6787499 13.288877 -0.27834523 0.94782108
-2.1510155 18.938192 -0.3960785 0.9265787
-1.9263281 19.097178 -0.39886752 0.9260816
-1.5988281 18.129013 -0.37819567 0.92977446
-1.2047656 19.149179 -0.39872065 0.9261077
-0.96390623 19.160498 -0.39867163 0.92611629
0.96296871 19.141611 -0.39827958 0.92618632
1.5150976 24.08119 -0.50141293 0.90797716
1.8173437 24.057373 -0.50135142 0.90798765
2.1192381 24.029589 -0.50129002 0.90799874
2.420742 23.998037 -0.50122875 0.90800977
3.6216795 23.834482 -0.50098455 0.9080525
3.9204297 23.784384 -0.50092381 0.90806246
4.2184958 23.730371 -0.50086319 0.90807301
4.5157809 23.67251 -0.50080281 0.90808403
4.8123436 23.611181 -0.5007425 0.90809411
5.1080465 23.545889 -0.50068241 0.90810508
5.6967578 23.404463 -0.50056279 0.90812612
6.2816796 23.248613 -0.50044394 0.90814608
6.8623438 23.077978 -0.50032598 0.90816665
7.4383397 22.892744 -0.50020897 0.90818763
7.7244921 22.794716 -0.50015086 0.90819818
8.2929688 22.588242 -0.50003541 0.9082182
8.8559761 22.367588 -0.49992111 0.90823817
9.0935545 22.150341 -0.49758074 0.9086476
9.0730467 20.610254 -0.46795958 0.91384417
9.055234 19.888281 -0.45411575 0.91628325
9.0478516 19.227577 -0.44159022 0.91849536
9.0422268 18.605185 -0.42987359 0.92056996
9.2064447 16.746416 -0.39712328 0.92639232
9.4064846 16.612343 -0.39671692 0.92646503
9.8184767 16.366552 -0.39661589 0.92648304
10.424453 15.978887 -0.39646727 0.9265095
10.48 15.214248 -0.38390949 0.92875195
11.40041 15.283642 -0.39622802 0.92655176
11.590097 15.137304 -0.39618149 0.92656058
11.778047 14.98873 -0.39613539 0.92656875
12.330332 14.52914 -0.39600003 0.92659318
12.510644 14.371562 -0.39595583 0.92660052
12.688769 14.211562 -0.39591217 0.92660874
13.46707 14.340947 -0.40881813 0.92430907
9.7590036 9.8824024 -0.28862008 0.9459483
10.00375 9.8787985 -0.29216355 0.94530314
14.334844 13.461299 -0.4086425 0.92434013
14.501621 13.278975 -0.40860876 0.92434633
14.666171 13.094667 -0.40857548 0.92435211
15.300703 12.337285 -0.40844718 0.92437536
15.453398 12.143134 -0.40841633 0.92438066
15.603613 11.9471 -0.40838596 0.92438608
1.2690625 0.92203122 -0.032597121 0.99374372
1.2691406 0.89792967 -0.032306328 0.99379927
1.2692187 0.85093749 -0.031754568 0.99390501
1.2693359 0.8055371 -0.03124073 0.9940033
1.269375 0.78336912 -0.030997008 0.99404997
1.2694141 0.76152343 -0.030761948 0.99409497
1.269453 0.74002928 -0.030535545 0.99413836
1.2695312 0.71882808 -0.030316772 0.99418008
1.3307421 0.70995116 -0.031342965 0.99398375
1.3719921 0.70995116 -0.032101631 0.99383855
1.4153124 0.70995116 -0.032903098 0.99368507
1.5593164 0.70997071 -0.035603523 0.99316859
1.6127539 0.70996094 -0.036617126 0.99297482
1.6693358 0.70997071 -0.037695922 0.99276853
1.729375 0.70997071 -0.038847197 0.99254853
1.8611327 0.70997071 -0.041393965 0.99206215
1.9338086 0.70996094 -0.042807311 0.99179202
2.0017967 0.65044922 -0.043739583 0.99161428
18.143906 5.644248 -0.39486587 0.92679524
18.279745 5.1864352 -0.394858 0.92679632
16.810175 3.8685741 -0.358457 0.93331438
18.664219 3.5604002 -0.39485019 0.92679811
18.707382 3.3255565 -0.39484712 0.92679852
20.976992 3.1874707 -0.4409202 0.91861385
23.759356 2.6986327 -0.49690974 0.90876466
23.791113 2.3998144 -0.4969036 0.90876567
23.863983 1.5013964 -0.49688971 0.90876812
23.880819 1.2013769 -0.49688661 0.90876865
23.910723 -1.953125e-05 -0.49688181 0.90876973
23.908827 -0.30046874 -0.49688253 0.90876973
23.8808 -1.2013867 -0.49688917 0.90876871
23.843613 -1.8011913 -0.49689737 0.90876675
23.819258 -2.1006737 -0.49690267 0.90876615
23.791229 -2.3998535 -0.49690872 0.9087652
23.642206 -3.5924218 -0.49694028 0.90875936
23.595585 -3.889287 -0.49695006 0.90875793
23.545429 -4.185586 -0.49696058 0.90875578
18.148672 -5.6457129 -0.39497039 0.92677677
2.0017967 -0.65041989 -0.043739129 0.99161428
1.8611718 -0.70994139 -0.041393623 0.99206203
1.7293359 -0.70993161 -0.038846664 0.99254876
1.6692969 -0.70996094 -0.037695922 0.9927687
1.6127343 -0.70995116 -0.036616821 0.99297494
1.5087109 -0.70994139 -0.034649886 0.99335116
1.4607812 -0.70994139 -0.033751298 0.993523
1.3719921 -0.70993161 -0.032101288 0.99383861
1.3307421 -0.70996094 -0.031342696 0.99398375
1.2695312 -0.71883786 -0.030316696 0.99418008
1.2694726 -0.74002928 -0.03053524 0.9941383
1.269453 -0.7615332 -0.030761948 0.99409479
1.2692969 -0.82805663 -0.031493034 0.99395496
1.2692382 -0.85094726 -0.031754531 0.99390495
1.2690039 -0.94654292 -0.032898635 0.99368614
15.992538 -12.244931 -0.41856453 0.92257619
15.838573 -12.445829 -0.41859606 0.92257071
15.523222 -12.841904 -0.41866064 0.9225592
15.198047 -13.230126 -0.41872725 0.9225471
9.9683199 -9.1278811 -0.28085658 0.94735992
14.692226 -13.796943 -0.41883075 0.92252874
14.34334 -14.164228 -0.41890213 0.92251599
13.985312 -14.522763 -0.41897535 0.92250288
13.242715 -15.212558 -0.4191272 0.92247617
12.858574 -15.543388 -0.4192057 0.92246264
12.466328 -15.864697 -0.41928583 0.92244816
12.066133 -16.176191 -0.41936758 0.92243326
11.863047 -16.328106 -0.4194091 0.9224261
11.658125 -16.477598 -0.41945094 0.92241842
11.242656 -16.768702 -0.41953582 0.92240345
10.605879 -17.18581 -0.41966578 0.92238063
10.390254 -17.319599 -0.4197098 0.92237246
10.172871 -17.450693 -0.41975418 0.92236441
9.5109568 -17.827393 -0.41988924 0.92234069
9.0618944 -18.064726 -0.41998088 0.92232442
8.8351173 -18.17914 -0.42002714 0.92231637
8.6069136 -18.290712 -0.42007369 0.92230827
8.1464453 -18.505459 -0.4201676 0.92229116
6.4944334 -19.164902 -0.42050445 0.92223144
6.2537889 -19.247217 -0.42055351 0.92222285
5.0358787 -19.613457 -0.4208017 0.92217892
4.5424609 -19.738447 -0.42090219 0.9221614
4.2946286 -19.796465 -0.42095268 0.92215192
4.0460157 -19.851259 -0.42100334 0.92214292
3.546699 -19.951454 -0.42110503 0.92212498
3.2961524 -19.996962 -0.42115608 0.92211556
3.0449414 -20.039219 -0.42120722 0.92210656
2.5410352 -20.114248 -0.42130983 0.92208856
2.2883594 -20.147139 -0.4213613 0.92207915
2.0352342 -20.176727 -0.4214128 0.92207015
1.7817578 -20.203144 -0.42146444 0.92206115
1.5279297 -20.226376 -0.42151609 0.92205209
1.273789 -20.246532 -0.42156783 0.92204267
1.0194141 -20.263369 -0.42161959 0.92203373
-0.25511718 -20.299852 -0.42187896 0.92198771
-0.51025391 -20.297607 -0.42193091 0.92197829
-0.76535153 -20.292158 -0.42198277 0.92196882
-1.0204102 -20.283251 -0.42203462 0.92196029
-1.2753711 -20.271397 -0.42208651 0.92195076
-1.5301563 -20.256317 -0.42213836 0.92194134
-1.7848241 -20.237949 -0.42219013 0.92193222
-1.1343945 -8.9798431 -0.18809047 0.96443516
-2.8008008 -20.132528 -0.42239672 0.92189568
-3.0539062 -20.098173 -0.42244819 0.92188662
-1.4742968 -8.9443359 -0.18837029 0.96438187
-1.5890625 -8.9391994 -0.18867576 0.96432662
-1.5599023 -7.6535058 -0.16231418 0.9692331
-5.3083982 -19.646454 -0.4229064 0.92180508
-5.5554686 -19.580439 -0.42295662 0.9217965
-2.661953 -8.9521875 -0.19408534 0.96332312
-6.0472264 -19.439344 -0.42305651 0.92177838
-6.2917576 -19.364052 -0.42310622 0.92176974
-6.5353708 -19.285791 -0.42315573 0.92176062
-6.777988 -19.204346 -0.42320496 0.92175204
-7.0196095 -19.119854 -0.42325404 0.92174333
-3.6745508 -8.9505854 -0.20105064 0.96202934
-6.7217579 -13.399716 -0.31152529 0.94178569
-4.8901563 -8.895195 -0.21094029 0.96020174
-6.6762304 -11.790654 -0.28157154 0.94723308
-6.6716795 -11.444707 -0.27528965 0.94837916
-6.6630664 -10.796865 -0.2636517 0.95050645
-6.3204684 -8.4733105 -0.21967243 0.9585889
-6.6554294 -8.4695892 -0.22384374 0.95781946
-6.8277149 -8.4676657 -0.22604173 0.95741415
-7.0035152 -8.4657125 -0.22832143 0.95699406
-7.1829491 -8.4637299 -0.23068459 0.9565587
-7.7445116 -8.45751 -0.23830527 0.95515609
-8.3453712 -8.45084 -0.24681139 0.95359325
-8.7708006 -8.4461327 -0.25303298 0.95245159
-8.9916792 -8.4436712 -0.25632563 0.95184827
-1.0378516 -0.95038086 -0.029243698 0.9943856
-1.0379101 -0.92672849 -0.028915176 0.99444854
-1.0380077 -0.90358394 -0.028598288 0.99450916
-1.0381055 -0.8587988 -0.027997779 0.99462414
-1.038164 -0.8371191 -0.027713355 0.99467856
-1.0382812 -0.79497069 -0.027174301 0.99478185
-1.0383399 -0.77451169 -0.026918868 0.99483073
-1.0383984 -0.75444335 -0.026672171 0.99487793
-1.0384375 -0.734707 -0.026434211 0.99492359
-1.1503711 -0.70995116 -0.028091773 0.9946062
-1.4607421 -0.70993161 -0.033751182 0.99352318
-1.5086914 -0.70994139 -0.034649696 0.99335122
-1.6126952 -0.70992184 -0.036616705 0.99297512
-1.6692578 -0.70994139 -0.037695959 0.99276888
-1.7292968 -0.70994139 -0.038846891 0.99254888
-1.7775195 -0.70376951 -0.039728429 0.99238044
-18.416855 -5.9840035 -0.40241057 0.92544991
-18.562813 -5.5197067 -0.4024398 0.92544454
-18.631289 -5.2861619 -0.40245345 0.92544234
-18.696856 -5.0518064 -0.40246654 0.92543995
-18.875723 -4.3439355 -0.40250221 0.92543334
-19.915741 -4.3204784 -0.42348701 0.92170179
-21.094082 -4.2993064 -0.44735992 0.91747528
-22.437168 -4.280117 -0.47466853 0.91266465
-23.962734 -4.2597852 -0.50576967 0.90721601
-24.104414 -3.6626561 -0.50665516 0.9070611
-24.189648 -3.0558691 -0.50667185 0.90705818
-24.288477 -2.1420507 -0.50669098 0.90705514
-24.375898 -0.61273438 -0.50670713 0.90705204
-24.381718 -0.30639648 -0.50670797 0.90705186
-21.482109 0.54001951 -0.50611711 0.91761309
-21.461639 1.0796973 -0.5061124 0.91761351
-21.446289 1.3492968 -0.50610894 0.91761386
-21.405155 1.8877636 -0.50610006 0.91761553
-21.379511 2.1565721 -0.50609452 0.91761637
-21.282207 2.9607325 -0.50607389 0.91761947
-21.200409 3.4945116 -0.50605667 0.91762197
-18.222109 3.7139647 -0.43799892 0.92829323
-17.080507 3.7054393 -0.41164452 0.93245846
-16.628359 3.8267479 -0.40187514 0.93400735
-16.413242 4.6568847 -0.40183046 0.9340145
-16.290039 5.0675583 -0.40180498 0.93401837
-16.224491 5.2716794 -0.40179145 0.93402064
-16.156485 5.4749608 -0.40177739 0.93402261
-16.085819 5.6773534 -0.40176275 0.93402493
-1.7783203 0.6529004 -0.044617422 0.99244899
-1.7783399 0.67838866 -0.04482872 0.99241346
-1.7292968 0.70996094 -0.044028319 0.99254841
-1.6127148 0.70995116 -0.041501157 0.99297458
-1.5592773 0.70996094 -0.040352285 0.99316835
-1.5087109 0.70995116 -0.039271429 0.99335074
-1.4607812 0.70997071 -0.038252905 0.99352258
-1.2913672 0.70996094 -0.034708787 0.99412107
-1.217832 0.70996094 -0.03320137 0.99437565
-1.1503906 0.70994139 -0.031838834 0.99460584
-1.0882031 0.70995116 -0.030602532 0.99481481
-1.0377734 0.71484375 -0.029679755 0.99497068
-1.0377344 0.73419923 -0.029939728 0.99492669
-1.0376172 0.77398437 -0.030488318 0.99483401
-1.0375 0.81525391 -0.031077309 0.99473453
-1.0374609 0.83650386 -0.031387787 0.99468195
-1.0373828 0.85820311 -0.031709708 0.99462754
-1.0373242 0.88034177 -0.032043379 0.99457115
-1.0372266 0.90293944 -0.032388952 0.99451286
-1.0370703 0.94967771 -0.033119697 0.99438941
-8.1276369 7.6324315 -0.26259694 0.95636988
-7.7243748 7.6279588 -0.25568172 0.95749396
-7.5305076 7.6257911 -0.25241855 0.95802516
-6.9771872 7.619668 -0.24332915 0.95950514
-6.2972655 7.6120996 -0.23267825 0.96124309
-6.0926952 7.7536325 -0.23224813 0.96131319
-6.1487498 9.9635248 -0.27575389 0.95423502
-6.1450977 10.24336 -0.28133902 0.95332998
-6.1412301 10.534834 -0.28720146 0.95238096
-6.1148438 12.581865 -0.32945952 0.9455657
-7.2698827 15.967119 -0.41320899 0.93221074
-6.8649607 16.141514 -0.41312644 0.93222392
-6.6609373 16.224932 -0.41308483 0.93223023
-6.2498436 16.383867 -0.413001 0.93224353
-5.8349218 16.532305 -0.41291639 0.93225718
-5.4165235 16.670332 -0.41283116 0.93227041
-5.2060547 16.735302 -0.41278824 0.93227738
-4.7828903 16.857412 -0.41270202 0.93229067
-2.414336 9.4031935 -0.22865072 0.96190119
-2.3050194 9.4699707 -0.22955219 0.9617539
-1.8642383 8.5935249 -0.20710929 0.96542835
-1.6636719 8.7214546 -0.20911457 0.96509886
-2.1505077 14.152793 -0.3371605 0.9443326
-1.6787499 13.288867 -0.31547168 0.94781798
-1.699414 16.84796 -0.39882377 0.93449163
-1.4874219 16.866211 -0.39878058 0.93449831
-1.2752734 16.881758 -0.3987374 0.93450511
-0.63785154 16.912266 -0.3986077 0.93452591
-0.42527342 16.917149 -0.39856446 0.93453264
-0.21259765 16.919277 -0.39852116 0.93453968
0 16.918818 -0.39847794 0.93454635
0.20652343 16.431299 -0.38702723 0.9363662
0.41308594 16.432598 -0.38715062 0.93634677
0.63748044 16.901299 -0.39834824 0.93456692
0.84970701 16.890009 -0.39830506 0.93457419
2.1361327 21.176514 -0.50128961 0.91836578
2.4017577 21.145742 -0.5012356 0.91837412
2.6670702 21.111767 -0.50118166 0.91838199
3.7228515 20.942089 -0.50096703 0.91841561
3.9852343 20.89123 -0.50091374 0.91842467
4.5080466 20.780176 -0.50080746 0.91844088
4.7683201 20.719687 -0.50075459 0.91844916
5.0277734 20.655956 -0.50070184 0.91845739
5.5441012 20.518818 -0.50059694 0.91847366
5.8009372 20.445469 -0.50054479 0.91848147
6.0567188 20.36869 -0.50049281 0.91849023
6.3115625 20.288935 -0.50044101 0.91849804
7.3199606 19.938046 -0.50023621 0.91852999
7.5691795 19.84248 -0.50018561 0.91853786
8.3091402 19.537178 -0.50003541 0.91856152
9.036953 19.204502 -0.49988765 0.91858435
9.0295506 18.000185 -0.47429672 0.92258626
9.0223627 17.435585 -0.46237341 0.92445725
9.0154486 16.898642 -0.45110053 0.926229
9.0102539 16.38957 -0.4404996 0.92789865
8.996172 14.577343 -0.40344855 0.93375778
9.2046871 14.109179 -0.39676782 0.93481785
9.5542774 13.870361 -0.39668211 0.93483162
9.8976955 13.622969 -0.39659789 0.93484509
10.234804 13.367197 -0.39651528 0.93485808
10.400898 13.236172 -0.39647451 0.93486452
10.565312 13.103076 -0.39643425 0.93487102
10.889101 12.830898 -0.39635485 0.93488348
11.048359 12.691768 -0.39631584 0.93488985
11.205878 12.550694 -0.39627719 0.93489599
11.361601 12.407695 -0.39623904 0.93490207
11.515508 12.262744 -0.39620131 0.93490821
10.001836 9.8768845 -0.33106911 0.94531012
12.112656 11.664394 -0.39605498 0.93493128
12.540332 11.196601 -0.39595023 0.93494803
12.678965 11.037207 -0.39591631 0.93495333
12.815547 10.876064 -0.39588293 0.93495882
13.779922 10.550772 -0.40875849 0.93291581
1.2681249 0.94590819 -0.037261236 0.99369001
1.2682617 0.89731443 -0.036590651 0.99380314
1.2683984 0.85040039 -0.035966299 0.99390858
1.2686328 0.76104492 -0.034842871 0.99409825
1.2686523 0.73957032 -0.034586295 0.99414164
1.3307617 0.70997071 -0.035523262 0.99398327
1.4153124 0.70995116 -0.037291907 0.99368471
1.6693358 0.70997071 -0.042724151 0.99276811
1.793164 0.70995116 -0.045422059 0.99231321
1.9338086 0.70996094 -0.048516691 0.99179155
2.0040429 0.70731443 -0.050053213 0.99153286
2.0039649 0.67909181 -0.04983421 0.99156976
16.088633 4.7839942 -0.39532301 0.93504751
16.147343 4.5814161 -0.39531982 0.93504798
16.257168 4.1741405 -0.39531502 0.93504882
16.356815 3.7642381 -0.39531243 0.93504924
16.446014 3.3519726 -0.39530721 0.93505013
17.029882 3.2486131 -0.40832743 0.93298411
18.152735 3.2269726 -0.4342446 0.92888552
19.455313 3.2068553 -0.46440214 0.92413861
20.883183 3.1732128 -0.49749443 0.91895789
21.015118 2.1198144 -0.49746871 0.918962
21.094433 1.0612109 -0.49745372 0.91896445
21.105976 0.79605466 -0.49745163 0.91896486
21.09453 -1.0612011 -0.49745595 0.91896409
21.061405 -1.5910156 -0.49746326 0.91896331
20.987324 -2.3837695 -0.49747917 0.91896015
20.955936 -2.6473436 -0.49748585 0.91895932
20.883514 -3.1732421 -0.49750113 0.91895664
20.587637 -4.7379003 -0.497563 0.91894728
19.830624 -4.8268552 -0.48069534 0.92158425
18.747929 -4.8136325 -0.45588046 0.92547739
17.771328 -4.8017282 -0.43356746 0.92899227
16.12207 -4.7939453 -0.39614493 0.93491697
2.0039842 -0.67906249 -0.049834136 0.99156976
1.7931445 -0.70992184 -0.045422211 0.99231333
1.7293359 -0.70993161 -0.044028472 0.99254829
1.5592968 -0.70993161 -0.040352173 0.99316835
1.4607812 -0.70994139 -0.038252942 0.99352264
1.4153124 -0.70994139 -0.037291832 0.99368471
1.3719921 -0.70993161 -0.036383286 0.99383819
1.2914063 -0.70992184 -0.034708329 0.99412102
1.2686328 -0.76103514 -0.034842871 0.99409825
1.2685742 -0.7828418 -0.035108719 0.99405336
1.2685156 -0.80500001 -0.035384443 0.99400681
1.2683984 -0.85038084 -0.035966337 0.99390858
1.2683399 -0.87364256 -0.036272965 0.99385679
1.2682226 -0.92136717 -0.036920011 0.99374759
13.987128 -10.990986 -0.41897124 0.93129897
13.848866 -11.16667 -0.41899955 0.93129432
13.708457 -11.340605 -0.41902831 0.93128955
13.565801 -11.512774 -0.41905752 0.93128496
12.973906 -12.183369 -0.41917863 0.93126595
12.508359 -12.666543 -0.41927391 0.93125093
12.024902 -13.132099 -0.41937277 0.93123519
7.8682227 -8.8124704 -0.27824646 0.95383102
11.693027 -13.432373 -0.4194406 0.93122423
11.353613 -13.724189 -0.41950995 0.9312135
11.181231 -13.866943 -0.4195452 0.93120784
11.007011 -14.007568 -0.41958079 0.93120217
10.831094 -14.145986 -0.41961673 0.93119639
10.474004 -14.41624 -0.41968971 0.93118477
10.110214 -14.67749 -0.41976398 0.93117303
9.3633785 -15.172431 -0.41991645 0.93114895
8.7873049 -15.518857 -0.42003402 0.93113053
8.1985159 -15.843584 -0.42015418 0.9311114
7.9995117 -15.946875 -0.42019477 0.93110514
7.7992578 -16.047686 -0.42023566 0.9310987
7.597734 -16.146044 -0.42027676 0.93109202
6.9858985 -16.425898 -0.42040151 0.93107194
6.7795897 -16.513975 -0.42044359 0.93106556
6.36375 -16.682499 -0.42052841 0.93105209
5.5197849 -16.988115 -0.42070043 0.93102491
5.0921679 -17.125 -0.42078757 0.93101114
4.8770895 -17.189375 -0.42083141 0.93100441
4.2270703 -17.366415 -0.42096385 0.93098354
4.0089259 -17.42001 -0.42100829 0.93097651
3.790117 -17.470957 -0.42105284 0.93096912
3.5706639 -17.518974 -0.42109755 0.93096232
2.6870508 -17.68376 -0.42127752 0.93093407
2.4649217 -17.718174 -0.42132276 0.93092638
2.242285 -17.74955 -0.42136809 0.93091965
1.5722265 -17.827314 -0.4215045 0.93089771
1.3482226 -17.847548 -0.42155012 0.93089068
0.67482418 -17.891562 -0.42168716 0.93086874
0.22640625 -9.0053511 -0.21216434 0.96459901
0.22503906 -17.90667 -0.42177871 0.93085456
1.953125e-05 -17.91 -0.42182449 0.93084747
-0.45017576 -17.908329 -0.42191607 0.93083262
-0.67527342 -17.903154 -0.4219619 0.93082553
-1.1251953 -17.884443 -0.4220534 0.93081093
-1.5746288 -17.854404 -0.42214483 0.93079644
-1.7990625 -17.835009 -0.42219046 0.93078965
-2.0232422 -17.812979 -0.42223606 0.9307822
-1.134375 -8.9798431 -0.21317741 0.96443301
-2.4707422 -17.76038 -0.42232704 0.93076771
-2.6940234 -17.729727 -0.42237243 0.93076092
-1.4742968 -8.9442968 -0.21352135 0.96437985
-1.5599023 -7.6534667 -0.18396278 0.96923137
-3.8040428 -17.535009 -0.42259809 0.93072498
-4.0244923 -17.487684 -0.42264289 0.93071789
-4.2443748 -17.437588 -0.42268759 0.93071079
-4.6822267 -17.329023 -0.42277655 0.93069685
-4.9001169 -17.270655 -0.42282084 0.93068975
-2.661953 -8.9521875 -0.2199744 0.96332091
-5.3337302 -17.145733 -0.42290893 0.93067545
-5.764082 -17.009716 -0.42299631 0.93066192
-5.9779687 -16.937666 -0.42303976 0.93065512
-6.1909962 -16.862997 -0.42308304 0.93064803
-6.4030466 -16.785479 -0.4231261 0.93064159
-6.614121 -16.7054 -0.42316893 0.9306348
-3.7893748 -8.9098635 -0.22803894 0.9620012
-4.8901954 -8.895195 -0.23907489 0.9601993
-6.6551952 -10.201221 -0.28687292 0.95243424
-6.6514454 -9.9208107 -0.28131428 0.95333385
-6.6478515 -9.6510448 -0.27601159 0.95419306
-6.2772264 -8.8720999 -0.25597247 0.95744705
-6.2745895 -8.6361523 -0.25141937 0.95818782
-6.3204684 -8.4733105 -0.24897175 0.95858639
-6.4863672 -8.4714746 -0.2512944 0.95820844
-6.6554294 -8.4695892 -0.25369921 0.95781696
-7.3660936 -8.4616995 -0.26422879 0.95610517
-7.9401951 -8.4553614 -0.27318808 0.95465106
-8.5554104 -8.4485054 -0.28319117 0.95303023
-8.7707815 -8.4461231 -0.28678319 0.95244879
-8.9916792 -8.4436817 -0.29051194 0.95184535
-1.0370898 -0.94963866 -0.033119582 0.99438947
-1.0373046 -0.88034177 -0.032043267 0.99457121
-1.0374414 -0.83651364 -0.031387746 0.99468201
-1.0375195 -0.8152734 -0.03107704 0.99473441
-1.0376172 -0.77398437 -0.03048851 0.99483401
-1.0377148 -0.73421872 -0.029939689 0.99492675
-1.0882031 -0.70995116 -0.03060234 0.99481481
-1.1186719 -0.70994139 -0.031205749 0.99471283
-1.1503711 -0.70995116 -0.031838875 0.9946059
-1.2537695 -0.70995116 -0.03393551 0.99425167
-1.2913672 -0.70994139 -0.034708593 0.99412113
-1.3307031 -0.70994139 -0.035523262 0.99398357
-1.7292968 -0.70994139 -0.044028167 0.99254841
-1.7783984 -0.70410156 -0.045049019 0.99237627
-1.7783593 -0.67835939 -0.04482872 0.9924134
-16.231562 -5.2739353 -0.40196517 0.93399292
-16.297031 -5.0697165 -0.40197828 0.93399101
-16.988047 -4.3617969 -0.41308525 0.93223
-21.052656 -4.2908692 -0.50603485 0.91762567
-21.10535 -4.0260739 -0.50604534 0.917624
-21.154726 -3.7606053 -0.50605512 0.91762233
-21.200722 -3.4945605 -0.50606418 0.91762084
-21.282383 -2.9607422 -0.50608021 0.91761881
-21.318241 -2.6931152 -0.50608724 0.91761756
-21.405273 -1.8877538 -0.50610405 0.91761512
-21.446367 -1.3492773 -0.50611186 0.91761357
-21.473633 -0.80991209 -0.50611681 0.91761309
-21.482344 -0.53999025 -0.5061183 0.91761225
-19.207012 0.24138671 -0.50565451 0.92601883
-19.194805 0.72397459 -0.50565153 0.92601907
-19.184101 0.96512693 -0.50564909 0.92601943
-19.133633 1.6874413 -0.50563806 0.92602116
-19.084764 2.1676953 -0.50562763 0.92602271
-19.023769 2.646543 -0.5056147 0.92602456
-18.950703 3.1236815 -0.50559932 0.92602664
-15.046914 3.6624608 -0.40766764 0.93991452
-14.772695 3.7930076 -0.4014976 0.94079632
-14.723437 3.9782226 -0.40148738 0.94079798
-14.618086 4.3467383 -0.40146556 0.94080091
-14.561855 4.5299606 -0.40145391 0.94080263
-14.379492 5.0751071 -0.40141624 0.94080782
-1.7791406 0.6532324 -0.049892537 0.99244499
-1.7792187 0.67872071 -0.050128974 0.99240917
-1.5087109 0.70995116 -0.043894004 0.99335027
-1.4607812 0.70997071 -0.04275547 0.99352211
-1.3719921 0.70996094 -0.040665589 0.99383771
-1.3307031 0.70996094 -0.039704513 0.99398309
-1.2913672 0.70996094 -0.038793869 0.99412066
-1.217832 0.70996094 -0.037109297 0.99437529
-1.1834179 0.70995116 -0.036328964 0.99449313
-1.0588866 0.70997071 -0.033560485 0.99491173
-1.0370312 0.73374021 -0.033441238 0.99492973
-1.0369531 0.75342774 -0.033741873 0.99488431
-1.0368946 0.77345699 -0.034053534 0.99483722
-1.0366796 0.83594728 -0.035057411 0.99468541
-1.0365624 0.87971675 -0.035788953 0.99457473
-1.0364063 0.92537105 -0.036575317 0.99445587
-7.5305271 7.6258006 -0.28212711 0.95802224
-6.8014059 7.6177049 -0.26882905 0.95996076
-6.2972655 7.6120996 -0.26006374 0.96124047
-6.1709766 8.2730169 -0.27169642 0.95954269
-6.1651559 8.7138767 -0.28099564 0.95818728
-6.1621289 8.9459076 -0.28595829 0.95746475
-6.1589451 9.1863089 -0.2911447 0.9567101
-7.2137694 13.940576 -0.41319972 0.93912423
-7.0373826 14.028896 -0.41316375 0.93912941
-6.1148438 12.581855 -0.36824042 0.94556212
-6.6814451 14.198828 -0.41309115 0.93913978
-6.5019531 14.280419 -0.41305453 0.93914485
-6.1398826 14.43666 -0.41298071 0.9391557
-5.7741404 14.583828 -0.41290614 0.93916607
-5.4048438 14.721581 -0.41283083 0.93917704
-5.0322657 14.850068 -0.41275489 0.93918771
-4.4677148 15.024931 -0.41263983 0.93920439
-4.2781835 15.078545 -0.41260123 0.93920964
-2.3050194 9.4699612 -0.2565695 0.9617514
-2.196367 9.5439253 -0.25780597 0.96157074
-1.8642383 8.5935249 -0.23148221 0.96542597
-1.6636719 8.7214546 -0.23372768 0.96509653
-2.3144336 14.04123 -0.3746157 0.94464839
-1.8446288 13.259541 -0.35241222 0.94784194
-1.6787499 13.288857 -0.35260317 0.94781452
-1.1408985 15.103037 -0.39871195 0.94119471
-0.76083982 15.123984 -0.39863464 0.94120586
-0.38046876 15.135371 -0.39855719 0.94121695
0.38033202 15.129492 -0.39840239 0.94123912
0.57035154 15.122002 -0.39836374 0.94124484
0.7602734 15.112266 -0.39832512 0.94125003
1.9113672 18.948368 -0.50133771 0.92662668
2.1491015 18.921074 -0.50128937 0.92663336
2.6234374 18.857344 -0.50119299 0.92664737
2.8599024 18.821171 -0.50114489 0.9266538
3.0958788 18.781982 -0.5010969 0.92666042
3.3313282 18.739737 -0.50104904 0.92666745
3.5662107 18.694609 -0.5010013 0.92667419
4.0341406 18.595634 -0.50090623 0.9266873
4.4992967 18.484863 -0.5008117 0.92670071
5.1913671 18.297031 -0.50067109 0.92672044
5.4203515 18.228613 -0.50062454 0.92672718
5.6484375 18.157343 -0.50057822 0.92673385
6.3270702 17.926708 -0.50044042 0.92675292
6.7743359 17.758749 -0.50034958 0.92676598
7.4368358 17.486143 -0.50021505 0.92678481
7.6553125 17.389755 -0.50017071 0.92679107
8.7283201 16.867451 -0.49995294 0.92682165
9.0075779 16.384687 -0.49220073 0.9279145
8.9959373 15.431767 -0.47021881 0.93102002
8.9858198 14.560596 -0.45041496 0.93382692
8.9794722 13.763935 -0.43261665 0.93635666
8.9742184 13.028271 -0.41645476 0.93866003
8.9717188 12.680566 -0.40891227 0.93973684
9.0126953 12.082656 -0.39681038 0.94146693
9.4591799 11.731269 -0.39670661 0.94148201
9.749258 11.487803 -0.3966355 0.94149214
10.033164 11.237256 -0.39656591 0.9415018
10.310605 10.979668 -0.39649805 0.94151163
9.7510157 9.8743162 -0.36531654 0.94598442
11.102949 10.166855 -0.3963044 0.94153929
11.228965 10.025752 -0.39627361 0.9415437
11.946973 9.1473532 -0.39609861 0.94156885
1.2672656 0.9452734 -0.041618347 0.99369383
1.2676171 0.82699215 -0.039842375 0.99396211
1.2679297 0.71794921 -0.038356207 0.99418658
1.3307617 0.70997071 -0.03970455 0.99398285
1.4608203 0.70995116 -0.042755391 0.99352205
1.5593164 0.70997071 -0.045101888 0.9931677
1.6127539 0.70996094 -0.046385724 0.99297392
1.793164 0.70995116 -0.050768431 0.99231267
1.8611327 0.70997071 -0.052437134 0.99206114
2.0061719 0.70805663 -0.05600334 0.99152339
2.0060742 0.67980468 -0.055758245 0.99156034
14.352929 4.464951 -0.39569426 0.94162673
14.460351 4.1027832 -0.39568755 0.94162768
14.55873 3.7380567 -0.3956829 0.94162828
18.138359 3.2244139 -0.48496932 0.92893505
