# .PCD v0.7 - Point Cloud Data file format
VERSION 0.7
FIELDS x y z intensity
SIZE 4 4 4 4
TYPE F F F F
COUNT 1 1 1 1
WIDTH 1063
HEIGHT 1
VIEWPOINT 0 0 0 1 0 0 0
POINTS 1063
DATA ascii
1.6127343 0.70996094 0.0024406814 0.99297643
1.7931445 0.70996094 0.0026713179 0.99231535
1.9337499 0.70995116 0.0028533172 0.99179405
1.9852148 -0.67273438 0.0029035185 0.99165064
1.8610938 -0.70995116 0.0027592469 0.992064
1.7931055 -0.70995116 0.0026713179 0.99231553
1.6692773 -0.70995116 0.0025125502 0.99277031
1.6127148 -0.70995116 0.002440834 0.99297649
1.5087304 -0.70995116 0.0023096085 0.99335247
1.4152734 -0.70993161 0.0021931075 0.99368662
1.3719727 -0.70994139 0.0021397399 0.99383998
1.3307226 -0.70993161 0.0020890427 0.99398518
1.275957 -0.74378902 0.0020458221 0.99410975
1.2759179 -0.76544923 0.0020609663 0.994066
1.275957 -0.80973631 0.0020932769 0.99397343
1.275957 -0.83242184 0.0021102142 0.99392462
1.275957 -0.8554492 0.0021279526 0.99387407
1.275957 -0.87890625 0.0021461486 0.99382168
1.275957 -0.92704099 0.0021847915 0.99371117
10.248261 -9.1501856 0.019031104 0.94652778
9.9884567 -9.1463184 0.018758429 0.94726747
9.7387495 -9.1453218 0.018503074 0.94796413
7.6989059 -8.407793 0.015789527 0.9554233
7.4956832 -8.6106634 0.015814057 0.95536226
7.1544333 -9.1047554 0.016040077 0.95473862
6.9741797 -9.1086912 0.015889168 0.95514876
2.4420507 -9.0381346 0.012968216 0.96324354
2.3201756 -9.0364742 0.012922973 0.96336937
1.9592773 -9.0315723 0.012801551 0.96370828
1.4876367 -9.0252142 0.012669906 0.96407324
-0.45279297 -8.9996386 0.012482681 0.96459776
-0.56613278 -8.9981737 0.012488861 0.96457863
-1.0213867 -8.9923534 0.012536735 0.96444666
-1.1358398 -8.9908886 0.012552986 0.9643997
-1.9452734 -8.9669142 0.012711715 0.96396333
-1.8602538 -7.6424217 0.010905685 0.96902746
-1.9619335 -7.6410546 0.01092823 0.96893704
-7.2269335 -23.231571 0.033703573 0.90726662
-3.193789 -8.6991405 0.012836837 0.96361095
-3.4428711 -8.6957521 0.012955704 0.96328104
-3.825742 -8.6905365 0.01315197 0.96273082
-4.0877733 -8.6869631 0.013299255 0.96232527
-4.221035 -8.6851368 0.013376961 0.96211028
-4.492363 -8.6814356 0.013539504 0.9616549
-4.6305661 -8.6795311 0.013627052 0.9614141
-4.9124804 -8.675683 0.013811226 0.9609049
-5.0563474 -8.6737204 0.013906822 0.96063596
-5.1599998 -8.1308203 0.013327713 0.96221262
-5.2619333 -8.0655661 0.013340683 0.96221155
-7.0353513 -9.4317675 0.016299324 0.95402378
-6.6653318 -8.7051363 0.015186691 0.95709229
-6.8312106 -8.4719629 0.015076485 0.95740187
-7.0071092 -8.4700098 0.015226402 0.95698166
-7.3698239 -8.4659767 0.0155476 0.95609534
-7.9441991 -8.4595995 0.016075477 0.95464104
-8.3496284 -8.4551172 0.016460113 0.95357996
-8.5597849 -8.4527731 0.016663857 0.95301962
-8.9962502 -8.4479294 0.017095909 0.95183462
-1.044082 -0.93220699 0.0019389343 0.99441689
-1.044082 -0.90886718 0.0019176864 0.99447829
-1.044082 -0.84184569 0.0018577956 0.99464959
-1.0440429 -0.82041013 0.001839447 0.99470282
-1.0440429 -0.79939449 0.001821556 0.99475408
-1.0440625 -0.75853515 0.0017877579 0.99485123
-1.0440625 -0.71916014 0.0017562866 0.99494171
-1.0589257 -0.70995116 0.0017660904 0.9949134
-1.0882226 -0.70995116 0.0017999267 0.99481618
-1.2914063 -0.70994139 0.0020415497 0.99412262
-1.3307226 -0.70994139 0.0020894241 0.99398512
-1.4152539 -0.70995116 0.0021933746 0.99368662
-1.4608008 -0.70993161 0.0022497559 0.99352437
-1.5087304 -0.70995116 0.0023097992 0.99335247
-1.5592773 -0.70994139 0.0023735808 0.99317026
-1.7707226 -0.72694331 0.0026517867 0.99237269
-1.7707617 -0.67547852 0.0026254272 0.99244779
-1.771582 0.65041989 -0.0026138686 0.99247956
-1.771582 0.67580074 -0.0026261902 0.99244428
-1.771582 0.70143551 -0.0026390457 0.99240738
-1.7293164 0.70996094 -0.002589264 0.99255037
-1.6127343 0.70995116 -0.0024407576 0.99297643
-1.5592773 0.70994139 -0.0023730849 0.99317026
-1.5087304 0.70995116 -0.0023093796 0.99335247
-1.4152734 0.70995116 -0.0021928786 0.99368656
-1.2538086 0.70995116 -0.001995468 0.99425316
-1.0589257 0.70995116 -0.0017658233 0.9949134
-1.0433594 0.71867186 -0.0017547988 0.99494511
-1.0433398 0.73818356 -0.001770134 0.99490076
-1.0433594 0.75802732 -0.0017862701 0.99485469
-1.0433398 0.77824217 -0.0018030166 0.99480706
-1.0433203 0.88542968 -0.0018954086 0.99454135
-1.0433203 0.90821284 -0.0019158173 0.99448228
-1.0433398 0.93151367 -0.0019373321 0.99442095
-8.3329096 7.6304002 -0.015648995 0.95581126
-7.1531053 7.6173143 -0.014472274 0.95906377
-6.9732227 7.6153121 -0.014301071 0.95953876
-6.5518942 9.0179396 -0.015440177 0.95639223
-6.5309958 10.582831 -0.017225379 0.95147353
-6.5107226 12.581933 -0.019621886 0.94490892
-2.7011132 9.0838079 -0.013126792 0.96280187
-2.1483984 8.3674612 -0.011966018 0.96603471
-1.9558008 8.4985352 -0.012079963 0.96571863
-2.3640625 13.298623 -0.018709755 0.9474051
-2.1388085 12.975654 -0.018215409 0.94875658
-1.9840039 13.057012 -0.018295325 0.94854355
-1.8309569 13.161181 -0.018405342 0.94823611
-1.9776952 22.424755 -0.031183243 0.91388798
-1.7078711 22.608358 -0.03140438 0.91329968
-1.953125e-05 16.4275 -0.022755813 0.93640232
10.269746 15.741709 -0.026037024 0.92757475
10.494336 15.652607 -0.026104698 0.92739081
9.3767767 9.9852533 -0.018987922 0.94668281
9.5500774 9.9170704 -0.019070854 0.94641769
18.200722 17.091581 -0.034589119 0.90495408
19.050175 15.360566 -0.033899955 0.90675205
18.271563 13.989892 -0.031877935 0.91206008
1.2750585 0.90214843 -0.0021637343 0.99377173
1.2751172 0.85490233 -0.002126503 0.99387807
1.2750585 0.80920899 -0.002092018 0.99397755
1.2751172 0.76496094 -0.0020597838 0.99406976
1.2751172 0.74333984 -0.0020445632 0.9941135
1.3307421 0.70996094 -0.0020893477 0.993985
1.3719727 0.70995116 -0.0021399306 0.99383992
1.4152539 0.70994139 -0.0021932602 0.99368668
1.5592968 0.70996094 -0.0023734665 0.99317014
1.6127343 0.70996094 -0.0024409867 0.99297643
1.7293164 0.70994139 -0.002589569 0.99255037
1.7931445 0.70996094 -0.0026715468 0.99231535
1.8611327 0.70994139 -0.0027591323 0.99206388
1.9872851 0.70138669 -0.0029194641 0.9916057
1.9873241 0.67343748 -0.0029067611 0.99164182
16.452011 3.7861524 -0.023377914 0.93470132
1.9872851 -0.70140624 -0.002919426 0.9916057
1.8610938 -0.70995116 -0.0027592469 0.992064
1.7931055 -0.70995116 -0.0026715468 0.99231553
1.6127148 -0.70995116 -0.002440834 0.99297649
1.5592773 -0.70993161 -0.0023730849 0.99317026
1.4607617 -0.70993161 -0.0022497177 0.99352449
1.4152734 -0.70993161 -0.0021933364 0.99368662
1.3719727 -0.70994139 -0.0021397399 0.99383998
1.3307226 -0.70993161 -0.0020892716 0.99398518
1.2751172 -0.72201169 -0.0020299149 0.99415576
1.2751367 -0.74333006 -0.002044525 0.99411345
1.2751172 -0.80919921 -0.0020918273 0.99397737
1.2750976 -0.85489255 -0.002126541 0.99387819
1.2750976 -0.8783105 -0.0021448135 0.99382585
1.2750976 -0.90213865 -0.0021637343 0.99377161
10.784121 -9.1520901 -0.019592285 0.94499391
10.252129 -9.153594 -0.0190382 0.94650823
7.49125 -8.3902731 -0.015570221 0.95600545
7.4957223 -8.6106834 -0.015815048 0.95536208
7.478281 -8.8118649 -0.016009331 0.95482266
7.3447657 -9.1089935 -0.016209334 0.9542734
7.1555271 -9.106123 -0.016042214 0.95473194
2.5680273 -9.0511036 -0.01303196 0.96306586
2.4416015 -9.0364161 -0.012966651 0.9632504
2.0783985 -9.03125 -0.01283699 0.96360934
1.8400195 -9.0278616 -0.012761917 0.96381694
1.6042578 -9.0245209 -0.012696991 0.96399993
-0.33927733 -8.995635 -0.012469596 0.96463245
-0.45255858 -8.9960546 -0.01247673 0.96461159
-0.67935544 -8.9929781 -0.012491454 0.9645685
-0.90681636 -8.989912 -0.012515183 0.96450317
-1.250039 -8.9853315 -0.012565116 0.96436298
-1.3648242 -8.9819527 -0.012583923 0.96431214
-1.9452734 -8.9669142 -0.012704048 0.96396333
-1.9618945 -7.6410351 -0.010927391 0.9689371
-3.033711 -8.9524021 -0.013090896 0.96289599
-7.1663866 -19.519735 -0.028800849 0.92019027
-7.0810938 -12.880478 -0.020361861 0.9429006
-5.1861911 -8.8964252 -0.014188041 0.95964593
-5.1599803 -8.1307907 -0.013322525 0.9622128
-6.6652927 -8.7051363 -0.015185203 0.9570924
-6.6627927 -8.4789553 -0.014937477 0.95778269
-7.0070896 -8.4699898 -0.015225143 0.95698178
-7.1865625 -8.468008 -0.015383987 0.95654643
-7.7484765 -8.4617672 -0.015892487 0.95514327
-8.3495893 -8.4550972 -0.016458016 0.95358014
-8.5597458 -8.4527731 -0.016661225 0.95301974
-8.9962502 -8.4479294 -0.017093811 0.95183462
-1.0433398 -0.90823239 -0.0019158935 0.99448216
-1.0433203 -0.86311519 -0.0018753815 0.99459839
-1.0433203 -0.84124023 -0.0018563842 0.99465346
-1.0433398 -0.79882812 -0.0018200683 0.99475765
-1.0433398 -0.75803709 -0.0017863464 0.99485469
-1.0433398 -0.71869141 -0.001754837 0.99494517
-1.0589257 -0.70995116 -0.0017659378 0.9949134
-1.2178711 -0.70993161 -0.0019525527 0.99437714
-1.253828 -0.70995116 -0.0019956969 0.9942531
-1.2914063 -0.70994139 -0.0020410155 0.99412262
-1.3307226 -0.70994139 -0.0020889663 0.99398512
-1.3719727 -0.70995116 -0.0021395492 0.99383992
-1.4608008 -0.70993161 -0.0022496795 0.99352437
-1.5087109 -0.70994139 -0.002309494 0.99335259
-1.5592773 -0.70994139 -0.0023728178 0.99317026
-1.771582 -0.70142579 -0.0026390839 0.99240744
-1.7716016 -0.67579103 -0.0026263427 0.99244422
-1.771582 -0.65041012 -0.0026139831 0.99247962
-22.997246 7.7931347 -0.10090267 0.90743977
-1.7724414 0.70175779 -0.0079215616 0.99240369
-1.7293164 0.70996094 -0.0077680205 0.99255031
-1.6127343 0.70995116 -0.0073221968 0.99297637
-1.4608008 0.70997071 -0.0067491913 0.99352425
-1.3719921 0.70996094 -0.0064192959 0.9938398
-1.3307421 0.70996094 -0.0062675858 0.993985
-1.2913867 0.70996094 -0.006123886 0.99412256
-1.2178711 0.70994139 -0.005857849 0.99437708
-1.1834375 0.70995116 -0.0057346723 0.99449492
-1.1504102 0.70994139 -0.0056173322 0.99460721
-1.1187304 0.70995116 -0.0055059432 0.99471402
-1.0426368 0.75750977 -0.0053554913 0.99485815
-1.0426368 0.77772456 -0.0054050824 0.99481046
-1.0425977 0.84066403 -0.0055652997 0.9946571
-1.0425977 0.86249024 -0.0056228638 0.99460214
-1.0425977 0.88478512 -0.0056820298 0.99454516
-1.0425586 0.90755856 -0.0057436749 0.99448627
-1.0425586 0.93083984 -0.0058076093 0.994425
-1.0425195 0.95462888 -0.0058739851 0.99436164
-7.7199998 7.6235938 -0.045086097 0.95752883
-7.5262694 7.6214256 -0.044509925 0.95805955
-7.3373632 7.6193357 -0.043955572 0.95857084
-7.1531053 7.6173043 -0.043422852 0.95906347
-6.7975779 7.6133494 -0.042412374 0.95999628
-6.4817381 7.8350778 -0.042254258 0.96014118
-6.5575194 8.5644722 -0.044824332 0.95777071
-6.5531054 10.044775 -0.049833182 0.95315868
-6.534863 11.540898 -0.05511814 0.94833177
-6.5107226 12.581933 -0.058869895 0.9449085
-6.4107227 19.730165 -0.086209871 0.92036694
-2.7011132 9.0838184 -0.039382134 0.96280158
-2.4888086 8.7718458 -0.037889976 0.96418446
-2.1484179 8.3674507 -0.035898514 0.96603447
-1.984414 13.059589 -0.054892156 0.94853324
-2.0258398 17.835878 -0.074594423 0.93071437
10.807031 15.689082 -0.079169385 0.92662668
9.3718939 9.9800482 -0.056914214 0.94670945
9.5462694 9.913125 -0.057191201 0.94643807
18.200684 17.091581 -0.10375641 0.90495348
19.055567 15.764121 -0.10277355 0.90581077
19.047558 14.967402 -0.10066753 0.90764737
18.117989 13.872265 -0.094825745 0.9127655
1.2742382 0.92577147 -0.0065449523 0.99371964
1.2742382 0.90155274 -0.006486435 0.99377573
1.2742382 0.87774414 -0.0064300154 0.99382991
1.2742382 0.85432613 -0.006375351 0.99388224
1.2742578 0.83132809 -0.0063224789 0.9939326
1.2743164 0.78641599 -0.0062226104 0.99402809
1.2742969 0.74286133 -0.0061295698 0.99411726
1.2913867 0.70994139 -0.0061241151 0.99412262
1.3307421 0.70996094 -0.0062678144 0.993985
1.3719727 0.70995116 -0.0064194868 0.99383986
1.4152539 0.70994139 -0.0065798569 0.99368662
1.4607617 0.70994139 -0.0067491913 0.99352443
1.5087304 0.70995116 -0.0069289017 0.99335247
1.7293164 0.70994139 -0.0077684019 0.99255031
1.7931445 0.70996094 -0.0080143353 0.99231529
1.9893554 0.70213866 -0.0087669753 0.99159694
1.9893554 0.67413086 -0.0087284846 0.99163324
16.447754 3.7851758 -0.070134617 0.93471712
1.9893554 -0.67412108 -0.0087287137 0.99163324
1.9337305 -0.70994139 -0.0085599897 0.99179405
1.7931055 -0.70995116 -0.0080142589 0.99231547
1.7293164 -0.70993161 -0.0077681351 0.99255037
1.6692773 -0.70995116 -0.007538185 0.99277031
1.6127148 -0.70995116 -0.0073221968 0.99297643
1.5592382 -0.70995116 -0.0071197129 0.99317032
1.5087304 -0.70995116 -0.006928978 0.99335247
1.3719727 -0.70994139 -0.006419525 0.99383992
1.3307226 -0.70993161 -0.0062677381 0.99398512
1.2742773 -0.76447266 -0.0061751935 0.99407357
1.2742773 -0.80867183 -0.0062716673 0.99398124
1.2742578 -0.8313086 -0.0063226698 0.9939326
1.2742382 -0.8543359 -0.0063751983 0.99388218
1.2742773 -0.87771481 -0.0064298245 0.99382985
1.2742382 -0.90154296 -0.0064864731 0.99377573
1.2741992 -0.92577147 -0.006545105 0.99371976
7.4912305 -8.3902931 -0.046732254 0.9560051
7.478281 -8.8118649 -0.04802845 0.9548223
1.370332 -9.0184278 -0.037906721 0.96416956
-1.9452734 -8.9669237 -0.038130112 0.96396303
-1.8601953 -7.6424117 -0.032692146 0.96902734
-7.2189646 -22.217783 -0.097058907 0.91078776
-3.033711 -8.9524117 -0.0392741 0.96289569
-7.1663866 -19.519735 -0.08640606 0.92018968
-7.1423631 -18.039482 -0.080626942 0.92532659
-4.0641403 -8.9262009 -0.040753175 0.96152776
-5.1861715 -8.8964357 -0.042773627 0.95964563
-5.1599607 -8.1308002 -0.039997175 0.9622125
-5.2618942 -8.0655756 -0.040019073 0.96221131
-6.6652927 -8.7051363 -0.045558661 0.95709205
-6.6628122 -8.4789448 -0.044811513 0.95778239
-6.8312106 -8.4719534 -0.045224953 0.95740157
-7.0070701 -8.4699898 -0.045679856 0.95698148
-7.1865625 -8.4680176 -0.046152763 0.95654607
-7.3698239 -8.4659863 -0.046642456 0.95609498
-7.5570507 -8.4638968 -0.047151603 0.95562756
-8.3496284 -8.4551077 -0.049380492 0.95357966
-8.5597458 -8.4527636 -0.04998951 0.95301938
-8.7752142 -8.4503708 -0.050624542 0.95243788
-8.9962502 -8.4479294 -0.051282346 0.95183426
-1.0425195 -0.95462888 -0.0058740615 0.99436164
-1.0425586 -0.93083006 -0.0058077239 0.994425
-1.0425977 -0.84065425 -0.005565376 0.9946571
-1.0426368 -0.77770507 -0.0054053497 0.99481052
-1.0426368 -0.75750977 -0.0053553772 0.99485815
-1.0426562 -0.71820313 -0.0052610398 0.99494845
-1.0589257 -0.70995116 -0.0052977372 0.99491334
-1.0882226 -0.70995116 -0.0053994749 0.99481612
-1.1834375 -0.70994139 -0.0057346341 0.99449497
-1.253828 -0.70995116 -0.005987396 0.99425304
-1.3307226 -0.70994139 -0.0062675094 0.99398506
-1.4152539 -0.70995116 -0.0065795132 0.99368662
-1.4608008 -0.70993161 -0.0067488095 0.99352431
-1.5592773 -0.70994139 -0.007119522 0.9931702
-1.7293359 -0.70994139 -0.0077682491 0.99255025
-1.7724414 -0.70173824 -0.0079214862 0.99240375
-1.7724414 -0.67609376 -0.0078828428 0.99244058
-23.480604 -8.2871971 -0.10347286 0.90519816
-1.7733008 0.70208007 -0.013209381 0.99239993
-1.7293164 0.70996094 -0.01294693 0.99255019
-1.6127343 0.70995116 -0.012204017 0.99297625
-1.5592773 0.70994139 -0.011866035 0.99317008
-1.4608008 0.70997071 -0.011248779 0.99352413
-1.4152734 0.70995116 -0.010966072 0.99368644
-1.3719921 0.70996094 -0.010698852 0.99383968
-1.3307421 0.70996094 -0.010446281 0.99398488
-1.2913867 0.70996094 -0.010206527 0.99412251
-1.2538086 0.70995116 -0.0099791717 0.99425304
-1.1834375 0.70995116 -0.0095580667 0.99449486
-1.1504102 0.70994139 -0.0093626017 0.99460709
-1.1187304 0.70995116 -0.0091765206 0.99471396
-1.0589257 0.70995116 -0.0088295741 0.99491328
-1.0419726 0.71771485 -0.0087627787 0.99495173
-1.0419335 0.75700194 -0.0089196013 0.99486154
-1.0418946 0.79773438 -0.0090883253 0.99476475
-1.0418946 0.81869137 -0.0091770934 0.9947136
-1.0418164 0.90689451 -0.0095662307 0.99449015
-1.0417774 0.93013668 -0.0096727749 0.99442911
-1.0417578 0.95390624 -0.0097830202 0.99436575
-7.9188476 7.6257811 -0.076141283 0.95697719
-7.5262694 7.6214256 -0.074185677 0.95805889
-7.1531053 7.6173043 -0.072371483 0.95906287
-6.9733005 7.6153026 -0.07151375 0.95953763
-6.7975779 7.6133494 -0.070687562 0.95999569
-6.6258788 7.611445 -0.069891281 0.9604373
-6.4817185 7.8350682 -0.070426255 0.96014065
-6.5187693 11.51249 -0.091624871 0.94845486
-6.5126367 12.207343 -0.095827557 0.94615853
-6.5107226 12.581933 -0.098102912 0.94490767
-2.1495507 8.3719921 -0.059865989 0.96601588
-2.6815038 14.056816 -0.099112317 0.94436496
-2.0017774 22.697861 -0.15781631 0.91288441
-1.953125e-05 16.427578 -0.11377666 0.93640059
0.14749999 11.739101 -0.081311263 0.95412439
9.3670502 9.9748631 -0.094771609 0.9467355
18.200684 17.091581 -0.1729303 0.90495211
19.050215 15.360596 -0.16949299 0.90674984
1.2733399 0.94981444 -0.011002502 0.99366575
1.2733399 0.92514646 -0.010901107 0.99372387
1.2733788 0.9009375 -0.010803718 0.99377984
1.2733788 0.87714839 -0.010709533 0.99383396
1.2733984 0.85377926 -0.010618514 0.99388611
1.2734179 0.830791 -0.010530891 0.99393648
1.2734571 0.78589845 -0.010364418 0.99403197
1.2734765 0.76397461 -0.010285416 0.99407721
1.2735156 0.72112304 -0.010136146 0.99416292
1.3307421 0.70996094 -0.010446205 0.99398488
1.4152539 0.70994139 -0.010966377 0.9936865
1.5592968 0.70996094 -0.011866646 0.99317002
1.6692969 0.70994139 -0.012563782 0.99277014
1.7293164 0.70994139 -0.012947387 0.99255019
1.8611327 0.70994139 -0.013796654 0.9920637
1.9337499 0.70995116 -0.014267425 0.99179381
1.9914649 0.70287108 -0.014626731 0.99158794
1.9914258 0.67483395 -0.014562988 0.99162441
1.9337305 -0.70994139 -0.014267387 0.99179393
1.7931055 -0.70995116 -0.013357277 0.99231535
1.7293164 -0.70993161 -0.012947349 0.99255025
1.6692773 -0.70995116 -0.01256382 0.9927702
1.5592382 -0.70995116 -0.011866188 0.9931702
1.4152343 -0.70993161 -0.010966454 0.99368662
1.3307226 -0.70993161 -0.010446358 0.993985
1.2734765 -0.78588867 -0.010364532 0.99403191
1.2734571 -0.80814451 -0.010446205 0.99398506
7.8978906 -8.4104395 -0.079910085 0.95489794
7.4912305 -8.3902931 -0.077895433 0.95600444
7.4957027 -8.610693 -0.079070397 0.95536113
2.5662303 -9.0447559 -0.065116458 0.96309042
1.370625 -9.0202637 -0.063191414 0.96416187
-0.22621094 -8.9983883 -0.062343139 0.96463472
-1.8601953 -7.6424117 -0.054479104 0.96902686
-1.9619141 -7.6410642 -0.05463852 0.96893626
-3.033711 -8.9524117 -0.065458141 0.96289515
-3.1626756 -8.9608297 -0.065814324 0.96270216
-3.6757421 -8.9535055 -0.067033425 0.96202433
-3.8071094 -8.9516115 -0.067372397 0.96183616
-4.0641599 -8.9261913 -0.067922398 0.96152723
-4.6260743 -8.9398146 -0.069715686 0.96053559
-4.7682614 -8.9377241 -0.07016056 0.96028858
-5.0584373 -8.933486 -0.071103588 0.95976597
-5.1861715 -8.8964357 -0.071335524 0.95964503
-7.043066 -9.9546385 -0.08445663 0.9523924
-6.6653123 -8.7051172 -0.075935364 0.95709145
-6.6627927 -8.4789448 -0.074687533 0.95778179
-6.8312106 -8.4719534 -0.075375058 0.95740098
-7.0070701 -8.4699898 -0.076134376 0.95698082
-7.1865625 -8.4680176 -0.076923445 0.95654541
-7.3698239 -8.4659662 -0.077739865 0.95609438
-7.5570898 -8.4638968 -0.078586273 0.95562679
-7.9441991 -8.459609 -0.080375247 0.95463997
-8.1445112 -8.4573727 -0.08132042 0.95411921
-8.3496284 -8.4551077 -0.082302399 0.95357895
-8.9962502 -8.4479294 -0.085473247 0.95183349
-1.0417578 -0.95392579 -0.0097828675 0.99436569
-1.0418555 -0.84004879 -0.0092691034 0.99466085
-1.0589257 -0.70995116 -0.0088295359 0.99491328
-1.1504296 -0.70995116 -0.0093625635 0.99460703
-1.1834375 -0.70994139 -0.0095580285 0.99449486
-1.2178711 -0.70993161 -0.0097632976 0.99437702
-1.3307226 -0.70994139 -0.010446052 0.993985
-1.5087109 -0.70994139 -0.011548233 0.99335241
-1.6127148 -0.70994139 -0.012203827 0.99297637
-1.6692969 -0.70994139 -0.012563476 0.99277014
-1.7293359 -0.70994139 -0.012947083 0.99255013
-1.7733008 -0.70208007 -0.013208961 0.99239993
-1.7733008 -0.65102535 -0.013082847 0.99247217
-22.997265 7.7931442 -0.23544759 0.90743631
-1.774121 0.65134764 -0.018325461 0.99246854
-1.7293164 0.70995116 -0.01812622 0.99255002
-1.6127148 0.70994139 -0.017085837 0.99297619
-1.5087304 0.70994139 -0.016167946 0.99335223
-1.4608008 0.70997071 -0.015748519 0.99352401
-1.3719921 0.70996094 -0.01497879 0.99383956
-1.3307421 0.70996094 -0.014624672 0.99398476
-1.2913867 0.70996094 -0.014289245 0.99412233
-1.2178711 0.70994139 -0.013668899 0.99437684
-1.1834375 0.70995116 -0.013381691 0.99449474
-1.1187304 0.70995116 -0.01284748 0.99471384
-1.0882226 0.70995116 -0.012598953 0.99481595
-1.0412695 0.71724606 -0.012259979 0.99495494
-1.0412304 0.73668945 -0.012367591 0.99491078
-1.0411719 0.79718751 -0.012715034 0.9947682
-1.0411328 0.81812501 -0.012839203 0.9947173
-1.0410742 0.86128902 -0.013101425 0.99460965
-1.0410352 0.90624022 -0.013383178 0.99449402
-1.0409961 0.92946285 -0.013531875 0.99443305
-1.040957 0.95321286 -0.013686218 0.9943698
-7.1531053 7.6172948 -0.10132149 0.95906198
-6.7975779 7.6133494 -0.098965488 0.95999479
-6.6258788 7.611445 -0.097850718 0.9604364
-6.481699 7.8350682 -0.098599471 0.96013981
-6.548418 9.2554884 -0.1099385 0.95565975
-6.5107226 12.581933 -0.13736305 0.94490647
-6.4478707 16.903017 -0.17542 0.93018878
-2.5799022 9.5482807 -0.095905952 0.96120787
-2.1781445 13.214384 -0.1298634 0.94783646
-2.0238867 13.319385 -0.13063407 0.9475348
-2.6265428 18.879961 -0.18483409 0.92658383
-2.0017774 22.697861 -0.22094469 0.91288245
0.14749999 11.739081 -0.11383827 0.95412344
10.295703 15.781504 -0.18271297 0.92739528
9.3621674 9.9696875 -0.13261604 0.94676125
18.200684 17.091591 -0.24210294 0.90494996
19.055586 15.76415 -0.23980863 0.9058072
17.818066 14.001279 -0.21973422 0.91333902
1.2724805 0.94914061 -0.015392952 0.99366993
1.2724999 0.92451167 -0.015251388 0.99372792
1.2725195 0.90033203 -0.015115012 0.99378383
1.272539 0.87657225 -0.014983367 0.99383783
1.2725586 0.85321289 -0.014856224 0.99388999
1.2726367 0.78540039 -0.014500961 0.99403566
1.2726367 0.76347655 -0.014390716 0.99408096
1.2727149 0.72064453 -0.014181938 0.99416649
1.3307421 0.70996094 -0.014625129 0.99398476
1.3719727 0.70995116 -0.014979362 0.99383962
1.4152539 0.70993161 -0.015353203 0.99368638
1.4607617 0.70993161 -0.015748901 0.99352419
1.5087304 0.70995116 -0.01616825 0.99335217
1.5593164 0.70996094 -0.016613349 0.99316978
1.6127148 0.70995116 -0.017085914 0.99297619
1.6693164 0.70994139 -0.017589875 0.9927699
1.7293359 0.70994139 -0.018126601 0.99254996
1.9337695 0.70995116 -0.019974593 0.99179357
1.9935156 0.70359373 -0.020499229 0.99157912
1.9935352 0.67553711 -0.020409927 0.99161541
16.438828 4.0012889 -0.16405632 0.93456101
16.439297 3.7832325 -0.16357139 0.93474716
1.9934961 -0.67553711 -0.02040985 0.99161559
1.9337305 -0.70995116 -0.019974479 0.99179369
1.8611132 -0.70996094 -0.01931465 0.99206358
1.5592577 -0.70996094 -0.016613044 0.99316996
1.5087304 -0.70995116 -0.016168175 0.99335217
1.4607812 -0.70994139 -0.015748862 0.99352413
1.4152539 -0.70994139 -0.015353279 0.99368638
1.3719727 -0.70994139 -0.014978866 0.99383968
1.2913867 -0.70993161 -0.014289665 0.99412239
1.2726953 -0.72064453 -0.014182129 0.99416655
1.2726758 -0.74190426 -0.014284591 0.99412453
1.2726562 -0.76347655 -0.014390755 0.9940809
1.2725977 -0.80763668 -0.014615249 0.99398887
1.2725586 -0.85319334 -0.014856262 0.99389005
1.2724805 -0.92452145 -0.015251541 0.99372792
7.6989255 -8.4078121 -0.11054245 0.95542121
7.4957223 -8.610713 -0.11069908 0.95536
7.4783006 -8.8118849 -0.11206833 0.95482051
-0.22617187 -8.9971676 -0.087268978 0.96463859
-1.4802929 -8.9804392 -0.088253893 0.96424657
-1.8602344 -7.6424117 -0.076283112 0.96902615
-1.9619141 -7.6410642 -0.076494746 0.96893561
-3.0336914 -8.9524221 -0.091654167 0.96289426
-3.9475 -8.9671383 -0.095002666 0.96156597
-5.1861715 -8.8964453 -0.09983284 0.95964408
-5.1599803 -8.1307907 -0.093384624 0.96221107
-6.6653123 -8.7051268 -0.10630916 0.95709044
-6.6627927 -8.4789352 -0.10456199 0.9577809
-6.8311911 -8.4719534 -0.10552642 0.95740002
-7.0070896 -8.4700003 -0.10659092 0.95697981
-7.3698239 -8.4659662 -0.10883724 0.95609343
-7.5570898 -8.4639063 -0.11002357 0.95562577
-7.7484765 -8.4617767 -0.11125259 0.95514125
-7.9441991 -8.459609 -0.11252677 0.95463896
-8.3496094 -8.4551172 -0.1152227 0.95357794
-8.5597849 -8.4527636 -0.1166473 0.95301753
-1.0409961 -0.95320308 -0.013686104 0.99436975
-1.0410352 -0.90623045 -0.013383331 0.99449408
-1.0411913 -0.77666014 -0.012595177 0.99481744
-1.0589257 -0.70995116 -0.012361946 0.99491316
-1.0882226 -0.70995116 -0.012598953 0.99481595
-1.1834375 -0.70994139 -0.013381653 0.99449474
-1.2914063 -0.70994139 -0.014289245 0.99412233
-1.3307226 -0.70994139 -0.014624747 0.99398488
-1.3719727 -0.70995116 -0.014978675 0.99383962
-1.4152539 -0.70995116 -0.015352936 0.99368632
-1.6127148 -0.70995116 -0.0170858 0.99297619
-1.6692969 -0.70995116 -0.01758934 0.99276996
-1.7293164 -0.70995116 -0.018126296 0.99255002
-1.7741015 -0.67675781 -0.018411903 0.99243325
-1.774121 -0.65134764 -0.018325347 0.99246854
-22.050762 7.7826266 -0.29152995 0.91069907
-1.7749804 0.67707032 -0.023684196 0.99242932
-1.7749804 0.70276368 -0.023800125 0.99239236
-1.6692773 0.70995116 -0.022615509 0.99276978
-1.6127148 0.70994139 -0.021967964 0.99297601
-1.5087304 0.70994139 -0.020787925 0.993352
-1.4607812 0.70996094 -0.020249022 0.9935239
-1.4152539 0.70994139 -0.019739799 0.9936862
-1.0589257 0.70994139 -0.015894242 0.99491304
-1.0404882 0.75596678 -0.016034355 0.99486834
-1.0404687 0.79663086 -0.016336937 0.99477166
-1.0403906 0.83888668 -0.016661834 0.99466801
-1.040293 0.90557617 -0.017194709 0.99449784
-1.0402148 0.95249999 -0.017583961 0.99437374
-7.918828 7.6257811 -0.13705978 0.95697498
-7.3373828 7.6193457 -0.13187599 0.95856798
-7.1531053 7.6172948 -0.13027392 0.95906073
-6.9732809 7.6153026 -0.12873012 0.95953554
-6.6258788 7.611445 -0.12581062 0.96043521
-6.4838867 7.6401267 -0.12492756 0.96070731
-6.4817185 7.8350487 -0.12677394 0.96013862
-6.5683789 8.3588772 -0.13254653 0.95836496
-6.52707 10.880049 -0.15818073 0.95051169
-6.4631443 15.743008 -0.212172 0.93418801
-6.399199 20.570801 -0.26858389 0.91742969
-2.7956054 9.4015627 -0.1222839 0.96152312
-2.6881835 9.4745607 -0.12278446 0.9613688
-2.1130273 8.681035 -0.111389 0.96489036
-2.6814647 14.056797 -0.17840938 0.94436216
-2.0238671 13.319375 -0.16796288 0.94753325
-2.6265428 18.879961 -0.23764536 0.92658168
-2.3829296 23.623407 -0.29601374 0.90939063
-2.0017967 22.697832 -0.28407633 0.91288
-0.20658202 16.436815 -0.20493835 0.93635786
-1.953125e-05 16.427734 -0.20480804 0.93639672
0.14749999 11.739101 -0.14636727 0.95412195
9.3573627 9.9645605 -0.17042072 0.94678628
18.428379 16.874687 -0.31152442 0.90487671
17.783672 13.974277 -0.28197709 0.91349626
1.2716016 0.94850582 -0.019777907 0.99367404
1.2716211 0.92389649 -0.01959629 0.99373198
1.2716601 0.89970702 -0.019421043 0.99378788
1.2716601 0.87596679 -0.019251784 0.99384189
1.2717773 0.80708981 -0.018779183 0.99399263
1.2718164 0.78486329 -0.018632431 0.99403936
1.271875 0.74142575 -0.01835453 0.99412805
1.2913867 0.70994139 -0.018372573 0.99412221
1.3307617 0.70996094 -0.018803826 0.99398452
1.5087304 0.70995116 -0.020788154 0.993352
1.5593164 0.70996094 -0.021360435 0.99316955
1.6127148 0.70995116 -0.02196827 0.99297595
1.7293359 0.70994139 -0.023305969 0.99254978
1.9956249 0.7043457 -0.026384162 0.99157
1.9956055 0.67624998 -0.026269378 0.99160647
1.9955273 0.64837891 -0.026159134 0.99164158
1.9955664 -0.64838868 -0.026159324 0.99164146
1.9955664 -0.67624998 -0.026269073 0.99160665
1.9337305 -0.70995116 -0.025682181 0.99179345
1.7931055 -0.70995116 -0.024043998 0.99231493
1.7293164 -0.70994139 -0.023305854 0.99254984
1.5592577 -0.70996094 -0.021360205 0.99316978
1.5087304 -0.70995116 -0.020787925 0.993352
1.4152539 -0.70994139 -0.019739952 0.9936862
1.3719727 -0.70995116 -0.019259108 0.99383944
1.3307226 -0.70994139 -0.018804129 0.99398464
1.271875 -0.7414453 -0.018354492 0.99412799
1.2716796 -0.87598634 -0.019251976 0.99384183
1.2716601 -0.89972657 -0.019421082 0.99378783
7.8979492 -8.41043 -0.14384089 0.95489544
7.6989255 -8.407793 -0.1421299 0.9554199
7.4957223 -8.6107025 -0.14232951 0.95535868
-0.2261914 -8.9971485 -0.11220482 0.96463764
-1.4802734 -8.9804487 -0.11347122 0.9642455
-1.9452929 -8.9669333 -0.11439583 0.96396053
-1.8602148 -7.6424217 -0.098068655 0.96902519
-3.0336914 -8.9524221 -0.11784206 0.96289319
-7.1663671 -19.519707 -0.25924057 0.92018455
-7.0863867 -13.282842 -0.18769908 0.94155324
-5.1861715 -8.8964453 -0.12838767 0.95964283
-6.6652927 -8.7051172 -0.13668723 0.95708925
-6.8312302 -8.4719534 -0.13568084 0.95739865
-7.0070896 -8.4700003 -0.13704948 0.9569785
-7.3698239 -8.4659662 -0.13993596 0.95609206
-7.748457 -8.4617577 -0.14304146 0.95513999
-7.9441795 -8.45959 -0.14468147 0.95463771
-8.1445112 -8.4573631 -0.1463827 0.95411682
-8.3496094 -8.4550972 -0.14814769 0.95357662
-8.5597458 -8.4527435 -0.14997806 0.95301628
-1.0402343 -0.92876953 -0.017385978 0.99443698
-1.040293 -0.90556639 -0.017195014 0.9944979
-1.0403515 -0.86066407 -0.016833153 0.99461329
-1.0404882 -0.75596678 -0.016034469 0.99486834
-1.0405273 -0.73619139 -0.015890922 0.99491405
-1.0405663 -0.7167871 -0.015752716 0.99495816
-1.0882226 -0.70996094 -0.016198883 0.99481577
-1.1187109 -0.70995116 -0.01651844 0.99471372
-1.1834179 -0.70995116 -0.017205199 0.99449462
-1.2178711 -0.70994139 -0.017574577 0.99437666
-1.2913867 -0.70995116 -0.018372649 0.99412221
-1.4152539 -0.70996094 -0.019739836 0.99368614
-1.5087109 -0.70996094 -0.020787735 0.99335206
-1.5592773 -0.70995116 -0.021359786 0.99316972
-1.7749804 -0.70277339 -0.023800468 0.9923923
-1.7749804 -0.67708981 -0.023684043 0.99242926
-1.7749413 -0.65164059 -0.023572998 0.99246484
-23.480604 -8.2871675 -0.31043383 0.90519196
-22.997246 7.7931347 -0.37000743 0.90743029
-1.7758007 0.65196288 -0.028825721 0.99246091
-1.7758398 0.67740232 -0.028962135 0.99242532
-1.6127148 0.70994139 -0.026850548 0.99297571
-1.5592773 0.70993161 -0.026107291 0.99316949
-1.3307226 0.70995116 -0.022983206 0.9939844
-1.2913672 0.70996094 -0.022455901 0.99412203
-1.2538086 0.70994139 -0.021955796 0.9942525
-1.1834179 0.70994139 -0.021029014 0.99449444
-1.1504102 0.70993161 -0.020599479 0.99460667
-1.0882226 0.70994139 -0.019799346 0.99481559
-1.0398632 0.71627927 -0.019240988 0.99496144
-1.0398632 0.73569334 -0.019409712 0.99491715
-1.039746 0.77557617 -0.019766083 0.99482423
-1.0397265 0.79607421 -0.019954147 0.99477512
-1.039668 0.81697261 -0.02014881 0.99472433
-1.0395898 0.88222653 -0.02077648 0.9945603
-1.0394336 0.95178711 -0.021475982 0.99437773
-7.9188085 7.6257911 -0.16751999 0.95697337
-7.7199802 7.6236033 -0.16532883 0.95752436
-7.3373632 7.6193457 -0.16118529 0.95856643
-7.1531248 7.6172948 -0.15922756 0.95905912
-6.9732418 7.6153221 -0.15734211 0.95953411
-6.4838867 7.6401267 -0.1526939 0.96070582
-6.4817381 7.8350682 -0.15494911 0.96013701
-6.5603318 8.3486814 -0.16179752 0.95841318
-6.5475583 9.7658596 -0.17916308 0.95405298
-6.5107226 12.581933 -0.21586844 0.94490278
-6.4474411 16.901865 -0.27565512 0.93018872
-6.4390817 17.538643 -0.28469923 0.92798299
-2.7955663 9.4015818 -0.14946255 0.96152163
-2.6881835 9.4745798 -0.15007435 0.96136725
-2.5798829 9.5482712 -0.15071495 0.9612053
-2.2116797 8.6138964 -0.13551781 0.96504813
-2.1130273 8.681035 -0.13614555 0.96488905
-2.013418 8.7488089 -0.13680072 0.96472311
-2.1781445 13.214384 -0.20408027 0.94783294
-2.0239062 13.319375 -0.20529002 0.94753128
-2.6265428 18.879971 -0.29046685 0.92657894
-2.0540819 18.084551 -0.27734751 0.92977583
-1.953125e-05 16.427794 -0.25032967 0.93639416
0.14751953 11.739092 -0.17889701 0.95412028
10.53459 15.712656 -0.28826535 0.92711461
9.3601751 10.222002 -0.21120289 0.94606233
9.352519 9.9594336 -0.20818923 0.94681102
19.055605 15.764179 -0.3768585 0.90580094
19.050253 15.360605 -0.37290388 0.9067415
17.778847 13.612637 -0.34121299 0.91431743
1.2707422 0.94783199 -0.024156837 0.99367815
1.2708398 0.87540036 -0.023514938 0.99384564
1.2708789 0.85206056 -0.023315696 0.99389768
1.2709179 0.82913083 -0.023123512 0.99394786
1.270957 0.80657226 -0.022937812 0.99399626
1.2710742 0.7409668 -0.022419471 0.99413151
1.2710937 0.71973634 -0.022258796 0.99417347
1.3307617 0.70996094 -0.022983436 0.99398428
1.3719727 0.70994139 -0.023539696 0.99383926
1.4152539 0.70993161 -0.024127692 0.99368596
1.5087304 0.70995116 -0.02540821 0.99335176
1.6693164 0.70994139 -0.027641905 0.99276936
1.7931055 0.70995116 -0.029387778 0.99231464
1.8611327 0.70994139 -0.030353507 0.99206299
1.9337695 0.70995116 -0.03139 0.99179304
1.9976171 0.64904296 -0.032006379 0.99163258
16.429707 3.7810059 -0.25690377 0.93477964
1.9975976 -0.64907223 -0.032006569 0.99163264
1.9977148 -0.7050879 -0.032281797 0.99156088
1.8611132 -0.70996094 -0.030353164 0.99206305
1.7293164 -0.70994139 -0.028485602 0.99254954
1.6692969 -0.70996094 -0.027641868 0.99276942
1.6127148 -0.70996094 -0.026850548 0.99297571
1.4152539 -0.70994139 -0.024127539 0.9936859
1.3719727 -0.70995116 -0.023539428 0.9938392
1.3307226 -0.70994139 -0.022983206 0.99398446
1.2914063 -0.70993161 -0.022456169 0.99412191
1.2710742 -0.7409668 -0.022419509 0.99413151
1.2710351 -0.76250976 -0.022586174 0.99408799
1.2709179 -0.8291406 -0.023123473 0.9939478
1.2708789 -0.85208005 -0.023315886 0.99389762
1.2707617 -0.92327148 -0.023935203 0.99373597
1.2707226 -0.94786131 -0.02415718 0.99367815
7.8979101 -8.41043 -0.17580898 0.95489389
7.6989255 -8.407793 -0.17371757 0.95541823
7.4957418 -8.610713 -0.17396209 0.95535696
7.4783006 -8.8118849 -0.17611381 0.95481747
-1.4802734 -8.9804296 -0.13869144 0.96424425
-1.8602148 -7.6424217 -0.11987133 0.969024
-1.9618945 -7.6410742 -0.12021186 0.96893346
-7.1663866 -19.519716 -0.31685379 0.92018151
-7.1423044 -18.039404 -0.29564747 0.92531919
-7.1322656 -16.769951 -0.27769381 0.92969102
-7.1244726 -16.183916 -0.26945117 0.93170512
-4.0641403 -8.9261522 -0.14942543 0.96152389
-5.1861715 -8.8964252 -0.15692295 0.9596414
-5.2618942 -8.0655365 -0.146744 0.96220744
-6.6652732 -8.7051077 -0.16706741 0.9570877
-7.3698239 -8.4659767 -0.17103855 0.95609039
-7.748457 -8.4617672 -0.17483391 0.95513833
-7.9441991 -8.4595995 -0.17683826 0.95463592
-8.1445112 -8.4573727 -0.17891754 0.95411503
-8.5597267 -8.452754 -0.18331257 0.95301455
-1.0394336 -0.95177734 -0.021476021 0.99437773
-1.0394726 -0.9280957 -0.02123432 0.99444085
-1.0395117 -0.90492183 -0.021001358 0.99450171
-1.0395898 -0.86003906 -0.020559693 0.99461699
-1.0396289 -0.83829099 -0.020350838 0.99467164
-1.0397265 -0.79607421 -0.019953957 0.99477512
-1.0398242 -0.75545895 -0.019584808 0.99487144
-1.0398632 -0.71629882 -0.019240912 0.99496138
-1.0589257 -0.70996094 -0.019426612 0.9949128
-1.1187109 -0.70995116 -0.020189552 0.99471354
-1.1834179 -0.70995116 -0.021029051 0.99449444
-1.2178711 -0.70994139 -0.02148075 0.99437648
-1.253828 -0.70996094 -0.021955719 0.99425238
-1.2913867 -0.70995116 -0.022455672 0.99412197
-1.3719727 -0.70995116 -0.023539238 0.9938392
-1.4152539 -0.70996094 -0.024127273 0.9936859
-1.4608008 -0.70994139 -0.024749069 0.9935236
-1.5087109 -0.70996094 -0.025408171 0.99335176
-1.5592773 -0.70995116 -0.026107254 0.99316949
-1.6692969 -0.70995116 -0.027641753 0.99276942
-1.7293164 -0.70995116 -0.028485565 0.99254954
-1.7758203 -0.67740232 -0.028962059 0.99242544
-23.480604 -8.2871771 -0.37942803 0.9051885
-22.911386 3.7765136 -0.41818109 0.91128713
-22.010292 3.9126952 -0.40260118 0.91444683
-21.958652 4.188828 -0.40259123 0.91444957
-21.903828 4.4643455 -0.40258071 0.91445124
-21.783573 5.0130954 -0.40255764 0.91445559
-21.718105 5.2862692 -0.40254512 0.91445839
-21.339472 6.6383495 -0.40247285 0.91447312
-1.7766601 0.65225583 -0.034084167 0.99245691
-1.7766992 0.70344722 -0.03441349 0.99238437
-1.7293164 0.70995116 -0.033665773 0.99254918
-1.5592773 0.70993161 -0.030855063 0.99316919
-1.5087304 0.70994139 -0.030028496 0.99335146
-1.4608008 0.70994139 -0.029250106 0.9935233
-1.4152539 0.70994139 -0.028515052 0.99368566
-1.3719921 0.70995116 -0.027820358 0.99383885
-1.3307226 0.70995116 -0.027162666 0.99398416
-1.2913672 0.70996094 -0.026539458 0.99412173
-1.2178711 0.70993161 -0.025387496 0.99437624
-1.1834179 0.70994139 -0.024853477 0.9944942
-1.1187109 0.70994139 -0.02386135 0.99471331
-1.0882226 0.70994139 -0.023399886 0.99481535
-1.0391797 0.71579099 -0.022724723 0.99496454
-1.0390821 0.75493163 -0.023130836 0.99487484
-1.0390429 0.77504879 -0.023344764 0.99482751
-1.0389649 0.81641603 -0.023796311 0.99472767
-1.0389258 0.83770508 -0.024034461 0.99467504
-1.0387305 0.92739254 -0.025077362 0.99444467
-1.0386719 0.95106441 -0.025362471 0.99438167
-8.1230469 7.6280761 -0.20067944 0.95639896
-7.9188085 7.6257911 -0.1979866 0.95697147
-7.5262499 7.6214352 -0.19290058 0.95805323
-7.3373632 7.6193457 -0.19049858 0.95856458
-6.9732418 7.6153121 -0.18595619 0.95953232
-6.7975583 7.613359 -0.18380745 0.95999026
-6.6258593 7.611455 -0.18173671 0.96043199
-6.4838672 7.6401072 -0.18046135 0.96070415
-6.5229688 11.18958 -0.23325843 0.94950294
-6.5047851 12.570508 -0.25490043 0.94494897
-6.4883595 13.788486 -0.2744405 0.9408561
-6.4824805 14.237646 -0.28173688 0.93933231
-6.4762301 14.711454 -0.28947684 0.93771821
-7.3617382 21.724346 -0.41309455 0.91231853
-7.0873632 21.812529 -0.41304314 0.91232854
-6.8118553 21.897108 -0.41299155 0.91233903
-2.7956054 9.4015722 -0.17664242 0.9615199
-2.6881835 9.4745798 -0.17736538 0.96136552
-2.5798829 9.5482616 -0.17812504 0.96120358
-2.2116797 8.6138964 -0.16016173 0.96504653
-2.0133789 8.7488279 -0.16167954 0.96472144
-2.5185742 14.167675 -0.25915045 0.94405723
-2.0238867 13.319345 -0.24262394 0.94752908
-2.0540819 18.084551 -0.32778528 0.92977268
-2.2229102 22.036884 -0.39888254 0.91520315
-1.6680077 22.080069 -0.39877877 0.91522413
-0.83423829 22.118465 -0.39862284 0.91525632
-1.953125e-05 16.427881 -0.2958535 0.936391
0.14751953 11.739081 -0.21142921 0.95411825
0.55585939 22.11285 -0.39836299 0.91530889
8.7144728 22.844873 -0.44033492 0.9068138
8.6988277 21.188828 -0.41250068 0.91243851
8.69168 20.436699 -0.39995536 0.91498536
8.8810349 20.174141 -0.39696971 0.91559237
9.1328125 20.058691 -0.39692274 0.91560143
9.3830662 19.93998 -0.3968761 0.91561097
9.6309175 19.816542 -0.39679733 0.91562718
10.123027 19.562704 -0.39668477 0.91565001
10.366543 19.431152 -0.39662901 0.91566169
10.608438 19.296688 -0.39657369 0.91567284
10.848613 19.159218 -0.39651877 0.91568387
11.086894 19.018652 -0.39646423 0.91569549
11.323457 18.875254 -0.39641014 0.91570652
12.478027 18.114981 -0.39614609 0.91575998
13.119941 18.543701 -0.40909544 0.91312963
13.578964 18.204355 -0.40900999 0.91314691
13.805293 18.030468 -0.40896785 0.9131552
14.029277 17.853701 -0.40892616 0.91316396
14.251035 17.674141 -0.40888491 0.9131726
14.687871 17.307119 -0.40880361 0.91318852
15.940644 16.142225 -0.40857065 0.91323632
16.338379 15.73374 -0.40849674 0.91325104
16.533379 15.525859 -0.4084605 0.91325814
16.915312 15.102793 -0.40838954 0.91327286
17.102324 14.887783 -0.40835482 0.91327983
17.646875 14.229062 -0.4082537 0.91330057
1.2698437 0.94720703 -0.028530387 0.99368221
1.2699804 0.87480468 -0.027772674 0.99384952
1.2700585 0.85150391 -0.027537726 0.99390131
1.2702734 0.71925777 -0.026290169 0.99417698
1.6693164 0.70994139 -0.032668684 0.99276906
1.7293359 0.70994139 -0.033666074 0.99254912
1.7931055 0.70995116 -0.034732018 0.99231428
1.8611132 0.70994139 -0.035873566 0.99206269
1.9997851 0.70582032 -0.038192902 0.99155176
1.9997461 0.67764646 -0.038025819 0.99158841
21.001856 6.2449608 -0.39459774 0.91607511
21.412167 4.6451173 -0.39459029 0.91607678
21.522364 4.1056056 -0.39459303 0.91607589
21.572323 3.8348534 -0.39459544 0.91607565
22.754433 3.1655176 -0.41374046 0.91218799
23.970682 -4.8856249 -0.4405719 0.90676689
22.428261 -4.8655663 -0.4133144 0.91227418
21.356092 -4.9147558 -0.3946642 0.91606176
21.293339 -5.18291 -0.39467621 0.91605914
21.227207 -5.4502344 -0.39468887 0.91605657
21.157734 -5.7167382 -0.39470211 0.91605395
21.008924 -6.2470798 -0.39473051 0.91604811
1.9997265 -0.67765623 -0.038025931 0.99158847
1.9998046 -0.70581055 -0.038192671 0.9915517
1.9337305 -0.70995116 -0.037098195 0.9917928
1.7931055 -0.70995116 -0.034731712 0.99231428
1.6692969 -0.70996094 -0.032668799 0.99276912
1.6127148 -0.70996094 -0.031733587 0.99297535
1.5592577 -0.70996094 -0.030855292 0.99316919
1.5087304 -0.70995116 -0.030028723 0.9933514
1.4152539 -0.70994139 -0.028515128 0.99368566
1.3307226 -0.70994139 -0.027162742 0.99398416
1.270293 -0.71927732 -0.02628994 0.99417686
1.2701757 -0.78386718 -0.026880341 0.99404651
1.2700976 -0.82859373 -0.027310677 0.99395144
1.2700585 -0.85150391 -0.027537689 0.99390131
1.27 -0.87480468 -0.027772712 0.99384946
1.2699413 -0.89852536 -0.028016433 0.99379563
1.2699219 -0.92263669 -0.028268928 0.99373984
1.2698632 -0.94720703 -0.028530654 0.99368215
18.087011 -14.583994 -0.41843405 0.911237
17.903749 -14.811289 -0.41846853 0.91123027
17.528887 -15.25913 -0.41853911 0.91121578
17.337206 -15.479541 -0.4185752 0.91120857
17.142773 -15.69751 -0.41861174 0.91120142
16.745878 -16.126221 -0.41868645 0.91118628
16.338339 -16.54497 -0.41876307 0.91117072
7.49125 -8.3902931 -0.20257331 0.95599842
7.4957418 -8.610713 -0.20560016 0.95535493
7.4783006 -8.8118849 -0.2081406 0.95481539
13.917891 -18.658798 -0.41921782 0.91107821
13.208964 -19.176151 -0.41935092 0.91105139
12.968379 -19.342783 -0.41939604 0.91104192
12.725644 -19.506279 -0.41944158 0.91103297
12.480918 -19.666864 -0.41948754 0.91102344
11.734707 -20.129911 -0.41962752 0.91099542
11.48209 -20.278076 -0.41967493 0.91098589
11.227695 -20.423174 -0.41972268 0.91097581
10.971426 -20.564951 -0.41977072 0.91096628
9.9288473 -21.09997 -0.41996619 0.91092712
9.6640425 -21.225576 -0.42001581 0.9109171
9.3977337 -21.347998 -0.42006576 0.91090649
9.1298437 -21.466953 -0.42011595 0.91089636
8.8604097 -21.582548 -0.42016646 0.91088629
8.589551 -21.694775 -0.42021719 0.9108761
8.3172064 -21.803583 -0.42026824 0.91086608
7.7686133 -22.011211 -0.420371 0.9108448
6.9360547 -22.296621 -0.42052698 0.91081327
6.6561718 -22.384834 -0.4205794 0.9108026
6.3751559 -22.46953 -0.420632 0.91079187
6.0930662 -22.550694 -0.42068484 0.9107812
5.5258594 -22.702372 -0.42079103 0.91075987
4.954824 -22.839813 -0.42089796 0.91073847
4.6680274 -22.903271 -0.42095163 0.91072732
4.0920506 -23.019297 -0.42105946 0.91070533
3.8029492 -23.071943 -0.42111358 0.91069412
3.2227733 -23.166054 -0.42122209 0.91067266
2.3482616 -23.279989 -0.42138571 0.91063994
1.4697266 -23.36121 -0.42155007 0.91060615
1.1762304 -23.380928 -0.42160496 0.91059488
0.29427734 -23.417646 -0.42176986 0.9105621
-1.1774805 -23.405243 -0.42204502 0.91050619
-1.4716992 -23.391699 -0.42210001 0.91049486
-2.3532422 -23.32872 -0.42226472 0.91046154
-2.646543 -23.300381 -0.42231956 0.91045028
-2.9394727 -23.268232 -0.42237431 0.91043943
-3.2320702 -23.232372 -0.42242897 0.9104287
-1.4802734 -8.9804296 -0.16391338 0.96424258
-4.1069727 -23.103106 -0.42259243 0.91039521
-4.3975978 -23.052713 -0.42264664 0.91038394
-1.9452538 -8.9669142 -0.16524528 0.96395767
-1.9618945 -7.6410546 -0.14207351 0.96893215
-6.4114256 -22.597197 -0.42302269 0.91030842
-6.9790626 -22.434599 -0.4231286 0.91028684
-7.2613082 -22.347939 -0.4231813 0.91027611
-7.1422849 -18.039366 -0.34941053 0.92531604
-7.0974607 -14.148662 -0.28506884 0.93863702
-6.6627536 -8.4789352 -0.19420443 0.95777619
-7.0070896 -8.4700098 -0.19797027 0.95697492
-7.1865821 -8.468008 -0.20002028 0.95653951
-7.748457 -8.4617672 -0.20662773 0.9551363
-7.9441991 -8.4595995 -0.20899661 0.95463389
-8.1445112 -8.4573727 -0.21145388 0.95411301
-8.3496094 -8.4550972 -0.2140034 0.95357275
-8.7752142 -8.4503803 -0.21939728 0.95243073
-8.9962692 -8.4479294 -0.22225203 0.95182699
-1.0386328 -0.95109373 -0.025362471 0.99438167
-1.0387695 -0.90427732 -0.024802361 0.99450535
-1.0388281 -0.88160157 -0.024537047 0.994564
-1.0390038 -0.79552734 -0.023566628 0.99477851
-1.0390821 -0.77504879 -0.023344994 0.99482739
-1.0390821 -0.75495118 -0.023130836 0.99487484
-1.0391797 -0.71581054 -0.0227248 0.99496448
-1.0882226 -0.70996094 -0.023399809 0.99481529
-1.253828 -0.70996094 -0.025948485 0.99425215
-1.3307226 -0.70995116 -0.027162742 0.99398416
-1.5087109 -0.70996094 -0.03002861 0.99335146
-1.5592773 -0.70995116 -0.03085495 0.99316913
-1.6692969 -0.70995116 -0.032668456 0.99276912
-1.7766992 -0.70344722 -0.03441368 0.99238437
-1.7766211 -0.65225583 -0.034084089 0.99245709
-21.080839 -7.4402633 -0.40260062 0.91444707
-21.173613 -7.175127 -0.40261766 0.91444337
-21.262831 -6.908711 -0.40263408 0.91444063
-21.431425 -6.3727145 -0.40266502 0.91443413
-21.586269 -5.8325195 -0.40269339 0.91442859
-21.65873 -5.5610447 -0.40270668 0.91442525
-21.727324 -5.2885251 -0.40271917 0.9144237
-21.792793 -5.015254 -0.40273115 0.91442096
-21.854706 -4.7411423 -0.40274242 0.91441864
-24.363886 -0 -0.50629628 0.90712357
-24.356073 0.61225587 -0.50629419 0.90712398
-24.346308 0.91826171 -0.50629205 0.90712458
-24.293945 1.8352051 -0.50628126 0.90712619
-24.169979 3.053369 -0.50625676 0.90713012
-24.129257 3.3567674 -0.50624883 0.90713179
-24.084785 3.6596582 -0.50624019 0.90713316
-22.852949 3.7668846 -0.48130542 0.91149855
-21.067324 3.7450683 -0.44465569 0.91795313
-18.67416 5.0456638 -0.40197632 0.92552704
-18.60873 5.2797656 -0.4019638 0.92552912
-18.468885 5.7453222 -0.40193716 0.92553413
-1.7775195 0.67804688 -0.039534111 0.99241745
-1.7293164 0.70995116 -0.038846739 0.99254876
-1.6692773 0.70995116 -0.037695996 0.99276876
-1.6127148 0.70994139 -0.036616784 0.992975
-1.4608008 0.70994139 -0.03375122 0.99352294
-1.3307617 0.70995116 -0.031342886 0.99398369
-1.2913672 0.70996094 -0.030623855 0.99412143
-1.2178711 0.70993161 -0.029294204 0.99437594
-1.1834179 0.70994139 -0.028678093 0.9944939
-1.1504102 0.70993161 -0.02809185 0.99460614
-1.1187109 0.70994139 -0.027533378 0.99471301
-1.0882226 0.70994139 -0.027000733 0.99481505
-1.0384766 0.71532226 -0.026204489 0.99496764
-1.0383008 0.79498047 -0.027174415 0.99478173
-1.0381836 0.83709961 -0.027713623 0.99467856
-1.0380664 0.88097656 -0.02829277 0.99456763
-1.0380077 0.90360349 -0.028598364 0.9945091
-1.0379492 0.92673826 -0.028915061 0.99444842
-7.9188085 7.6258006 -0.22845387 0.95696914
-7.1531053 7.6172948 -0.21714324 0.95905519
-6.6258788 7.611455 -0.20970443 0.96042985
-6.481699 7.8350387 -0.21130848 0.96013331
-6.518281 11.51166 -0.27490622 0.94844884
-6.5092382 12.200976 -0.28736907 0.94617581
-7.3178124 18.482578 -0.41308975 0.92354912
-7.0842381 18.571161 -0.413046 0.92355669
-6.8495703 18.656679 -0.41300204 0.92356473
-6.6138864 18.739326 -0.41295791 0.92357236
-6.3772459 18.819014 -0.41291359 0.92357993
-6.1395898 18.895576 -0.41286904 0.92358804
-2.7956054 9.4015722 -0.203825 0.96151787
-2.6881835 9.4745607 -0.20465912 0.96136355
-2.5799022 9.5482616 -0.20553416 0.96120155
-2.2116601 8.6138763 -0.18480808 0.9650448
-2.013418 8.7488184 -0.18655868 0.96471959
-4.2084961 19.399286 -0.41250747 0.92365259
-3.9639647 19.448515 -0.41246173 0.92366058
-2.5185742 14.167686 -0.29903111 0.94405425
-2.178164 13.214355 -0.27830973 0.94782799
-2.0238867 13.319345 -0.2799623 0.94752634
-2.6265428 18.879911 -0.39611736 0.92657208
-2.4059961 19.045313 -0.39891997 0.92607194
-2.054121 18.084551 -0.37822399 0.92976904
-1.445371 19.133467 -0.39874029 0.92610425
-1.2046679 19.147919 -0.39869529 0.92611241
-0.96388668 19.159443 -0.39865023 0.92612016
-0.72296876 19.167841 -0.3986052 0.92612833
1.953125e-05 16.427938 -0.34138221 0.93638748
0.14751953 11.739081 -0.24396628 0.95411587
1.2124804 24.10206 -0.50148904 0.90796357
1.5150976 24.082157 -0.50143242 0.90797365
1.8174022 24.058466 -0.50137597 0.90798366
2.1193359 24.030975 -0.50131953 0.90799373
2.4208789 23.999706 -0.5012632 0.90800369
2.7219532 23.964746 -0.50120693 0.9080134
3.0225585 23.926064 -0.50115079 0.90802288
3.3225975 23.883457 -0.50109476 0.90803289
3.9208789 23.787245 -0.500983 0.90805191
4.2190037 23.733368 -0.50092733 0.90806198
4.8130274 23.614433 -0.5008164 0.90808207
7.152441 22.992147 -0.50037968 0.90815824
7.726367 22.800331 -0.50027257 0.90817666
8.0113869 22.698984 -0.5002194 0.90818614
8.6511908 18.384775 -0.42223182 0.92192471
8.779726 16.966806 -0.39699206 0.9264161
8.9911518 16.853115 -0.39694539 0.92642462
9.2011328 16.736797 -0.39689735 0.92643309
9.6165428 16.496357 -0.39680234 0.92644989
10.025683 16.245605 -0.39670876 0.92646676
9.9188471 15.629589 -0.38468006 0.92861491
