# .PCD v0.7 - Point Cloud Data file format
VERSION 0.7
FIELDS x y z intensity
SIZE 4 4 4 4
TYPE F F F F
COUNT 1 1 1 1
WIDTH 1083
HEIGHT 1
VIEWPOINT 0 0 0 1 0 0 0
POINTS 1083
DATA ascii
1.3084179 -8.6107912 -0.39840403 0.96572614
0.92509764 -9.1708889 -0.42163154 0.96376455
0.80980468 -9.1823339 -0.42165512 0.96376246
0.46324217 -9.2078514 -0.42172581 0.96375656
0.3475 -9.2134466 -0.42174941 0.96375465
0.23171875 -9.217617 -0.42177308 0.96375257
0.11589844 -9.2203026 -0.42179668 0.96375066
-0.1158789 -9.2213573 -0.42184395 0.96374655
-0.5791797 -9.2059469 -0.42193848 0.96373862
-0.69486326 -9.1984472 -0.42196205 0.96373665
-0.92591792 -9.1791115 -0.42200911 0.96373266
-1.1564063 -9.1539745 -0.42205611 0.96372867
-1.5008398 -9.105381 -0.42212629 0.96372283
-1.956582 -8.5019627 -0.39906991 0.96566987
-2.0721874 -7.669199 -0.36338753 0.96869051
-2.3818164 -8.3947458 -0.39915648 0.96566248
-2.8011718 -8.2662401 -0.39924183 0.96565527
-2.905 -8.2308102 -0.39926291 0.96565354
-3.3155663 -8.0761518 -0.39934647 0.96564645
-4.1110153 -7.7057519 -0.39950812 0.96563274
-4.2077341 -7.6538477 -0.39952776 0.96563113
-4.3037891 -7.6007519 -0.39954731 0.96562946
-4.6811328 -7.376318 -0.3996239 0.96562302
-4.8654881 -7.2570019 -0.39966133 0.96561992
-5.1362891 -7.0694628 -0.39971626 0.96561509
-5.399785 -6.8717575 -0.39976969 0.96561068
-5.4859571 -6.8036814 -0.39978716 0.96560913
-5.5712695 -6.7344823 -0.39980444 0.9656077
-5.6556835 -6.664248 -0.39982158 0.96560621
-5.8218751 -6.5205369 -0.39985526 0.96560341
-6.1431055 -6.2208009 -0.39992031 0.96559799
-6.2210546 -6.1433592 -0.39993605 0.96559662
-6.2980075 -6.0649414 -0.39995167 0.9655953
-6.3739452 -5.9855371 -0.39996704 0.96559411
-1.0310742 -0.92062497 -0.063229792 0.99448043
-1.0312109 -0.89770508 -0.062541537 0.99454039
-1.0314844 -0.8533203 -0.061236952 0.99465394
-1.0316015 -0.83181638 -0.060618665 0.99470776
-1.0319726 -0.76975584 -0.058891028 0.99485815
-1.0320507 -0.74984372 -0.058354758 0.99490494
-1.0322655 -0.71104491 -0.057337377 0.99499351
-1.0588672 -0.70993161 -0.05831619 0.99490833
-1.1186719 -0.70993161 -0.060606994 0.99470878
-1.1503906 -0.70992184 -0.061836317 0.99460173
-1.217832 -0.70994139 -0.064482383 0.99437135
-1.2913672 -0.70993161 -0.067409515 0.9941166
-1.3307226 -0.70995116 -0.068992078 0.99397886
-1.3719531 -0.70993161 -0.070662268 0.9938336
-1.7852734 -0.70683593 -0.08783146 0.99234104
-1.7851758 -0.68097657 -0.08740066 0.99237859
-1.7851367 -0.65538085 -0.086986847 0.99241441
-10.387304 -3.666074 -0.50387186 0.95685142
-10.432754 -3.5353417 -0.50388092 0.95685059
-10.518691 -3.2721581 -0.50389802 0.95684904
-10.597929 -3.0069041 -0.50391376 0.95684773
-10.635019 -2.8735156 -0.50392109 0.95684713
-10.670429 -2.739707 -0.50392812 0.95684659
-10.766523 -2.3356738 -0.50394708 0.95684493
-10.795195 -2.2002149 -0.50395268 0.95684427
-10.82207 -2.0644042 -0.50395799 0.95684397
-10.847265 -1.9282616 -0.50396287 0.95684355
-10.870684 -1.7918457 -0.50396746 0.95684338
-10.912539 -1.5180956 -0.50397557 0.95684236
-10.930761 -1.3808692 -0.50397909 0.95684236
-10.986582 -0.82992184 -0.50398958 0.95684141
-10.996172 -0.69181639 -0.50399131 0.95684129
-10.384805 9.7656248e-06 -0.50386548 0.95926481
-10.381504 0.26098633 -0.50386441 0.95926493
-10.371601 0.52179688 -0.50386196 0.95926517
-10.364219 0.65208983 -0.50386024 0.95926517
-10.355195 0.7822656 -0.50385815 0.95926523
-10.318203 1.1719629 -0.50384998 0.95926583
-10.302578 1.3015332 -0.50384659 0.95926613
-10.285313 1.4308789 -0.50384289 0.95926654
-10.245937 1.6888866 -0.50383443 0.95926714
-10.200039 1.9457715 -0.50382465 0.95926803
-10.174687 2.0737793 -0.50381929 0.95926839
-10.147715 2.2014453 -0.50381356 0.95926887
-9.9887886 2.8340917 -0.50378019 0.95927155
-9.9522657 2.9593456 -0.5037725 0.95927203
-9.9141016 3.0841405 -0.50376451 0.95927274
-9.8331642 3.3321972 -0.50374764 0.95927399
-9.7903509 3.4554198 -0.5037387 0.95927471
-1.7860546 0.68134767 -0.092750125 0.99237382
-1.7292968 0.70996094 -0.090700567 0.99254173
-1.6127343 0.70996094 -0.085494496 0.9929682
-1.5592577 0.70997071 -0.083128244 0.99316227
-1.2913672 0.70997071 -0.071501657 0.99411577
-1.2537695 0.70996094 -0.069909282 0.99424654
-1.1503906 0.70995116 -0.065590017 0.99460095
-1.0882226 0.70996094 -0.063042827 0.99481004
-1.0588672 0.70996094 -0.061856117 0.99490762
-1.0314844 0.72982419 -0.061306685 0.99495256
-1.03125 0.76924801 -0.062423285 0.99486101
-1.0311328 0.78951168 -0.063011624 0.99481267
-1.0308594 0.83125973 -0.064253122 0.99471074
-1.0307422 0.85275388 -0.064908065 0.99465698
-1.0305078 0.89707029 -0.066289634 0.99454343
-1.0303515 0.91998047 -0.067018658 0.99448359
-5.9338279 5.7142773 -0.39969745 0.96754783
-5.7878904 5.8611326 -0.39966741 0.96755034
-5.6383591 6.0042968 -0.39963672 0.96755266
-5.4852734 6.1435838 -0.39960524 0.96755522
-5.407402 6.2117772 -0.39958927 0.96755654
-5.328711 6.2789745 -0.39957312 0.96755785
-5.2491794 6.3452048 -0.39955676 0.96755904
-5.168828 6.4104004 -0.39954028 0.96756035
-4.9229298 6.599824 -0.39948982 0.96756434
-4.839375 6.6608496 -0.39947265 0.96756589
-4.7550778 6.7208591 -0.39945537 0.96756727
-4.6700587 6.7797852 -0.39943793 0.96756858
-4.5842967 6.8376465 -0.39942035 0.96756995
-4.4978318 6.8944039 -0.39940262 0.96757132
-4.3227344 7.0046387 -0.39936677 0.96757424
-4.2341795 7.0580664 -0.39934859 0.96757573
-4.1449804 7.1104102 -0.39933029 0.9675771
-3.8735156 7.2605567 -0.39927468 0.96758157
-3.7817967 7.30832 -0.3992559 0.96758306
-3.689492 7.3549118 -0.39923698 0.96758455
-3.5965819 7.4003415 -0.39921799 0.96758616
-3.503125 7.4445996 -0.39919883 0.96758765
-3.4091797 7.4876757 -0.39917961 0.96758914
-3.2195897 7.5702438 -0.39914078 0.9675923
-3.1240625 7.6097264 -0.39912122 0.96759385
-3.0280468 7.6480079 -0.39910159 0.9675954
-2.7372265 7.755527 -0.39904207 0.96760023
-2.4425781 7.8519921 -0.39898184 0.96760511
-2.3436327 7.8816695 -0.3989616 0.96760666
-1.7427148 8.033349 -0.39883876 0.96761644
-1.6415625 8.0541897 -0.39881808 0.96761811
-1.5401562 8.0737696 -0.39879736 0.96761972
-1.4384766 8.0920601 -0.39877662 0.96762145
-1.1323047 8.139267 -0.39871407 0.96762633
-1.0298828 8.152441 -0.39869314 0.96762794
-0.82460934 8.1748629 -0.39865124 0.9676314
-0.51582032 8.1988573 -0.39858821 0.96763635
-0.41273436 8.2042475 -0.3985672 0.96763808
-0.30957031 8.2083397 -0.39854613 0.9676398
-0.20640625 8.2111225 -0.39852509 0.96764159
-0.10320313 8.212656 -0.39850402 0.9676432
0 8.2128515 -0.39848295 0.96764493
0.10597656 8.43081 -0.40909004 0.96679813
0.22738281 9.0448141 -0.43898657 0.96441531
0.6491406 10.317705 -0.50159806 0.95944422
0.7787109 10.308203 -0.50157166 0.95944631
0.90812498 10.29705 -0.50154531 0.95944846
2.5690038 10.005517 -0.50120693 0.95947516
2.8193359 9.9367867 -0.50115597 0.95947921
2.9438477 9.9000683 -0.50113064 0.95948124
3.1913671 9.8220015 -0.50108027 0.95948511
3.5587499 9.6932421 -0.50100553 0.95949125
3.6800976 9.6473141 -0.50098079 0.9594931
3.920996 9.5508595 -0.50093186 0.95949692
4.0405078 9.5003805 -0.50090754 0.95949882
4.2775583 9.3949213 -0.50085938 0.9595027
4.3950782 9.3400002 -0.50083548 0.95950454
4.74332 9.1663961 -0.50076473 0.95951021
4.8578906 9.1056252 -0.50074142 0.95951211
5.0847459 8.9798536 -0.50069535 0.95951569
5.3082809 8.8484564 -0.50064999 0.95951927
5.8521094 8.4957905 -0.5005396 0.95952809
6.063242 8.3453417 -0.5004968 0.95953149
6.4738278 8.0288477 -0.50041348 0.95953792
6.6729879 7.8629589 -0.50037313 0.95954126
6.7710156 7.7781734 -0.50035328 0.95954281
7.1521873 7.427031 -0.50027609 0.95954877
7.4261718 7.1513572 -0.50022066 0.95955342
7.5152144 7.0572166 -0.5002026 0.95955473
7.6030078 6.9620018 -0.50018483 0.95955616
7.6896091 6.865654 -0.50016731 0.95955759
7.7750387 6.7682419 -0.50015008 0.9595589
8.1042185 6.3682032 -0.50008357 0.95956415
8.1832809 6.2656641 -0.50006759 0.95956558
1.2605274 0.91581053 -0.075596042 0.99377972
1.2608984 0.84537107 -0.07365448 0.99393904
1.2610157 0.82267576 -0.07305187 0.99398851
1.2611523 0.80035156 -0.072470203 0.99403614
1.2613672 0.7566992 -0.071367189 0.99412668
1.3307421 0.70996094 -0.073180541 0.99397796
1.3720117 0.70995116 -0.074951746 0.99383259
1.4153124 0.70996094 -0.076823577 0.99367899
1.4607812 0.70996094 -0.078803748 0.9935168
1.50875 0.70994139 -0.08090198 0.99334466
1.5592968 0.70996094 -0.083128504 0.99316216
1.6127343 0.70997071 -0.085494921 0.9929682
1.6693358 0.70996094 -0.088013835 0.99276167
1.7931249 0.70996094 -0.093572654 0.99230641
1.9337499 0.70995116 -0.099948116 0.99178439
2.0230467 0.68556637 -0.10363995 0.9914822
9.8348436 3.059453 -0.49973583 0.95959169
9.9427338 2.6864843 -0.49971443 0.95959342
9.975605 2.5612988 -0.49970791 0.95959383
10.036523 2.309746 -0.49969587 0.95959502
10.064668 2.1834276 -0.49969032 0.95959538
10.091249 2.0567577 -0.49968514 0.95959562
10.161289 1.6749023 -0.49967143 0.95959681
10.181445 1.5470703 -0.49966753 0.95959717
10.246055 1.0335449 -0.49965519 0.95959818
10.258203 0.90470701 -0.49965289 0.9595983
10.268711 0.77572262 -0.49965096 0.95959848
10.277597 0.64663082 -0.49964935 0.95959866
10.290566 0.388125 -0.49964714 0.95959878
10.297071 0.12941407 -0.49964622 0.95959878
10.297852 9.7656248e-06 -0.49964625 0.9595989
10.294648 -0.25878906 -0.49964732 0.95959872
10.290606 -0.388125 -0.49964836 0.95959866
10.284961 -0.51740235 -0.49964973 0.95959848
10.277656 -0.64659178 -0.4996514 0.95959848
10.268789 -0.77571285 -0.49965343 0.95959818
10.258242 -0.90467769 -0.49965578 0.95959812
10.246172 -1.0335253 -0.49965847 0.95959771
10.21707 -1.2907128 -0.49966478 0.95959729
10.200117 -1.4189941 -0.49966845 0.95959705
10.181523 -1.54708 -0.49967247 0.95959687
10.116269 -1.9297656 -0.49968639 0.95959574
10.091328 -2.0567577 -0.49969169 0.95959532
10.036679 -2.3097558 -0.4997032 0.95959443
9.908515 -2.8112793 -0.49973017 0.95959216
9.8725386 -2.9356248 -0.49973768 0.95959163
2.0229297 -0.6572656 -0.1032003 0.99151808
2.0230467 -0.68555665 -0.10363979 0.99148226
1.9337499 -0.70993161 -0.099947318 0.99178445
1.4608203 -0.70992184 -0.078803331 0.99351674
1.2914257 -0.70994139 -0.071501613 0.99411565
1.2614453 -0.73535156 -0.070844613 0.99416965
1.26125 -0.7783398 -0.071908914 0.99408227
1.2611523 -0.80032223 -0.072470129 0.9940362
1.2607812 -0.86842769 -0.074278906 0.99388784
1.260664 -0.89191407 -0.074925691 0.99383473
1.2605078 -0.91580075 -0.075596236 0.99377984
6.5022264 -4.9784861 -0.39733872 0.9677363
6.3754687 -5.1406541 -0.3973648 0.96773428
6.310586 -5.2205467 -0.39737815 0.96773314
6.177793 -5.3778319 -0.39740553 0.96773112
6.0411716 -5.5317969 -0.39743361 0.96772867
5.9713864 -5.607461 -0.397448 0.9677276
5.9006639 -5.6822848 -0.39746252 0.96772641
5.6829295 -5.9012985 -0.39750731 0.96772289
5.5332813 -6.0427146 -0.39753807 0.96772039
5.4570899 -6.1120114 -0.39755371 0.9677192
5.3801169 -6.1803513 -0.39756954 0.96771783
5.3022265 -6.2477245 -0.39758551 0.96771657
5.1439452 -6.3795114 -0.39761803 0.96771407
4.9004688 -6.5696969 -0.397668 0.96770996
4.649961 -6.750576 -0.39771938 0.96770597
4.564961 -6.8087988 -0.39773682 0.96770453
4.3928318 -6.9219823 -0.3977721 0.96770167
4.3057032 -6.9769335 -0.39778998 0.96770024
3.8600194 -7.2352047 -0.3978813 0.96769285
3.6773241 -7.330586 -0.39791873 0.96768999
3.585078 -7.3765917 -0.39793763 0.96768838
3.4922655 -7.4213963 -0.39795661 0.96768695
3.304961 -7.5075388 -0.397995 0.96768391
3.2105467 -7.5488477 -0.39801428 0.9676823
2.8277538 -7.7021484 -0.39809266 0.96767604
2.7308593 -7.7374315 -0.39811245 0.96767455
2.6335547 -7.7715526 -0.39813235 0.96767288
2.5358202 -7.8044043 -0.39815235 0.96767133
2.4376757 -7.8360348 -0.39817241 0.96766979
2.2402148 -7.8956347 -0.39821282 0.96766651
1.8410742 -7.9998631 -0.39829439 0.96765995
1.7404492 -8.0227728 -0.39831495 0.96765834
1.6396093 -8.0444431 -0.39833552 0.96765661
1.538457 -8.0648241 -0.39835623 0.967655
1.3354297 -8.1017771 -0.39839765 0.96765172
1.1315429 -8.1335936 -0.39843932 0.96764851
0.926875 -8.1603518 -0.39848113 0.96764505
0.41279295 -8.2045898 -0.39858606 0.96763676
0.30964842 -8.2095795 -0.39860711 0.96763498
0.20648438 -8.2132521 -0.39862815 0.96763331
0.10324219 -8.2156343 -0.39864925 0.96763164
-0.2065039 -8.2150002 -0.39871246 0.96762657
-0.30976561 -8.2121677 -0.39873353 0.96762496
-0.41292968 -8.2080956 -0.39875451 0.96762317
-0.51605469 -8.2026663 -0.39877555 0.96762156
-0.72212887 -8.1879683 -0.3988176 0.96761823
-1.1328515 -8.1430759 -0.39890128 0.96761143
-1.2351562 -8.1285934 -0.39892212 0.96760988
-1.3372656 -8.1128416 -0.39894295 0.96760827
-1.5408593 -8.0775194 -0.3989844 0.96760494
-1.6423242 -8.0579491 -0.39900509 0.96760327
-1.7435546 -8.0370998 -0.39902571 0.96760154
-1.9451562 -7.9915524 -0.39906678 0.96759838
-2.0455468 -7.9668746 -0.39908722 0.96759677
-2.0721874 -7.669199 -0.38544968 0.96868652
-2.3447266 -7.8853512 -0.39914811 0.96759176
-2.5424023 -7.8247461 -0.39918834 0.96758848
-2.6406641 -7.7925487 -0.39920834 0.96758693
-2.7385156 -7.7591305 -0.39922825 0.96758538
-3.1255078 -7.6132321 -0.39930692 0.96757913
-3.3161914 -7.5330176 -0.3993457 0.96757603
-3.410742 -7.4911032 -0.39936492 0.96757454
-3.598242 -7.4037304 -0.39940304 0.9675715
-3.6911719 -7.3583007 -0.3994219 0.96756989
-3.7835546 -7.3116894 -0.39944068 0.96756834
-3.9664452 -7.214951 -0.39947784 0.96756548
-4.4126759 -6.9532223 -0.39956847 0.96755821
-4.5864062 -6.8407226 -0.39960372 0.96755552
-4.6721873 -6.7828612 -0.39962113 0.96755409
-4.7572656 -6.7239161 -0.39963835 0.96755266
-5.0079684 -6.5406737 -0.39968926 0.96754855
-5.0899611 -6.4774804 -0.39970589 0.9675473
-5.1711912 -6.4133005 -0.39972231 0.96754587
-5.2515626 -6.3480468 -0.39973861 0.96754467
-5.331172 -6.2818456 -0.39975479 0.96754318
-5.409863 -6.21457 -0.39977074 0.96754211
-5.5647655 -6.0771384 -0.39980209 0.96753961
-5.7905078 -5.8637595 -0.39984778 0.96753597
-5.8639646 -5.7907324 -0.39986268 0.96753478
-5.9364843 -5.7167969 -0.39987734 0.96753365
-6.0081053 -5.6419435 -0.39989179 0.9675324
-1.0303515 -0.91995114 -0.06701874 0.99448365
-1.030625 -0.87464839 -0.065586396 0.99460131
-1.0307422 -0.85272461 -0.064907834 0.99465704
-1.0308594 -0.83122069 -0.064253084 0.99471086
-1.0311328 -0.78951168 -0.063011624 0.99481267
-1.03125 -0.76922852 -0.062423095 0.99486101
-1.0313476 -0.74932617 -0.061855085 0.99490774
-1.0315624 -0.71058589 -0.060777549 0.99499619
-1.0588672 -0.70993161 -0.061855774 0.99490768
-1.0882031 -0.70993161 -0.063042484 0.99481016
-1.2537891 -0.70993161 -0.069908865 0.99424654
-1.2913672 -0.70993161 -0.071501389 0.99411589
-1.3719531 -0.70993161 -0.074951209 0.99383283
-1.4152343 -0.70992184 -0.07682281 0.99367934
-1.6692773 -0.70993161 -0.088013344 0.99276191
-1.7292968 -0.70993161 -0.09070053 0.99254173
-1.7861328 -0.70716792 -0.093208157 0.99233633
-1.7860742 -0.68131834 -0.092750169 0.99237376
-1.7859765 -0.65570313 -0.092311285 0.99240983
-9.8333588 -3.3322167 -0.50375831 0.95927328
-9.9524603 -2.9593945 -0.50378197 0.95927125
-9.9890232 -2.834121 -0.50378931 0.95927066
-10.023945 -2.7084179 -0.50379616 0.95927024
-10.057324 -2.5822656 -0.50380278 0.9592697
-10.174844 -2.0737793 -0.50382596 0.9592678
-10.200195 -1.9457812 -0.50383091 0.95926744
-10.223926 -1.8174707 -0.50383556 0.95926708
-10.302656 -1.3015137 -0.50385082 0.95926583
-10.318242 -1.1719531 -0.5038538 0.95926571
-10.332207 -1.0421972 -0.50385642 0.95926547
-10.377441 -0.39136717 -0.50386459 0.95926476
-10.384024 -0.13045898 -0.50386554 0.9592647
-9.8195705 0.12342773 -0.50374997 0.96143049
-9.8078518 0.4934375 -0.50374699 0.96143079
-9.8008785 0.61664063 -0.50374538 0.96143079
-9.792304 0.73974609 -0.50374341 0.96143103
-9.7705469 0.98556638 -0.50373858 0.96143132
-9.7262497 1.3530957 -0.50372899 0.9614321
-9.7083979 1.4752051 -0.50372511 0.9614324
-9.6890621 1.5970703 -0.503721 0.96143258
-9.6456642 1.8400292 -0.50371176 0.96143335
-9.5406246 2.3222363 -0.50368959 0.96143496
-9.3753119 2.9165235 -0.5036549 0.96143764
-9.2582808 3.2676463 -0.50363046 0.96143949
-1.7868359 0.65603513 -0.097642168 0.99240512
-1.7870312 0.70753902 -0.098591343 0.99233145
-1.7292968 0.70996094 -0.095892526 0.99254066
-1.6692773 0.70996094 -0.093051568 0.99276084
-1.6127343 0.70996094 -0.090388142 0.99296725
-1.4607812 0.70995116 -0.083314091 0.99351591
-1.3719531 0.70997071 -0.079241864 0.99383187
-1.3307421 0.70995116 -0.077369191 0.99397719
-1.2913672 0.70997071 -0.07559444 0.994115
-1.2537695 0.70996094 -0.073910899 0.99424571
-1.1503906 0.70995116 -0.069344595 0.99460024
-1.0882226 0.70996094 -0.066651456 0.99480933
-1.0588672 0.70996094 -0.065396838 0.9949069
-1.0306641 0.74884766 -0.065351672 0.99491036
-1.0305469 0.76873046 -0.065951496 0.99486375
-1.0304297 0.78898436 -0.0665728 0.99481547
-1.0298828 0.8740527 -0.069291078 0.99460435
-1.0297265 0.8964355 -0.070033416 0.99454671
-1.0295703 0.91929686 -0.070803218 0.99448693
-1.0294141 0.94266599 -0.071601331 0.994425
-5.5430665 5.473906 -0.39961815 0.96927947
-5.4033985 5.611074 -0.39958942 0.96928155
-5.2602735 5.744658 -0.39956 0.96928388
-5.1875 5.8100977 -0.39954504 0.96928489
-5.1139059 5.8746095 -0.39952993 0.96928602
-4.8882422 6.0624804 -0.39948359 0.9692896
-4.8115039 6.1231637 -0.39946786 0.96929085
-4.6557422 6.2416406 -0.39943588 0.96929324
-4.4970312 6.3561621 -0.39940333 0.96929574
-4.1713281 6.572988 -0.39933655 0.96930069
-4.088203 6.6245899 -0.3993195 0.96930206
-4.0044923 6.6751561 -0.39930233 0.96930331
-3.9201171 6.724658 -0.39928505 0.96930462
-3.7495701 6.8204589 -0.39925009 0.96930724
-3.6633983 6.8667383 -0.39923245 0.96930856
-3.4015429 6.9989843 -0.3991788 0.96931261
-3.313164 7.0408592 -0.39916071 0.96931398
-3.1348827 7.1212401 -0.39912421 0.96931678
-3.0449998 7.1597362 -0.39910582 0.96931821
-2.9546874 7.1971288 -0.39908734 0.96931946
-2.863867 7.2333298 -0.39906874 0.96932095
-2.6809375 7.3023534 -0.39903131 0.96932369
-2.5888672 7.3350878 -0.39901248 0.96932524
-2.3101952 7.4264059 -0.39895549 0.96932954
-2.2166016 7.4544921 -0.39893639 0.96933097
-2.0283983 7.5071287 -0.39889789 0.96933383
-1.933789 7.5316501 -0.39887854 0.96933532
-1.8389062 7.5549707 -0.39885917 0.96933687
-1.7437109 7.5771093 -0.39883971 0.96933836
-1.5526172 7.6178026 -0.39880064 0.96934128
-1.4566797 7.6363378 -0.39878103 0.96934277
-1.2642187 7.669775 -0.39874172 0.96934569
-0.97410154 7.7108006 -0.39868248 0.96935028
-0.87707031 7.7220702 -0.39866269 0.96935171
-0.77992183 7.7321091 -0.39864287 0.9693532
-0.68269527 7.7409277 -0.39862299 0.96935463
-0.4878906 7.7548242 -0.3985832 0.96935779
-0.3903906 7.7599707 -0.3985633 0.96935922
-0.19523437 7.7665429 -0.39852351 0.96936232
-0.098242186 7.8189158 -0.40111521 0.9691661
3.9062499e-05 8.0921974 -0.41510257 0.9681083
0.10539062 8.3851366 -0.43016264 0.9669705
0.22570312 8.9772949 -0.46064997 0.96467137
0.36863279 9.7725973 -0.50165617 0.96158761
0.73656249 9.7503023 -0.50158113 0.96159321
0.85898435 9.7397747 -0.50155622 0.96159518
1.1033593 9.7141399 -0.50150639 0.96159893
1.3469921 9.682373 -0.50145674 0.96160275
1.7107031 9.6233196 -0.50138265 0.96160823
1.9518359 9.5763569 -0.50133353 0.96161187
2.1916406 9.5233498 -0.50128472 0.96161556
2.5486717 9.4325972 -0.501212 0.96162105
2.6668749 9.3994045 -0.50118798 0.96162277
3.4811523 9.125742 -0.50102228 0.96163523
3.8220897 8.9868069 -0.50095296 0.96164048
4.1575193 8.8351564 -0.50088477 0.96164566
4.2680469 8.7818451 -0.5008623 0.96164721
4.3778515 8.7271385 -0.50084001 0.96164888
4.4869919 8.6710348 -0.50081784 0.96165055
4.5953708 8.6136036 -0.50079578 0.96165222
4.8099608 8.494648 -0.50075221 0.96165556
4.9161329 8.4331732 -0.50073063 0.96165711
5.1260548 8.3062496 -0.50068802 0.96166039
5.4348044 8.106142 -0.50062537 0.96166503
5.7357421 7.8945704 -0.50056428 0.96166968
5.8342772 7.8215723 -0.50054431 0.96167111
6.1242185 7.5952244 -0.50048554 0.96167552
6.4971094 7.2768164 -0.50040996 0.96168125
6.5877733 7.1943259 -0.5003916 0.96168274
6.7660155 7.0260253 -0.50035554 0.9616853
6.8535547 6.9402051 -0.50033778 0.96168655
6.939961 6.8532519 -0.50032032 0.96168804
7.1094918 6.67625 -0.50028604 0.9616906
7.2745309 6.495029 -0.50025266 0.96169317
7.5134373 6.2156639 -0.50020432 0.96169668
7.6667967 6.0244923 -0.50017339 0.96169907
7.7416797 5.9275193 -0.50015825 0.96170008
1.2598046 0.89131832 -0.079161756 0.99383801
1.2599609 0.86787105 -0.078478776 0.99389094
1.2600781 0.84481442 -0.077819481 0.99394214
1.2603124 0.79984373 -0.076568946 0.99403918
1.2604687 0.7778613 -0.075976066 0.99408513
1.2605859 0.7562207 -0.075404093 0.99412948
1.260664 0.73492187 -0.074852563 0.99417239
1.2914257 0.70996094 -0.075594828 0.99411482
1.3720117 0.70995116 -0.079242058 0.99383175
1.4153124 0.70996094 -0.081220776 0.99367815
1.4607812 0.70996094 -0.083314553 0.99351591
1.50875 0.70994139 -0.085532874 0.99334371
1.7293359 0.70996094 -0.095892824 0.99254054
1.7931249 0.70996094 -0.098928638 0.9923054
1.8611327 0.70996094 -0.10217987 0.99205345
2.0242383 0.68595701 -0.10963539 0.99147606
9.3043747 2.8944335 -0.49984428 0.9617238
9.4375782 2.4231639 -0.49981788 0.96172565
9.5218744 2.0656836 -0.49980125 0.96172696
9.5926952 1.7052734 -0.49978736 0.96172804
9.6499214 1.3424902 -0.4997763 0.96172893
9.6659956 1.221123 -0.4997732 0.96172905
9.6805077 1.0995312 -0.49977043 0.96172929
9.7049999 0.85592771 -0.49976584 0.96172965
9.714922 0.73389649 -0.49976403 0.96172988
9.7233591 0.61174804 -0.49976248 0.96172994
9.7394924 0.24485351 -0.49975976 0.96173
9.7417574 0.12242188 -0.49975953 0.96173018
9.7417574 -0.12242188 -0.49975988 0.96173018
9.7394924 -0.24481444 -0.49976054 0.96173
9.7234373 -0.61171871 -0.49976438 0.96172965
9.693574 -0.97780269 -0.49977112 0.96172929
9.6805468 -1.0995215 -0.49977392 0.96172917
9.6500196 -1.3424706 -0.49978057 0.96172851
9.6324415 -1.4636426 -0.49978435 0.96172833
9.5219917 -2.0656641 -0.4998078 0.96172655
9.4673042 -2.3043749 -0.49981937 0.96172559
9.4066401 -2.5416307 -0.49983209 0.96172464
9.3740625 -2.6596484 -0.49983892 0.96172428
9.3045702 -2.8944726 -0.49985349 0.96172303
1.8611523 -0.70994139 -0.10217918 0.99205345
1.6692969 -0.70994139 -0.093051411 0.99276084
1.5592968 -0.70994139 -0.08788608 0.99316126
1.50875 -0.70992184 -0.0855323 0.99334377
1.4607812 -0.70994139 -0.083313905 0.99351591
1.2607812 -0.71387696 -0.074320219 0.99421376
1.2606835 -0.73488277 -0.074852407 0.99417239
1.2605468 -0.75619137 -0.075404242 0.99412972
1.2600391 -0.84480464 -0.0778194 0.99394232
1.2596874 -0.91517574 -0.079869114 0.99378306
1.2595313 -0.93947262 -0.080602221 0.99372625
6.1512499 -4.709785 -0.39740986 0.96944672
6.0313668 -4.863193 -0.39743453 0.96944469
5.844336 -5.0875583 -0.39747307 0.96944183
5.5142965 -5.4454198 -0.39754096 0.96943665
5.4456248 -5.5144529 -0.39755508 0.96943569
5.08957 -5.8466015 -0.39762825 0.96943003
5.0158787 -5.9103222 -0.39764339 0.96942896
4.8661718 -6.0349708 -0.39767414 0.96942651
4.7901173 -6.0958982 -0.39768973 0.96942538
4.6357813 -6.2148337 -0.39772141 0.969423
4.3987889 -6.3859081 -0.39777005 0.96941936
4.2372656 -6.4949608 -0.39780316 0.96941692
4.155488 -6.5479784 -0.39781994 0.96941561
3.99 -6.650908 -0.39785385 0.96941298
3.90625 -6.7008104 -0.39787102 0.96941173
3.7369139 -6.7974706 -0.39790574 0.96940911
3.651406 -6.8441796 -0.39792323 0.96940774
3.5652733 -6.8898339 -0.3979409 0.96940637
3.4785156 -6.9343748 -0.39795864 0.96940523
3.2151561 -7.0615134 -0.39801258 0.96940106
3.126328 -7.1016989 -0.39803076 0.96939963
2.7660546 -7.251152 -0.39810446 0.96939409
2.6748438 -7.2856836 -0.39812317 0.96939266
2.5831835 -7.3190527 -0.39814189 0.96939129
2.398711 -7.3823924 -0.39817962 0.96938825
2.2126367 -7.4410152 -0.39821768 0.9693855
2.0251367 -7.4950194 -0.39825603 0.96938252
1.9308593 -7.5202341 -0.39827529 0.96938109
1.7414453 -7.5671091 -0.398314 0.96937817
1.6463281 -7.5887594 -0.39833346 0.96937668
1.5508984 -7.6092281 -0.39835295 0.96937519
1.4551953 -7.6284957 -0.3983725 0.96937376
1.0703125 -7.6934958 -0.39845115 0.96936774
0.97363281 -7.7067089 -0.39847088 0.96936631
0.77968746 -7.7295117 -0.39851046 0.96936333
0.68253905 -7.7390819 -0.3985303 0.96936184
0.3903906 -7.7604685 -0.39858994 0.96935731
0.1953125 -7.7686324 -0.39862975 0.96935415
-0.1953125 -7.7701659 -0.39870942 0.96934825
-0.39054686 -7.7635641 -0.39874923 0.96934527
-0.78029293 -7.735693 -0.39882872 0.96933919
-1.0714648 -7.7019334 -0.39888808 0.96933472
-1.2648046 -7.6733298 -0.39892745 0.96933174
-1.3611718 -7.657207 -0.39894709 0.96933025
-1.6490625 -7.6015525 -0.39900574 0.9693259
-1.7445507 -7.5806251 -0.39902517 0.96932435
-2.2176561 -7.4579 -0.39912146 0.96931714
-2.4045703 -7.4005566 -0.39915955 0.96931416
-2.4974608 -7.3700681 -0.39917845 0.96931291
-2.9560156 -7.2004004 -0.3992717 0.96930575
-3.0464258 -7.1630368 -0.39929008 0.96930426
-3.2257617 -7.0848436 -0.39932653 0.96930158
-3.4030859 -7.0022068 -0.39936256 0.96929878
-3.6650779 -6.8698435 -0.39941585 0.96929485
-3.7512889 -6.8235836 -0.39943331 0.96929336
-3.9219139 -6.7277145 -0.399468 0.96929085
-4.0063281 -6.6781836 -0.39948511 0.96928954
-4.090117 -6.6276169 -0.39950213 0.96928817
-4.2557225 -6.5232811 -0.39953575 0.96928567
-4.4186716 -6.4148045 -0.39956883 0.96928316
-4.578867 -6.3022556 -0.39960131 0.96928066
-4.8136716 -6.1258984 -0.39964896 0.96927726
-5.1162109 -5.8772264 -0.39971027 0.96927243
-5.1898632 -5.8126855 -0.39972517 0.9692713
-5.2626953 -5.7472262 -0.39973995 0.96927017
-5.4058204 -5.6135645 -0.39976895 0.96926808
-5.4761329 -5.5453906 -0.39978316 0.96926701
-5.5455856 -5.4763379 -0.3997972 0.96926588
-5.6141796 -5.4063864 -0.39981109 0.96926481
-1.0294532 -0.94265622 -0.071601294 0.99442488
-1.0295703 -0.91926754 -0.07080318 0.99448705
-1.0300195 -0.85211915 -0.068574868 0.99466008
-1.0301563 -0.83065426 -0.067883454 0.99471372
-1.0304297 -0.78895503 -0.0665728 0.99481553
-1.0306835 -0.74883789 -0.065351672 0.9949103
-1.0308985 -0.71009761 -0.064214021 0.99499881
-1.0588672 -0.70993161 -0.065396577 0.99490696
-1.0882031 -0.70993161 -0.066650882 0.99480945
-1.1503906 -0.70992184 -0.069344021 0.9946003
-1.1833594 -0.70994139 -0.070791282 0.99448806
-1.217832 -0.70994139 -0.07231167 0.99436986
-1.2537891 -0.70993161 -0.073910713 0.99424571
-1.4152343 -0.70992184 -0.081220321 0.99367851
-1.4607812 -0.70994139 -0.083313748 0.99351591
-1.5086914 -0.70994139 -0.085532337 0.99334395
-1.5592773 -0.70993161 -0.087886162 0.99316132
-1.6692773 -0.70993161 -0.093051337 0.9927609
-1.786914 -0.68163085 -0.098106496 0.99236917
-9.2989454 -3.151123 -0.503649 0.96143818
-9.4115229 -2.7985253 -0.50367141 0.96143651
-9.5407419 -2.3222558 -0.50369698 0.96143448
-9.5962887 -2.0817871 -0.50370795 0.96143371
-9.6458006 -1.8400195 -0.50371766 0.96143281
-9.6891403 -1.5970703 -0.50372612 0.96143228
-9.7574215 -1.1082617 -0.5037393 0.96143121
-9.770586 -0.9855566 -0.50374174 0.96143115
-9.7822657 -0.86271483 -0.50374395 0.96143091
-9.7923632 -0.73969728 -0.50374579 0.96143079
-9.8172655 -0.24676757 -0.50375009 0.96143037
-9.8195705 -0.1233789 -0.50375038 0.96143049
-9.3131638 0.11705078 -0.50364667 0.96337742
-9.3109369 0.23407225 -0.50364602 0.96337748
-9.287344 0.70160156 -0.50364047 0.96337777
-9.2666988 0.93473631 -0.50363588 0.96337807
-9.2401953 1.1673046 -0.5036301 0.96337843
-9.2246876 1.2833203 -0.50362676 0.96337885
-9.2077541 1.3991406 -0.50362313 0.96337914
-9.189414 1.5147167 -0.50361919 0.96337926
-9.16957 1.6300488 -0.50361496 0.96337962
-9.1482811 1.7451367 -0.50361043 0.96337992
-9.0757227 2.088623 -0.50359505 0.96338105
-9.0486717 2.2024901 -0.50358939 0.96338141
-9.0201559 2.3160155 -0.50358337 0.96338189
-8.9902534 2.4291308 -0.50357711 0.96338224
-8.9589062 2.5418944 -0.50357056 0.96338272
-8.8919134 2.7661426 -0.50355649 0.96338385
-8.856328 2.8776171 -0.50354904 0.96338433
-8.8193359 2.9886425 -0.50354135 0.96338487
-8.7809372 3.0991795 -0.50353336 0.96338546
-1.7878516 0.70789063 -0.10398106 0.9923268
-1.6692773 0.70996094 -0.098090783 0.99275982
-1.6127343 0.70996094 -0.095283166 0.99296618
-1.5592968 0.70997071 -0.092645988 0.99316019
-1.5087109 0.70996094 -0.090164676 0.99334288
-1.3719531 0.70997071 -0.08353325 0.99383098
-1.3307421 0.70995116 -0.081559181 0.99397629
-1.2913672 0.70997071 -0.079688601 0.9941141
-1.1833984 0.70996094 -0.074625283 0.99448705
-1.1503906 0.70995116 -0.073100016 0.99459946
-1.1186719 0.70997071 -0.071646616 0.99470651
-1.0588672 0.70996094 -0.068938561 0.99490619
-1.0300976 0.72882813 -0.068234973 0.99495792
-1.0295703 0.80907226 -0.070807643 0.99476838
-1.0294532 0.83009762 -0.07150989 0.99471653
-1.0290234 0.89579099 -0.073772959 0.99454969
-1.0288281 0.91861326 -0.074583128 0.99449015
-1.0286719 0.9419629 -0.075423166 0.99442822
-5.322578 5.1256151 -0.39957371 0.97083342
-5.2575779 5.1919236 -0.3995603 0.97083437
-5.1917186 5.2573924 -0.39954677 0.97083545
-5.1251173 5.3220506 -0.39953306 0.97083622
-5.0576367 5.3858495 -0.39951923 0.9708373
-4.920332 5.510869 -0.39949104 0.97083932
-4.5637693 5.8078613 -0.39941779 0.97084463
-4.2655468 6.0289159 -0.3993566 0.97084898
-4.1892772 6.0818067 -0.39934096 0.97085011
-4.1123438 6.1337204 -0.39932522 0.9708513
-3.6377342 6.4244823 -0.39922795 0.97085834
-3.556582 6.4694238 -0.39921126 0.97085947
-3.4748437 6.5133395 -0.39919457 0.97086072
-3.3926172 6.5562305 -0.3991777 0.97086179
-3.2264843 6.6388278 -0.39914367 0.97086436
-2.7165039 6.8612108 -0.3990393 0.97087193
-2.5430079 6.9267087 -0.39900377 0.97087437
-2.2798438 7.0166698 -0.39894995 0.9708783
-2.1913867 7.0444531 -0.39893189 0.97087955
-1.9240625 7.1210642 -0.3988772 0.97088349
-1.7443554 7.1665134 -0.39884049 0.97088611
-1.6541015 7.1875486 -0.39882204 0.97088736
-1.5635546 7.2074313 -0.39880356 0.97088873
-1.3817968 7.2437692 -0.3987664 0.97089142
-1.290625 7.2602148 -0.39874777 0.97089279
-1.1992577 7.2755075 -0.39872909 0.97089416
-0.73984373 7.3347363 -0.3986353 0.97090089
-0.46281248 7.3563571 -0.39857876 0.97090495
-0.097773433 7.7795997 -0.42071187 0.96931434
1.953125e-05 8.0501947 -0.43531147 0.96826661
0.69874996 9.2495213 -0.50158972 0.96352416
0.93087888 9.2281933 -0.50154233 0.96352744
1.0466992 9.2153025 -0.50151873 0.96352929
1.1623633 9.2009954 -0.50149518 0.9635309
1.2778516 9.185215 -0.50147164 0.96353263
1.393086 9.1680079 -0.50144815 0.9635343
1.5081249 9.1493845 -0.50142473 0.96353585
1.6229101 9.1292677 -0.50140136 0.96353757
1.8516406 9.0847559 -0.50135475 0.96354091
2.0791602 9.0345116 -0.50130844 0.96354425
2.1924219 9.0072651 -0.50128537 0.96354586
2.3053124 8.9785938 -0.50126237 0.96354753
2.417871 8.9484959 -0.50123948 0.9635492
2.5300391 8.9170113 -0.50121665 0.96355075
2.6417577 8.8841209 -0.50119388 0.96355236
2.7530468 8.849824 -0.50117123 0.96355397
3.1936328 8.6987495 -0.50108159 0.96356046
3.3025389 8.657568 -0.50105947 0.96356195
3.4109373 8.6149998 -0.50103742 0.96356356
3.6260157 8.5258493 -0.50099367 0.9635666
3.7327342 8.4791994 -0.50097197 0.96356827
4.6640625 8.0007515 -0.50078279 0.96358168
4.7640233 7.9411912 -0.50076246 0.96358317
4.8632617 7.8803906 -0.50074232 0.96358454
4.9616795 7.8183494 -0.50072235 0.96358603
5.0593357 7.7550583 -0.5007025 0.96358746
5.3474216 7.5579882 -0.50064409 0.96359158
5.4417381 7.489912 -0.5006249 0.96359301
5.5352149 7.4206347 -0.50060594 0.96359444
5.6278319 7.3502145 -0.50058717 0.96359575
6.1641603 6.9039254 -0.50047851 0.9636035
6.2502146 6.8256836 -0.50046104 0.96360475
6.3352733 6.746377 -0.50044382 0.96360594
6.4193163 6.6659961 -0.50042683 0.96360725
6.6653514 6.4186912 -0.50037706 0.96361071
6.8241014 6.2487597 -0.50034493 0.96361303
6.9018946 6.162334 -0.50032914 0.96361405
7.0541406 5.9865623 -0.50029844 0.96361625
7.1285543 5.8972654 -0.50028336 0.96361744
7.2018943 5.8070507 -0.50026852 0.96361852
7.2741013 5.7159371 -0.50025398 0.96361947
1.2586523 0.93886715 -0.084909663 0.99372959
1.2589843 0.89073241 -0.083393209 0.99384117
1.259082 0.86730468 -0.082674064 0.99389422
1.2592382 0.84425777 -0.081979863 0.9939453
1.2593554 0.82160157 -0.081310004 0.99399465
1.2594922 0.79931641 -0.080663607 0.99404222
1.2596484 0.77736324 -0.080039442 0.99408805
1.26 0.71345699 -0.078295931 0.99421644
1.3307421 0.70996094 -0.081559598 0.99397629
1.4153124 0.70996094 -0.085619584 0.9936772
1.50875 0.70994139 -0.090164833 0.99334276
1.6127343 0.70997071 -0.095283583 0.99296618
1.8611327 0.70996094 -0.10771347 0.99205232
1.9337499 0.70995116 -0.11139183 0.99178207
2.0241406 0.71442384 -0.11607178 0.99143821
8.8617964 2.6350877 -0.499935 0.9636423
8.894062 2.5234962 -0.49992856 0.96364284
8.9250002 2.4115038 -0.49992248 0.96364313
8.9825783 2.1864159 -0.49991107 0.96364397
9.0092573 2.0733299 -0.49990579 0.96364433
9.0583401 1.8462304 -0.49989614 0.96364498
9.1016989 1.617998 -0.49988768 0.9636457
9.1393356 1.3887304 -0.49988037 0.96364629
9.1850386 1.0432812 -0.49987158 0.96364683
9.2177343 0.6963281 -0.49986547 0.96364719
9.2322655 0.46446288 -0.49986288 0.96364743
9.243906 9.7656248e-06 -0.49986124 0.96364754
9.2432032 -0.11615234 -0.4998616 0.96364748
9.2373829 -0.34839842 -0.49986315 0.96364737
9.2323046 -0.46446288 -0.49986437 0.96364731
9.2257423 -0.5804199 -0.49986586 0.96364725
9.2083197 -0.8120898 -0.49986982 0.96364695
9.197402 -0.92773438 -0.49987224 0.96364695
9.1851168 -1.0432324 -0.49987492 0.96364653
9.1560936 -1.2737597 -0.49988121 0.96364617
9.1394138 -1.3887402 -0.49988478 0.96364594
9.1017971 -1.6179882 -0.49989283 0.96364528
9.0808201 -1.732246 -0.4998973 0.96364504
9.0584373 -1.8462304 -0.49990204 0.96364462
8.9826565 -2.1864159 -0.49991804 0.96364367
8.9546289 -2.2991309 -0.49992391 0.96364307
8.9251165 -2.4115136 -0.49993014 0.96364272
8.8942575 -2.5235057 -0.49993664 0.96364212
8.8619137 -2.6351268 -0.49994338 0.96364182
2.0241797 -0.65767574 -0.11508831 0.99151045
2.0241797 -0.6859082 -0.11556888 0.99147511
1.9337499 -0.70993161 -0.1113911 0.99178213
1.8611523 -0.70994139 -0.10771271 0.99205226
1.7293359 -0.70994139 -0.10108536 0.99253947
1.6692969 -0.70994139 -0.098090701 0.99275976
1.3307421 -0.70994139 -0.081559144 0.99397629
1.2599609 -0.7134375 -0.078296125 0.99421662
1.2598633 -0.73440427 -0.078856274 0.99417537
1.2594922 -0.79929686 -0.080663338 0.99404228
1.259375 -0.82159179 -0.081310198 0.99399459
1.2592382 -0.84424806 -0.081980132 0.9939453
1.2591015 -0.86727536 -0.082673989 0.99389422
1.258828 -0.9145605 -0.084137917 0.99378639
6.0782614 -4.6538672 -0.41395774 0.96979946
5.7764063 -4.6576366 -0.40124866 0.97071296
5.605 -4.7567091 -0.39752135 0.970981
5.3596091 -5.0329685 -0.39757186 0.97097737
5.2317772 -5.1664062 -0.39759818 0.97097546
5.1666017 -5.2319236 -0.39761156 0.97097456
5.100625 -5.2965918 -0.39762512 0.97097361
5.0338278 -5.3604493 -0.39763886 0.97097266
4.8287306 -5.5469627 -0.397681 0.97096962
4.7587891 -5.6074119 -0.39769533 0.97096866
4.6881251 -5.6669726 -0.39770988 0.97096759
4.6167188 -5.7256446 -0.39772454 0.97096652
4.5446091 -5.7834277 -0.39773932 0.97096539
4.3981442 -5.8962498 -0.39776939 0.9709633
4.3238673 -5.9512792 -0.39778465 0.97096217
4.2489061 -6.0053711 -0.39779997 0.97096109
4.1732812 -6.0585351 -0.3978155 0.9709599
4.0200391 -6.1619725 -0.39784694 0.9709577
3.9424412 -6.212256 -0.39786285 0.9709565
3.7059374 -6.3571873 -0.39791134 0.97095311
3.6259179 -6.4035254 -0.39792773 0.97095191
3.5453124 -6.4488573 -0.39794424 0.97095072
3.4641407 -6.4931931 -0.39796087 0.97094941
3.3823826 -6.5364647 -0.39797762 0.97094834
3.3001561 -6.5787401 -0.39799446 0.97094703
3.1340625 -6.6601853 -0.39802849 0.97094452
3.0502343 -6.699297 -0.39804566 0.97094345
2.9659178 -6.737402 -0.39806288 0.9709422
2.7959375 -6.8104 -0.39809766 0.97093964
2.5375977 -6.9118457 -0.39815056 0.97093588
2.3633204 -6.974082 -0.39818618 0.97093326
2.2755859 -7.0035348 -0.39820412 0.97093201
2.099082 -7.0591502 -0.39824024 0.97092938
2.010293 -7.0853024 -0.39825839 0.97092801
1.9211913 -7.110322 -0.39827663 0.97092676
1.8317578 -7.1342282 -0.3982949 0.97092545
1.7420508 -7.1570115 -0.39831319 0.97092414
1.6520312 -7.1786718 -0.39833164 0.97092283
1.5617968 -7.1991992 -0.39835006 0.97092146
1.4712499 -7.2186031 -0.3983686 0.97092009
1.2895312 -7.2539649 -0.3984057 0.97091746
1.1983203 -7.2699118 -0.39842433 0.97091621
0.83167964 -7.3223433 -0.39849922 0.97091073
0.7396484 -7.3325486 -0.398518 0.97090942
0.64748043 -7.3416014 -0.39853683 0.97090811
0.46283203 -7.3562403 -0.3985745 0.97090542
0.27785155 -7.3662791 -0.39861229 0.97090256
0.18527344 -7.3695407 -0.39863116 0.97090119
-0.27789062 -7.3683591 -0.39872566 0.97089452
-0.37048829 -7.3646483 -0.39874449 0.97089309
-0.55546874 -7.3537011 -0.39878225 0.9708904
-0.64791012 -7.3464842 -0.39880106 0.97088903
-1.0164062 -7.3060446 -0.39887619 0.97088355
-1.1081641 -7.2930079 -0.39889491 0.97088236
-1.1997656 -7.2788377 -0.39891356 0.97088104
-1.2912109 -7.2635546 -0.39893219 0.97087961
-1.3824219 -7.2470798 -0.39895076 0.9708783
-1.4734765 -7.2294431 -0.39896929 0.97087705
-1.5642773 -7.2107325 -0.3989878 0.97087556
-1.6548437 -7.1908202 -0.39900628 0.97087431
-1.7451562 -7.169785 -0.39902464 0.970873
-2.0144532 -7.0999022 -0.39907944 0.970869
-2.1035936 -7.0743456 -0.39909759 0.97086769
-2.1924219 -7.0476856 -0.39911568 0.97086638
-2.2808788 -7.0198922 -0.39913368 0.97086513
-2.3690429 -6.9909863 -0.39915159 0.97086382
-2.6311913 -6.8976364 -0.39920497 0.97086006
-2.7178125 -6.8643651 -0.39922255 0.97085863
-2.8039258 -6.8299413 -0.39924011 0.97085756
-2.8896875 -6.7944727 -0.39925751 0.97085619
-3.0597851 -6.720293 -0.39929211 0.97085375
-3.1441014 -6.6816015 -0.39930922 0.97085249
-3.6394141 -6.4273925 -0.39940986 0.97084528
-3.7200389 -6.3814158 -0.39942625 0.97084409
-3.8000782 -6.3344336 -0.39944252 0.9708429
-3.8795507 -6.2864451 -0.39945865 0.97084171
-3.9584179 -6.237412 -0.39947468 0.97084063
-4.0366406 -6.1874413 -0.39949051 0.97083944
-4.1142187 -6.1364646 -0.39950624 0.97083837
-4.1911521 -6.0845017 -0.39952189 0.9708373
-4.418047 -5.9229298 -0.3995679 0.97083384
-4.6386328 -5.7528415 -0.39961264 0.97083068
-4.7821093 -5.6348634 -0.39964172 0.97082853
-4.852695 -5.5745215 -0.39965603 0.97082758
-4.9225583 -5.51332 -0.39967018 0.97082645
-5.1273632 -5.3243942 -0.39971167 0.97082359
-5.1940622 -5.2597361 -0.39972517 0.97082251
-5.2599216 -5.1942091 -0.39973849 0.97082162
-1.0286719 -0.94194335 -0.075423464 0.99442828
-1.0295703 -0.80904293 -0.070807688 0.99476844
-1.0297265 -0.78842771 -0.070129924 0.99481827
-1.0298437 -0.76818359 -0.069475785 0.99486655
-1.0300781 -0.72880858 -0.068234935 0.99495804
-1.0306641 -0.70993161 -0.067675211 0.99499923
-1.0882031 -0.70993161 -0.070260659 0.99480873
-1.1186719 -0.70993161 -0.071646191 0.99470663
-1.1503906 -0.70992184 -0.073099442 0.99459952
-1.1833594 -0.70994139 -0.074624978 0.99448723
-1.2537891 -0.70993161 -0.077913471 0.99424487
-1.2913672 -0.70993161 -0.079688109 0.99411422
-1.3307226 -0.70995116 -0.081558838 0.99397635
-1.3719921 -0.70993161 -0.083532982 0.99383092
-1.4607812 -0.70994139 -0.087825775 0.99351496
-1.5086914 -0.70994139 -0.090164371 0.993343
-1.6127148 -0.70994139 -0.095283046 0.99296629
-1.7292968 -0.70993161 -0.10108558 0.99253964
-1.7877148 -0.65632808 -0.10297981 0.99240035
-8.8920898 -2.7661622 -0.50356537 0.9633832
-8.9262695 -2.6542284 -0.50357217 0.96338272
-8.9590235 -2.5418944 -0.50357866 0.96338224
-8.9903517 -2.4291503 -0.50358486 0.96338189
-9.048789 -2.2024999 -0.50359643 0.96338093
-9.07582 -2.0886328 -0.50360179 0.96338069
-9.1256247 -1.8599316 -0.50361156 0.96337998
-9.1483593 -1.7451464 -0.50361603 0.96337962
-9.1696482 -1.6300488 -0.50362015 0.96337932
-9.2078514 -1.399121 -0.5036276 0.96337879
-9.2247849 -1.2833008 -0.50363088 0.96337849
-9.2402344 -1.1673046 -0.50363386 0.96337831
-9.266758 -0.93471676 -0.50363892 0.96337789
-9.2954683 -0.58481443 -0.50364417 0.96337759
-9.3021088 -0.46795899 -0.50364536 0.96337754
-8.8542185 0.22257812 -0.50355285 0.96513695
-8.8507223 0.3338379 -0.50355202 0.96513695
-8.8317966 0.66717774 -0.50354761 0.96513718
-8.8226166 0.77810544 -0.50354558 0.96513754
-8.7386322 1.4404101 -0.50352734 0.96513873
-8.7198048 1.5500976 -0.50352329 0.96513891
-8.6995506 1.6595508 -0.50351906 0.96513921
-8.6779099 1.7687109 -0.50351441 0.96513963
-8.6549215 1.8775976 -0.50350958 0.96513993
-8.5492964 2.3099902 -0.50348735 0.96514136
-8.4883595 2.5240428 -0.50347459 0.96514213
-8.4558201 2.6304784 -0.5034678 0.96514273
-8.4219923 2.7364941 -0.50346071 0.96514314
-8.3503122 2.9471776 -0.50344574 0.96514416
-1.7885547 0.65666991 -0.10832386 0.99239558
-1.5592968 0.70997071 -0.097407185 0.99315917
-1.5087109 0.70996094 -0.094798312 0.99334186
-1.3719531 0.70997071 -0.087826081 0.99383003
-1.2913867 0.70995116 -0.083783835 0.99411321
-1.1833984 0.70996094 -0.07846012 0.99448621
-1.0588672 0.70996094 -0.072481267 0.99490541
-1.0306445 0.70995116 -0.071153484 0.99499846
-1.0293945 0.72834957 -0.071693838 0.99496055
-1.0292578 0.747832 -0.072333567 0.99491572
-1.0291406 0.76768553 -0.072996557 0.99486917
-1.0288671 0.80851561 -0.074394949 0.99477112
-1.0285547 0.85092771 -0.07589592 0.99466598
-1.0284179 0.87282223 -0.076687433 0.99461037
-1.0282421 0.89513671 -0.077508241 0.99455291
-1.0280859 0.91795897 -0.078358762 0.99449325
-1.0278906 0.94127929 -0.079240799 0.9944315
-4.7449021 5.1818261 -0.39945579 0.97224289
-4.6792579 5.240859 -0.39944229 0.97224385
-4.545742 5.3564258 -0.39941487 0.97224575
-4.4094138 5.4685936 -0.39938685 0.9722476
-4.3401952 5.5233788 -0.39937264 0.97224855
-4.2702928 5.5772753 -0.39935833 0.97224957
-4.1997266 5.6302829 -0.39934382 0.97225058
-3.9109373 5.8333006 -0.39928457 0.97225469
-3.8371875 5.8817868 -0.39926949 0.97225565
-3.7628515 5.9293261 -0.39925423 0.9722566
-3.687871 5.9759083 -0.39923888 0.97225773
-3.6123827 6.021533 -0.39922339 0.97225881
-3.4596484 6.1099415 -0.39919207 0.97226089
-3.3047266 6.1944528 -0.39916033 0.97226316
-3.0685351 6.3138475 -0.39911196 0.97226644
-2.9086719 6.3884177 -0.39907923 0.97226876
-2.8280468 6.4242086 -0.39906272 0.97226983
-2.746953 6.4589648 -0.39904615 0.97227103
-2.6655078 6.4927049 -0.39902946 0.9722721
-2.4185936 6.5877342 -0.39897895 0.9722755
-2.1682813 6.6733594 -0.39892775 0.97227901
-1.915 6.7494626 -0.39887595 0.97228259
-1.7446094 6.7948337 -0.39884111 0.97228509
-1.573164 6.8359275 -0.39880607 0.97228748
-1.4870703 6.8548827 -0.39878848 0.97228861
-1.4007422 6.8727245 -0.39877087 0.9722898
-1.3142188 6.8894529 -0.3987532 0.97229111
-1.2275 6.9051366 -0.39873546 0.97229224
-1.1405859 6.9197168 -0.39871773 0.97229344
-1.0534766 6.9331737 -0.39869991 0.97229475
-0.96625 6.9455566 -0.39868209 0.97229594
-0.87886715 6.9568553 -0.39866424 0.97229707
-0.70367187 6.9760838 -0.3986285 0.97229964
-0.61648434 6.9906445 -0.39898434 0.97227514
-0.35386717 7.0337887 -0.40040255 0.9721781
-0.27361327 7.2550683 -0.41276991 0.97133118
-0.18828125 7.4903708 -0.42598736 0.97042674
-0.097265624 7.7411523 -0.44014597 0.96945906
0.22175781 8.8214254 -0.50168765 0.96526378
0.44333982 8.8122749 -0.50164247 0.96526688
0.88539058 8.7772951 -0.50155234 0.96527296
1.1055859 8.7515039 -0.50150746 0.965276
1.5436327 8.6833591 -0.50141823 0.96528202
1.8695703 8.6178513 -0.50135183 0.96528661
1.9776367 8.5932913 -0.50132984 0.9652881
2.1927733 8.5401459 -0.50128603 0.96529108
2.4064844 8.4815912 -0.50124252 0.96529406
2.5127344 8.4503412 -0.50122088 0.96529549
2.7241015 8.3838081 -0.50117791 0.96529835
2.829082 8.348525 -0.50115651 0.96530002
2.9336522 8.3119917 -0.50113523 0.96530133
3.1413281 8.234951 -0.50109303 0.9653042
3.2444334 8.1944628 -0.50107205 0.96530569
3.5505469 8.0653811 -0.50100982 0.96530986
3.8515429 7.9248438 -0.50094861 0.96531403
3.950664 7.8755078 -0.50092846 0.9653154
4.1469922 7.7731347 -0.50088859 0.96531808
4.3406639 7.6658492 -0.50084925 0.96532083
4.4364843 7.6104002 -0.50082982 0.9653222
4.8125391 7.3767676 -0.50075346 0.96532726
4.9046483 7.3154297 -0.50073475 0.96532863
5.0865622 7.1893258 -0.50069785 0.9653312
5.3533592 6.9917579 -0.50064373 0.96533477
5.4405856 6.9237108 -0.50062603 0.96533597
5.5269532 6.8545117 -0.50060856 0.96533734
5.6124802 6.7843261 -0.50059122 0.96533835
5.6971092 6.7130175 -0.50057405 0.96533948
5.7807813 6.6406641 -0.50055712 0.96534079
5.9454684 6.4928708 -0.50052375 0.96534294
6.0264063 6.4174509 -0.50050735 0.96534395
6.1063671 6.3409958 -0.50049114 0.96534514
6.1853318 6.2635546 -0.50047517 0.96534634
6.3404298 6.1057615 -0.50044382 0.96534836
6.4164453 6.0254393 -0.50042844 0.96534938
6.5654297 5.8619237 -0.50039828 0.96535152
6.7102928 5.6947556 -0.50036901 0.96535343
6.7811131 5.6098337 -0.50035471 0.96535444
6.8508592 5.524004 -0.50034058 0.96535546
6.91957 5.4373341 -0.50032669 0.96535635
1.2585742 0.82107419 -0.085432813 0.99399751
1.2586914 0.79878902 -0.084754027 0.99404514
1.2588086 0.77685547 -0.084098585 0.99409109
1.2590625 0.73398435 -0.082856521 0.99417806
1.2591797 0.71299803 -0.082267985 0.9942193
1.3720117 0.70995116 -0.087826349 0.99382991
1.415293 0.70996094 -0.090019606 0.9936763
1.4607812 0.70996094 -0.09233997 0.99351394
1.50875 0.70994139 -0.094798774 0.99334174
1.6127343 0.70997071 -0.10018036 0.9929651
1.8611327 0.70996094 -0.11324913 0.99205112
2.0241015 0.71438473 -0.12203285 0.99143714
2.0241015 0.65767574 -0.12099849 0.99150944
8.3980465 2.6124902 -0.50002962 0.96537673
8.4301558 2.5067382 -0.50002325 0.96537697
8.5183401 2.1871386 -0.50000578 0.96537817
8.5450392 2.0799024 -0.50000048 0.96537858
8.5704298 1.9723535 -0.4999955 0.96537888
8.6171284 1.7563183 -0.49998632 0.96537954
8.6583786 1.5391895 -0.49997824 0.96538019
8.6769924 1.4302539 -0.49997461 0.96538031
8.7100782 1.2117382 -0.4999682 0.96538079
8.7376947 0.99246091 -0.49996296 0.96538115
8.7687893 0.66241211 -0.49995711 0.9653815
8.7764254 0.55219728 -0.49995574 0.9653815
8.7874603 0.33143553 -0.49995384 0.96538174
8.7909374 -0.22097656 -0.49995402 0.96538174
8.7874994 -0.33141601 -0.49995491 0.96538162
8.7826557 -0.44181639 -0.49995604 0.96538156
8.7688084 -0.66240233 -0.49995926 0.96538144
8.7598629 -0.7725293 -0.49996123 0.96538121
8.7494726 -0.88254881 -0.49996352 0.96538115
8.7377729 -0.99243164 -0.49996608 0.96538085
8.7246284 -1.1021582 -0.49996895 0.96538079
8.6942968 -1.3210937 -0.4999755 0.96538031
8.6770697 -1.4302441 -0.49997917 0.96538007
8.6385546 -1.6478808 -0.49998739 0.96537942
8.6172266 -1.7563086 -0.49999189 0.96537918
8.5705471 -1.9723437 -0.50000179 0.96537846
8.5184565 -2.1871386 -0.50001276 0.96537775
8.4610348 -2.4005859 -0.5000248 0.96537679
8.398242 -2.6125195 -0.50003797 0.96537596
2.0241015 -0.65765625 -0.12099869 0.99150944
2.0241015 -0.68588865 -0.12150364 0.99147415
2.0240819 -0.71435547 -0.12203262 0.99143726
1.7931445 -0.70994139 -0.10964496 0.99230301
1.6692969 -0.70994139 -0.10313144 0.99275863
1.6127343 -0.70993161 -0.10017955 0.99296516
1.5592968 -0.70994139 -0.097406574 0.99315923
1.50875 -0.70992184 -0.094797894 0.9933418
1.4607812 -0.70994139 -0.092339396 0.993514
1.4152734 -0.70994139 -0.090018801 0.99367642
1.3719921 -0.70993161 -0.087825738 0.99382997
1.3307421 -0.70994139 -0.085750423 0.9939754
1.2913867 -0.70994139 -0.083783418 0.99411321
1.2591991 -0.71296871 -0.082267985 0.9942193
1.2589648 -0.75523436 -0.083466493 0.99413532
1.2585937 -0.82104492 -0.085432969 0.99399751
1.2582617 -0.86670899 -0.086864926 0.99389732
1.2581054 -0.89011717 -0.087620005 0.99384445
1.2579687 -0.91395503 -0.088402137 0.99378961
1.2578125 -0.93819332 -0.089212567 0.99373287
6.0755467 -4.6517968 -0.43503708 0.96980816
5.9168358 -4.6493945 -0.42782339 0.97030127
5.76332 -4.6470604 -0.42091146 0.97077399
5.3419142 -4.650166 -0.40265781 0.97202355
5.2166796 -4.6576757 -0.39760044 0.97237009
5.1578903 -4.7230177 -0.39761251 0.97236925
4.7883983 -5.0990915 -0.39768851 0.97236401
4.7241015 -5.1590233 -0.39770171 0.97236317
4.6590233 -5.218154 -0.39771506 0.97236234
4.5932813 -5.2764649 -0.39772859 0.97236127
4.4595118 -5.390615 -0.39775607 0.97235942
4.391582 -5.4464355 -0.39776999 0.97235841
4.2536325 -5.555449 -0.3977983 0.97235656
4.1836329 -5.6086621 -0.39781269 0.97235554
4.112988 -5.6610055 -0.39782718 0.97235453
4.0416794 -5.7124414 -0.39784184 0.97235352
3.8239062 -5.8613768 -0.39788646 0.97235054
3.675703 -5.9560742 -0.39791685 0.97234839
3.600703 -6.0020213 -0.39793223 0.97234738
3.4489844 -6.0911036 -0.39796332 0.97234523
