# .PCD v0.7 - Point Cloud Data file format
VERSION 0.7
FIELDS x y z intensity
SIZE 4 4 4 4
TYPE F F F F
COUNT 1 1 1 1
WIDTH 1064
HEIGHT 1
VIEWPOINT 0 0 0 1 0 0 0
POINTS 1064
DATA ascii
1.275957 -0.87889647 0.0021462631 0.99382168
6.9566016 -8.4090624 0.015118751 0.95728469
6.649961 -8.685195 0.015151519 0.95718867
6.622695 -9.115283 0.015608597 0.9559319
1.489707 -9.0377245 0.012687225 0.96402431
1.3730664 -9.036025 0.012659454 0.9641012
1.2568555 -9.0343456 0.012635002 0.96417212
1.0257617 -9.0309858 0.012589378 0.9642967
0.79619139 -9.0276852 0.012554435 0.96439826
0.68185544 -9.0260544 0.012537345 0.96444052
-1.0219727 -8.9977245 0.012544632 0.96442586
-1.3671288 -8.9972162 0.012605972 0.96425259
-1.4827734 -8.9956245 0.012629852 0.96418887
-1.715371 -8.9924221 0.012680244 0.96404403
-1.8324804 -8.9908295 0.012710037 0.96396267
-2.1875975 -8.9875288 0.012811699 0.96367633
-2.7894139 -8.966836 0.013011017 0.96313393
-2.6973243 -7.6424217 0.011211166 0.96810198
-2.8052537 -7.6409764 0.011275253 0.96796566
-8.0296288 -21.049599 0.031205826 0.91382474
-8.032793 -20.288643 0.030226631 0.91641682
-8.0135345 -19.519619 0.029227676 0.91906154
-3.8026757 -8.9411812 0.013460387 0.96188062
-3.9615819 -8.7009954 0.01324234 0.96248031
-4.0935349 -8.6992188 0.013316955 0.96227312
-4.2269921 -8.6974316 0.013395348 0.96205771
-4.3620505 -8.6956244 0.013475342 0.96183383
-5.0636129 -8.6862106 0.013927383 0.96058047
-5.8169336 -8.6760931 0.014468918 0.95907825
-6.0036325 -8.0486135 0.013911514 0.96063143
-7.8846874 -9.7785835 0.01740139 0.95099574
-7.7568555 -8.4709377 0.015909309 0.95509583
-9.0059958 -8.457099 0.017112961 0.95178366
-9.2331057 -8.4545803 0.017341385 0.95115638
-1.044082 -0.90887696 0.0019176482 0.99447829
-1.0440429 -0.86371094 0.0018770217 0.99459463
-1.0440429 -0.84183592 0.0018579101 0.99464971
-1.0440625 -0.82040036 0.001839447 0.99470276
-1.0440429 -0.79938477 0.0018216324 0.99475408
-1.0440429 -0.77875978 0.0018043136 0.99480355
-1.0440429 -0.73867184 0.0017716598 0.99489737
-1.1186913 -0.70995116 0.0018355178 0.9947142
-1.1503906 -0.70994139 0.0018724441 0.99460733
-1.2178711 -0.70994139 0.0019528961 0.99437708
-1.2538086 -0.70995116 0.0019961165 0.99425316
-1.3307421 -0.70994139 0.0020893477 0.99398506
-1.4152539 -0.70995116 0.0021933364 0.99368662
-1.6127343 -0.70993161 0.0024408721 0.99297649
-1.7707226 -0.67546874 0.0026253127 0.99244791
-1.7707226 -0.65008789 0.0026132583 0.99248326
-23.506094 -8.2961721 0.03452713 0.905101
-22.968847 7.7835546 -0.033591956 0.90754926
-1.7715429 0.65042967 -0.0026138306 0.99247974
-1.7292773 0.70995116 -0.0025894928 0.99255049
-1.6692773 0.70995116 -0.0025126266 0.99277031
-1.6127148 0.70995116 -0.0024405669 0.99297649
-1.5592773 0.70996094 -0.0023729706 0.9931702
-1.4152343 0.70996094 -0.002192955 0.99368668
-1.3307226 0.70996094 -0.0020890809 0.99398512
-1.1834179 0.70997071 -0.001911354 0.99449503
-1.1504102 0.70996094 -0.0018722916 0.99460721
-1.0882226 0.70995116 -0.0017998886 0.99481618
-1.0588866 0.70997071 -0.0017658233 0.99491346
-1.0433203 0.75802732 -0.0017861556 0.99485481
-1.0433398 0.77824217 -0.0018028258 0.99480706
-1.0433398 0.79885739 -0.0018201064 0.99475759
-1.0433398 0.81984371 -0.001837654 0.99470639
-1.0433007 0.84125 -0.0018562316 0.99465346
-1.0433007 0.88541991 -0.0018954467 0.99454147
-1.0433007 0.90821284 -0.001916008 0.99448234
-1.0433007 0.93152344 -0.0019372558 0.99442101
-8.1129885 7.6186719 -0.015416717 0.95645851
-7.7104492 7.6142187 -0.015010872 0.95758039
-7.3290038 7.6106834 -0.014635811 0.95861727
-7.3246679 7.9991403 -0.01502327 0.95754337
-7.3667769 11.608183 -0.019045677 0.94649106
-7.3420701 12.594766 -0.020203438 0.94335347
-7.32166 14.14915 -0.022069054 0.93826288
-7.3316207 14.615518 -0.022649307 0.93668765
-7.3028903 16.589325 -0.025107345 0.93006337
-7.2825584 17.123417 -0.025773926 0.92827159
-3.3621874 8.814023 -0.013067284 0.96296895
-2.7684569 8.5204592 -0.012409477 0.96479869
-2.6711524 8.5866699 -0.012457351 0.96466899
-3.8463867 14.235585 -0.020426827 0.94272155
-3.5391405 13.784141 -0.019713439 0.9446649
-2.8320897 13.054833 -0.018503455 0.94796848
-2.6816602 13.157207 -0.018600043 0.94770604
-3.2502344 18.28376 -0.025724143 0.92841011
-2.8324804 22.42165 -0.031304777 0.91356611
-0.73867184 11.741094 -0.016296005 0.95403278
-0.82658201 16.430742 -0.022789458 0.93631238
9.4456835 15.745156 -0.025433159 0.92918766
9.8404884 15.506123 -0.025440024 0.92917305
17.165253 17.824873 -0.034278333 0.90575653
18.21748 16.26545 -0.033830222 0.90693116
18.206621 15.45126 -0.033077773 0.90890253
18.201385 15.05748 -0.032719649 0.90983707
17.457069 14.075995 -0.031063156 0.91420513
17.452988 13.714414 -0.030747566 0.91504067
17.640606 13.506767 -0.0307761 0.9149639
1.2751172 0.9021582 -0.0021634293 0.99377149
1.2751172 0.8549121 -0.0021263121 0.99387807
1.2751172 0.83189452 -0.0021089935 0.99392855
1.2751367 0.8092187 -0.002091713 0.99397725
1.2751367 0.76497066 -0.002059517 0.9940697
1.2751367 0.74333984 -0.0020442582 0.99411345
1.3719727 0.70994139 -0.0021397017 0.99383998
1.4152539 0.70995116 -0.002192955 0.99368662
1.4608008 0.70995116 -0.0022494507 0.99352431
1.5592773 0.70997071 -0.0023729706 0.9931702
1.7293164 0.70997071 -0.0025893019 0.99255037
1.7931055 0.70996094 -0.0026712036 0.99231553
1.9337695 0.70996094 -0.0028534317 0.99179393
1.9873047 0.70139647 -0.0029188537 0.99160564
1.9872851 0.67344725 -0.0029064559 0.99164194
15.610644 3.7997069 -0.022254333 0.93775576
1.9873047 -0.70138669 -0.00291893 0.99160564
1.8611523 -0.70994139 -0.0027589034 0.99206382
1.7931445 -0.70994139 -0.0026711272 0.99231541
1.7293164 -0.70994139 -0.002589264 0.99255037
1.6692969 -0.70994139 -0.0025125502 0.99277025
1.3719921 -0.70993161 -0.0021396256 0.99383992
1.2751367 -0.72202146 -0.002029686 0.9941557
1.2751563 -0.76495117 -0.0020597077 0.99406964
1.2750781 -0.90214843 -0.0021634675 0.99377167
1.2751172 -0.92642576 -0.0021830748 0.99371529
1.2750976 -0.95109373 -0.002203369 0.99365723
9.7398634 -9.146328 -0.018507386 0.94795841
9.0220308 -9.1360836 -0.017786598 0.94993669
7.1343164 -8.4065132 -0.015258904 0.95685524
6.9566212 -8.4090528 -0.015117988 0.95728469
6.7784958 -8.4066896 -0.014960213 0.95772326
6.6528711 -8.4664154 -0.014915352 0.95784396
6.7913084 -9.1045599 -0.015732689 0.95558274
1.4889063 -9.0328121 -0.012681122 0.9640435
1.3723047 -9.0313082 -0.012652854 0.96411961
1.1405468 -9.0283108 -0.012605629 0.9642542
0.91041011 -9.0253611 -0.012565269 0.96436572
0.68160152 -9.0224314 -0.012532806 0.96445453
-1.0219922 -8.997715 -0.01254322 0.96442586
-1.5988476 -8.9940529 -0.012653504 0.96411926
-1.7154492 -8.9926462 -0.012680092 0.96404314
-2.0685155 -8.988369 -0.012776794 0.96377897
-2.8052928 -7.6409664 -0.011274147 0.96796566
-8.0296288 -21.049561 -0.031206703 0.91382486
-8.0135345 -19.5196 -0.029227294 0.9190616
-3.8026757 -8.9412012 -0.013456115 0.96188056
-7.9877539 -17.543779 -0.026701087 0.92579114
-7.9845505 -16.968056 -0.025974082 0.927733
-7.9650192 -14.929716 -0.023440627 0.93455374
-4.9089646 -8.9293556 -0.014109421 0.96006036
-5.1110153 -8.7675295 -0.014057846 0.96021885
-6.1271286 -8.8950491 -0.014962196 0.95771563
-7.899199 -10.872343 -0.018616028 0.94766349
-6.0036521 -8.0486326 -0.013902435 0.96063131
-7.5116796 -8.8511229 -0.016080894 0.95462579
-7.5091796 -8.6260643 -0.015841102 0.955284
-7.7568555 -8.4709568 -0.015909804 0.95509577
-7.9527926 -8.4687796 -0.016092872 0.954593
-8.3586721 -8.4642773 -0.016478539 0.95353085
-9.0059958 -8.4571095 -0.017112579 0.9517836
-9.2331057 -8.4545898 -0.017342299 0.95115632
-1.0433007 -0.88541013 -0.001895256 0.99454147
-1.0433007 -0.84123045 -0.0018561935 0.99465352
-1.0433007 -0.79882812 -0.0018199157 0.99475777
-1.0433203 -0.75802732 -0.0017863082 0.99485481
-1.0433398 -0.73818356 -0.0017702865 0.99490076
-1.0433398 -0.71866208 -0.0017549132 0.99494523
-1.0588866 -0.70993161 -0.0017658233 0.99491358
-1.0882226 -0.70995116 -0.0017996597 0.99481618
-1.1503906 -0.70994139 -0.0018725967 0.99460733
-1.2178515 -0.70994139 -0.0019525146 0.9943772
-1.2538086 -0.70995116 -0.0019957351 0.99425316
-1.2913867 -0.70994139 -0.0020411683 0.99412268
-1.3719727 -0.70994139 -0.0021395874 0.99383998
-1.4607812 -0.70994139 -0.0022496032 0.99352443
-1.5592773 -0.70994139 -0.0023732758 0.99317026
-1.6692969 -0.70994139 -0.0025124741 0.99277025
-1.7715429 -0.67578125 -0.002626152 0.99244446
-1.7715429 -0.65041012 -0.0026137542 0.99247974
-23.506113 -8.2961617 -0.034528848 0.905101
-1.7723827 0.6507324 -0.0078459168 0.99247611
-1.6692773 0.70996094 -0.00753788 0.99277025
-1.4607812 0.70997071 -0.006749115 0.99352431
-1.3719727 0.70996094 -0.0064194105 0.99383986
-1.3307226 0.70997071 -0.0062674712 0.99398506
-1.1834179 0.70998043 -0.0057345959 0.99449492
-1.1186719 0.70996094 -0.0055056382 0.9947142
-1.0882226 0.70996094 -0.0053992844 0.99481612
-1.0588866 0.70995116 -0.005297699 0.99491352
-1.0426757 0.71820313 -0.0052611539 0.99494839
-1.0425977 0.79830074 -0.0054565431 0.99476123
-1.0425781 0.8406738 -0.0055652237 0.9946571
-1.0425586 0.88479489 -0.0056821057 0.99454528
-1.0425586 0.90756834 -0.0057436749 0.99448621
-1.0425195 0.95465821 -0.0058739088 0.99436158
-8.1129494 7.6186619 -0.046247635 0.95645833
-7.9090233 7.616406 -0.045626983 0.95702982
-7.5169334 7.6120701 -0.044456176 0.95811015
-7.3268747 7.802412 -0.044477768 0.95808995
-7.3246679 7.9991698 -0.045070417 0.95754296
-7.3420897 12.594794 -0.060584027 0.94335288
-3.667031 9.2619724 -0.041395072 0.96093714
-3.3622069 8.8139944 -0.039201047 0.96296877
-3.0879881 8.4110737 -0.037233885 0.96479428
-2.8650584 8.4547358 -0.037095908 0.96492177
-2.9875195 12.981621 -0.055355985 0.94811046
-2.6824219 13.160937 -0.055815008 0.9476912
-0.73869139 11.741103 -0.048888396 0.95403236
9.4531832 15.757607 -0.0763615 0.92913312
9.661582 15.655654 -0.076448895 0.9290542
9.9586325 15.692226 -0.077230722 0.92835361
8.5431442 10.06665 -0.05486843 0.94855738
17.165215 17.824833 -0.10283449 0.90575606
17.205996 17.423584 -0.10175655 0.90669423
17.331425 17.114981 -0.10121979 0.9071641
17.931622 16.838896 -0.10222252 0.90629059
18.178514 16.645868 -0.10242883 0.90611011
18.201347 15.05747 -0.098161295 0.90983653
17.307051 13.955058 -0.092389904 0.91490942
17.640606 13.506758 -0.092326432 0.9149633
1.2742187 0.92579097 -0.0065449523 0.99371964
1.2742578 0.90157223 -0.0064863586 0.99377561
1.2742773 0.85434568 -0.0063750455 0.99388206
1.2743164 0.80871093 -0.0062715146 0.99398106
1.2742969 0.78642577 -0.0062223054 0.99402815
1.2742969 0.76449215 -0.0061750412 0.99407345
1.2743164 0.7428906 -0.006129303 0.99411714
1.2743164 0.72157222 -0.0060853194 0.99415934
1.5087304 0.70996094 -0.0069287107 0.99335241
1.5592968 0.70997071 -0.0071196747 0.99317008
1.6127148 0.70995116 -0.0073223114 0.99297643
1.7293164 0.70997071 -0.0077679059 0.99255031
1.9337499 0.70996094 -0.0085602188 0.99179393
1.9893945 0.67415035 -0.0087284846 0.99163306
15.605976 3.7985644 -0.06674362 0.93777329
1.9893945 -0.70209962 -0.0087665934 0.99159682
1.9337695 -0.70994139 -0.0085602188 0.99179387
1.8611523 -0.70993161 -0.0082773203 0.99206376
1.6692773 -0.70993161 -0.007538185 0.99277031
1.5592968 -0.70993161 -0.0071195983 0.99317014
1.5086914 -0.70993161 -0.0069289398 0.99335259
1.2742969 -0.72154295 -0.0060852431 0.99415946
1.2743164 -0.76444334 -0.0061750794 0.99407351
1.2742969 -0.78637695 -0.0062224958 0.99402821
1.2742773 -0.85432613 -0.0063751983 0.99388206
1.2742578 -0.87771481 -0.0064295959 0.99382991
1.2742382 -0.90152341 -0.0064864731 0.99377578
1.2742578 -0.92577147 -0.006545105 0.99371952
9.9886131 -9.1464643 -0.056280363 0.94726628
8.7907419 -9.1285248 -0.052663993 0.95057064
7.1342969 -8.4064846 -0.045846291 0.956855
6.9566212 -8.4090624 -0.045352288 0.95728433
6.7785349 -8.4066792 -0.044874914 0.9577229
0.45367187 -9.0173731 -0.037520103 0.96452898
-1.0219727 -8.9977045 -0.037631225 0.96442562
-2.3071289 -8.9857025 -0.038551748 0.96357113
-2.6973243 -7.6424313 -0.033692282 0.96810168
-2.8052537 -7.640986 -0.033824731 0.96796542
-8.0134954 -19.5196 -0.087682687 0.91906106
-4.0369725 -8.8665037 -0.040469855 0.96178007
-7.9590816 -15.380908 -0.071967006 0.93307161
-7.9649997 -14.929697 -0.070316926 0.93455333
-4.9089646 -8.9293842 -0.042349547 0.96006
-6.0159764 -8.9729786 -0.044869039 0.9577077
-7.5116992 -8.8511324 -0.048241768 0.95462537
-7.5091991 -8.6260834 -0.047525939 0.95528352
-7.5652537 -8.4730854 -0.047202758 0.95558047
-7.7568555 -8.4709473 -0.047729909 0.95509547
-7.9528122 -8.4687986 -0.048277091 0.95459259
-1.0425977 -0.81924802 -0.0055099488 0.99471015
-1.0426368 -0.73766601 -0.0053074262 0.99490416
-1.0426368 -0.71819335 -0.0052611539 0.99494857
-1.0588866 -0.70992184 -0.005297699 0.99491358
-1.0882226 -0.70994139 -0.0053995131 0.99481612
-1.1504102 -0.70994139 -0.0056175613 0.99460721
-1.1834179 -0.70993161 -0.0057346723 0.99449503
-1.2178515 -0.70993161 -0.0058580018 0.99437714
-1.253828 -0.70995116 -0.0059876251 0.99425304
-1.2914063 -0.70993161 -0.0061236951 0.99412256
-1.3307617 -0.70993161 -0.0062677381 0.99398494
-1.3719727 -0.70993161 -0.0064192582 0.99383992
-1.6127539 -0.70992184 -0.0073223873 0.99297637
-1.6693164 -0.70993161 -0.0075381086 0.9927702
-1.7293164 -0.70993161 -0.0077682491 0.99255037
-1.7724414 -0.70173824 -0.0079215616 0.99240375
-1.7724023 -0.65070313 -0.007845764 0.99247611
-23.506113 -8.2961817 -0.10358541 0.90510023
-22.023476 7.773066 -0.16175994 0.91080898
-1.7732617 0.65103513 -0.013082885 0.99247229
-1.6692773 0.70996094 -0.012563591 0.99277014
-1.6127148 0.70995116 -0.012204056 0.99297637
-1.5592968 0.70997071 -0.011866149 0.99316996
-1.5087109 0.70998043 -0.011548157 0.99335235
-1.3719727 0.70996094 -0.010698967 0.9938398
-1.3307226 0.70997071 -0.010446167 0.99398494
-1.2913672 0.70996094 -0.01020668 0.99412256
-1.2538086 0.70996094 -0.0099791717 0.99425298
-1.217832 0.70996094 -0.0097631831 0.99437708
-1.1834179 0.70998043 -0.0095579904 0.99449486
-1.1503711 0.70997071 -0.0093624499 0.99460721
-1.1186719 0.70996094 -0.0091764452 0.99471414
-1.0882226 0.70996094 -0.0089991381 0.99481601
-1.0588866 0.70995116 -0.0088295741 0.9949134
-1.0419335 0.71772462 -0.0087627023 0.99495184
-1.0419335 0.7371875 -0.0088397218 0.9949075
-1.0418946 0.75700194 -0.0089195631 0.99486166
-1.041914 0.77717769 -0.0090024946 0.99481398
-1.0418946 0.79773438 -0.0090882489 0.99476475
-1.0418555 0.81870115 -0.0091769407 0.99471372
-1.0418164 0.86188477 -0.0093646236 0.99460602
-1.0417774 0.90689451 -0.0095663071 0.99449027
-1.0417383 0.95392579 -0.0097827911 0.99436575
-8.1129684 7.6186719 -0.077081561 0.95645761
-7.9090233 7.6163964 -0.076046064 0.95702922
-7.7104101 7.6141992 -0.075052947 0.95757961
-7.3290038 7.6107225 -0.07317806 0.95861626
-7.3268747 7.802412 -0.074129939 0.95808935
-7.4031053 8.5043068 -0.078095585 0.95590025
-7.3948436 9.171133 -0.081596337 0.95396781
-7.3741598 10.705488 -0.090034671 0.94932979
-7.3216991 14.149209 -0.11034013 0.93826121
-3.6849413 9.3071089 -0.069329754 0.96074992
-2.7704101 8.5265236 -0.062093735 0.96477336
-3.4363866 14.118105 -0.10063764 0.94353426
-3.3686914 18.949961 -0.13330384 0.92589903
-0.73869139 11.741084 -0.081480101 0.95403177
-0.82658201 16.430899 -0.11394384 0.93631035
9.45998 15.768926 -0.12736075 0.92908299
9.6967773 15.712626 -0.12788364 0.92880428
8.6202927 9.9025488 -0.090931244 0.94883806
17.165174 17.824804 -0.17139129 0.90575486
17.331387 17.114981 -0.16870342 0.90716285
17.931581 16.838886 -0.17036404 0.90628934
18.178535 16.645868 -0.17071451 0.90610868
18.217402 16.265409 -0.16914587 0.90692943
18.211933 15.85374 -0.16723512 0.90793258
18.201307 15.057441 -0.16360688 0.9098354
17.159649 13.836191 -0.15267044 0.91560143
1.2733399 0.94982421 -0.011002235 0.9936657
1.2733788 0.90094727 -0.010803452 0.99377978
1.2734179 0.87715816 -0.010709266 0.99383378
1.2735156 0.74240232 -0.010209426 0.99412078
1.2913867 0.70997071 -0.01020668 0.99412245
1.3719727 0.70995116 -0.01069889 0.9938398
1.4152539 0.70996094 -0.010966148 0.9936865
1.6692969 0.70998043 -0.012563362 0.99277008
1.7931055 0.70996094 -0.01335701 0.99231535
1.8611327 0.70997071 -0.013796157 0.99206364
1.9337499 0.70996094 -0.014267082 0.99179381
1.9914453 0.70286131 -0.014626618 0.991588
1.9914649 0.67487305 -0.014562721 0.99162424
1.9914258 0.64706051 -0.014502334 0.99165916
15.601308 3.7974412 -0.11120918 0.93779039
1.9913867 -0.64704102 -0.014502258 0.99165928
1.7931249 -0.70994139 -0.013357162 0.99231529
1.7293164 -0.70993161 -0.012947006 0.99255025
1.6692773 -0.70993161 -0.012563438 0.9927702
1.6127148 -0.70994139 -0.012204056 0.99297637
1.5592968 -0.70993161 -0.011866302 0.99317002
1.5087304 -0.70993161 -0.011548461 0.99335235
1.4608008 -0.70994139 -0.011248931 0.99352419
1.3719921 -0.70993161 -0.010699119 0.99383974
1.3307617 -0.70993161 -0.010446128 0.99398488
1.273496 -0.76396483 -0.010285339 0.99407721
1.2734571 -0.80814451 -0.010445899 0.99398506
1.2734571 -0.83076167 -0.010530853 0.99393642
1.2733984 -0.87713867 -0.010709228 0.9938339
1.2733788 -0.90092772 -0.010803565 0.99377984
1.2733788 -0.92513669 -0.010901146 0.99372375
1.2733203 -0.94980466 -0.011002464 0.99366581
10.000684 -9.1575003 -0.093916379 0.94720352
6.6528516 -8.4663763 -0.074575156 0.95784318
6.6499219 -8.6851463 -0.075759694 0.95718795
0.4536328 -9.0173922 -0.062533416 0.96452838
-1.0219727 -8.9977245 -0.062718697 0.96442503
-2.7894335 -8.966836 -0.065045662 0.9631331
-2.8052537 -7.6410055 -0.056375846 0.96796483
-3.9441991 -8.9596481 -0.067800827 0.96159834
-4.0784764 -8.957695 -0.068168104 0.96139413
-4.2142186 -8.9556932 -0.068551593 0.96118182
-4.490449 -8.9516115 -0.069362298 0.9607318
-5.0641012 -8.9434767 -0.071184121 0.95972186
-5.5160351 -8.9381838 -0.072745852 0.95885646
-5.6712108 -8.9363575 -0.073305205 0.95854664
-5.988945 -8.9326658 -0.074486047 0.95789301
-6.1271482 -8.8950586 -0.074808232 0.95771456
-6.0036521 -8.0486622 -0.069564134 0.96063036
-7.8881836 -10.038515 -0.088435285 0.95021302
-7.5116992 -8.8511324 -0.080403402 0.95462471
-7.5092187 -8.6260834 -0.079210281 0.95528281
-7.7568555 -8.4709568 -0.07955227 0.95509475
-8.1533203 -8.4665527 -0.081409834 0.95407063
-8.3586521 -8.4642773 -0.082391702 0.95352989
-8.7847462 -8.4595404 -0.084468305 0.9523868
-1.0417383 -0.95390624 -0.0097829821 0.99436581
-1.0417383 -0.93011719 -0.009672584 0.99442929
-1.0417968 -0.88413084 -0.009463463 0.99454921
-1.0418555 -0.84005857 -0.0092692943 0.99466079
-1.0418946 -0.81867188 -0.0091771316 0.99471366
-1.0418946 -0.79770505 -0.0090881344 0.9947648
-1.0882226 -0.70994139 -0.0089991381 0.99481606
-1.2914063 -0.70993161 -0.010206413 0.99412251
-1.5087109 -0.70995116 -0.011548614 0.99335241
-1.7732421 -0.67642576 -0.013144683 0.99243706
-1.7732617 -0.65102535 -0.013083114 0.99247235
-23.506113 -8.2961721 -0.17264353 0.90509886
-22.968847 7.783525 -0.23515956 0.90754521
-1.7740819 0.65134764 -0.01832531 0.99246866
-1.774121 0.67676759 -0.018411789 0.99243313
-1.774121 0.70243162 -0.01850193 0.99239624
-1.7292968 0.70996094 -0.01812622 0.99255008
-1.6692773 0.70996094 -0.017588997 0.99277002
-1.6127148 0.70995116 -0.017085571 0.99297619
-1.5087109 0.70996094 -0.016167983 0.99335223
-1.4607812 0.70995116 -0.015748709 0.99352407
-1.3719727 0.70996094 -0.014978828 0.99383962
-1.2913672 0.70996094 -0.014289398 0.99412245
-1.2538086 0.70996094 -0.0139711 0.99425286
-1.217832 0.70996094 -0.013668747 0.99437696
-1.1834179 0.70998043 -0.013381538 0.99449474
-1.1503711 0.70997071 -0.013108024 0.99460709
-1.1186719 0.70996094 -0.012847175 0.99471402
-1.0588866 0.70995116 -0.012361755 0.99491328
-1.0411913 0.7564941 -0.012479248 0.994865
-1.0411913 0.77666014 -0.012595062 0.99481744
-1.0411524 0.81812501 -0.012839088 0.99471724
-1.0410937 0.86125976 -0.013101387 0.99460965
-1.0410352 0.88352537 -0.01323967 0.99455297
-8.1129885 7.6186719 -0.10791675 0.95645654
-7.9090037 7.616416 -0.10646879 0.95702821
-7.7104297 7.6142087 -0.10507523 0.95757854
-7.3290234 7.6107516 -0.10245202 0.95861518
-7.324707 7.9991894 -0.10516872 0.95754123
-7.3847852 9.9002638 -0.1197558 0.95179385
-7.3421092 12.594844 -0.14138012 0.94335055
-7.3217382 14.149258 -0.15447816 0.9382596
-3.5974803 9.43081 -0.097873345 0.9604277
-3.4893553 9.504385 -0.098174438 0.96030861
-3.0433593 8.62292 -0.088666879 0.9640823
-7.20332 23.155762 -0.2351464 0.90755075
-3.6014647 14.026845 -0.14042354 0.94371605
-2.8868358 13.307138 -0.13203554 0.94698763
-3.2813671 23.587061 -0.23091482 0.90913528
-2.8657618 22.684931 -0.22171552 0.91259307
-0.73867184 11.741074 -0.11407165 0.95403075
9.4667768 15.780273 -0.17843509 0.92903227
8.6155663 9.897109 -0.12723523 0.94886428
8.8312693 9.8911324 -0.12857737 0.94834
17.042772 17.697685 -0.23824017 0.9063924
17.331387 17.11496 -0.23618565 0.90716088
18.178514 16.645859 -0.23900567 0.90610671
18.217363 16.265362 -0.23680955 0.90692765
18.206543 15.4512 -0.23154595 0.90889889
17.19627 13.512685 -0.21206728 0.91623282
1.2725586 0.87656248 -0.014983329 0.99383783
1.2725977 0.83023435 -0.014733353 0.99394023
1.2726367 0.80764645 -0.014615325 0.99398875
1.2726758 0.78541017 -0.014500846 0.99403548
1.2727538 0.72066402 -0.014181709 0.99416631
1.3307421 0.70998043 -0.014624747 0.9939847
1.4608008 0.70996094 -0.015748672 0.99352401
1.5087304 0.70996094 -0.016167831 0.99335217
1.5592968 0.70997071 -0.016612854 0.99316984
1.6692969 0.70998043 -0.017589454 0.9927699
1.7293164 0.70995116 -0.018126335 0.99255002
1.8611327 0.70997071 -0.019314498 0.99206346
1.9337499 0.70996094 -0.019974174 0.99179363
1.9934961 0.67556638 -0.020409774 0.99161553
15.605566 4.0068555 -0.15622754 0.93758297
1.9935156 -0.64771485 -0.020324554 0.99165028
1.8611523 -0.70993161 -0.01931469 0.99206346
1.7931249 -0.70994139 -0.018700255 0.99231511
1.7293164 -0.70993161 -0.018126449 0.99255008
1.6693164 -0.70995116 -0.017589683 0.99276984
1.5592968 -0.70993161 -0.016613083 0.9931699
1.5087304 -0.70993161 -0.016167983 0.99335223
1.4152539 -0.70994139 -0.015352897 0.99368638
1.3719921 -0.70993161 -0.014978828 0.99383962
1.3307617 -0.70993161 -0.014624977 0.99398476
1.2914257 -0.70995116 -0.014289321 0.99412227
1.2726758 -0.76347655 -0.01439064 0.99408084
1.2726367 -0.78539062 -0.01450077 0.99403566
1.2725977 -0.85319334 -0.014856109 0.99388993
1.2725781 -0.87654293 -0.014983367 0.99383777
10.002617 -9.159277 -0.13150989 0.94719237
6.9566212 -8.4090719 -0.10582523 0.95728272
6.6499023 -8.6851168 -0.10606617 0.95718712
-1.0219727 -8.9977245 -0.087808304 0.96442425
-2.306289 -8.9823341 -0.089922257 0.96358317
-2.8052537 -7.640996 -0.078926884 0.96796417
-8.0296087 -21.049541 -0.21845327 0.91382116
-8.0135155 -19.519579 -0.20460328 0.91905814
-3.8027148 -8.9412889 -0.094227158 0.96187842
-7.9960351 -18.163828 -0.19243658 0.92368191
-4.9090037 -8.9294043 -0.098808132 0.96005833
-7.9452343 -13.629384 -0.15297481 0.93884248
-7.9303904 -13.219326 -0.14948201 0.94019741
-6.015996 -8.9730072 -0.10476902 0.95770597
-6.1271091 -8.8950491 -0.10473251 0.95771372
-7.8988867 -10.052129 -0.12396874 0.95014608
-7.5117188 -8.8511715 -0.11256788 0.95462352
-7.5092382 -8.6261225 -0.11089725 0.95528167
-7.5652733 -8.4730959 -0.11014298 0.95557874
-8.1533203 -8.4665718 -0.11397522 0.95406955
-8.3586721 -8.4642773 -0.11534943 0.95352876
-8.7847462 -8.4595699 -0.11825664 0.9523856
-9.0059958 -8.4571095 -0.11979576 0.95178145
-1.0410742 -0.88348633 -0.013239899 0.99455291
-1.0410742 -0.86124021 -0.01310131 0.99460977
-1.0411328 -0.81810546 -0.012839241 0.99471736
-1.0411524 -0.79714841 -0.012714843 0.99476838
-1.0411913 -0.7766211 -0.012595139 0.9948175
-1.0412304 -0.7366699 -0.012367629 0.99491084
-1.0412304 -0.71722656 -0.012259864 0.99495512
-1.0588866 -0.70992184 -0.012361831 0.99491334
-1.1504102 -0.70994139 -0.013108101 0.99460697
-1.2178515 -0.70993161 -0.013668747 0.99437696
-1.2914063 -0.70993161 -0.014289512 0.99412233
-1.3719727 -0.70993161 -0.014979133 0.99383968
-1.4152539 -0.70995116 -0.01535305 0.99368632
-1.4608008 -0.70993161 -0.015748749 0.99352407
-1.6127148 -0.70994139 -0.017086105 0.99297619
-1.7293164 -0.70993161 -0.018126525 0.99255008
-1.7740819 -0.70241207 -0.018502425 0.99239641
-1.7749023 0.65166992 -0.023572959 0.9924649
-1.7749609 0.67709959 -0.023684043 0.99242932
-1.7749413 0.70278317 -0.023800392 0.99239242
-1.5592968 0.70997071 -0.021360015 0.99316961
-1.5087109 0.70996094 -0.020787735 0.99335206
-1.4152539 0.70996094 -0.019739799 0.99368614
-1.3719727 0.70996094 -0.019258842 0.99383944
-1.2913672 0.70996094 -0.018372649 0.99412227
-1.217832 0.70996094 -0.017574616 0.99437678
-1.1503711 0.70997071 -0.016853293 0.99460691
-1.0882226 0.70996094 -0.016199226 0.99481577
-1.0588866 0.70995116 -0.015894013 0.99491316
-1.0405469 0.71677732 -0.015752411 0.99495822
-1.0404102 0.79665035 -0.016336747 0.99477178
-1.0404102 0.81756836 -0.016496353 0.99472076
-1.0403711 0.83889645 -0.016661605 0.99466801
-1.040332 0.86065429 -0.016833037 0.99461335
-1.040293 0.88287109 -0.01701065 0.99455673
-1.040293 0.90559566 -0.017194785 0.99449778
-7.9090233 7.616406 -0.13689069 0.9570269
-7.5169334 7.6120505 -0.13337401 0.95810741
-7.3247461 7.9992285 -0.1352209 0.95753974
-7.3665037 11.291601 -0.16808362 0.94749618
-7.3217578 14.149297 -0.198623 0.93825763
-7.3107224 15.536191 -0.21406426 0.9336192
-7.2826366 17.123613 -0.23198904 0.92826551
-3.4893944 9.5043745 -0.12622748 0.96030742
-3.0433788 8.62292 -0.11400392 0.96408123
-2.9447656 8.6900196 -0.11439239 0.96396095
-2.8455079 8.7575684 -0.11480156 0.96383429
-3.4363866 14.118114 -0.18115406 0.94353127
-3.0409374 13.213896 -0.16904478 0.94720346
-2.9740429 18.042978 -0.22799134 0.92946005
17.331347 17.114922 -0.30367142 0.90715837
17.553183 16.903593 -0.30381528 0.90711743
18.178495 16.645859 -0.30729741 0.90610403
18.217323 16.265341 -0.30447692 0.90692508
18.211855 15.853662 -0.30103174 0.90792823
16.939278 14.013389 -0.274084 0.91581172
17.19627 13.512695 -0.27266005 0.91623032
1.2716016 0.94852537 -0.019777717 0.99367398
1.2716211 0.92391598 -0.019596366 0.99373192
1.2716601 0.89975584 -0.019420967 0.99378777
1.2716992 0.87598634 -0.019251823 0.99384177
1.2717578 0.85265625 -0.019088669 0.99389368
1.2718164 0.80713868 -0.018779183 0.99399239
1.2718555 0.78489256 -0.018632241 0.99403918
1.2718945 0.74145508 -0.018354377 0.99412793
1.271914 0.72021484 -0.018222541 0.99416995
1.3307421 0.70998043 -0.018803826 0.99398452
1.3719727 0.70995116 -0.019258995 0.99383944
1.4152539 0.70996094 -0.019739799 0.99368614
1.4608008 0.70996094 -0.020248642 0.99352384
1.5592968 0.70997071 -0.021359939 0.99316961
1.7293164 0.70995116 -0.023305548 0.99254984
1.7931445 0.70996094 -0.024043426 0.99231476
1.9337499 0.70996094 -0.025681725 0.99179339
1.9956249 0.70433593 -0.026383856 0.99157
1.9956055 0.67624998 -0.026268959 0.99160647
1.9955664 -0.6483984 -0.026159363 0.9916414
1.9955859 -0.67623043 -0.026269112 0.99160659
1.9956836 -0.70432615 -0.026383895 0.99156976
1.9337695 -0.70994139 -0.025682028 0.99179333
1.8611523 -0.70993161 -0.02483364 0.99206322
1.7931249 -0.70994139 -0.024043731 0.99231488
1.6693164 -0.70995116 -0.022615394 0.99276966
1.6127148 -0.70994139 -0.021968154 0.99297601
1.5087304 -0.70993161 -0.02078804 0.993352
1.3719921 -0.70993161 -0.019258995 0.99383944
1.3307617 -0.70993161 -0.018804055 0.99398452
1.2914257 -0.70995116 -0.018372649 0.99412209
1.2716992 -0.87596679 -0.019251861 0.99384177
1.2716601 -0.89971679 -0.019421006 0.99378788
10.003554 -9.1601076 -0.16910419 0.94718605
7.1342578 -8.406455 -0.13743523 0.95685232
6.9566016 -8.4090624 -0.13606419 0.95728147
-2.7894139 -8.9668455 -0.1170734 0.96313113
-2.6972852 -7.6424117 -0.10104953 0.96809965
-2.8052537 -7.6409664 -0.10147911 0.96796328
-7.9727149 -16.404638 -0.22740187 0.92963493
-6.1271286 -8.8950491 -0.13466005 0.95771241
-7.5117188 -8.851181 -0.14473277 0.95462215
-7.7568555 -8.4709663 -0.14319873 0.95509237
-8.1533394 -8.4665623 -0.14654134 0.95406812
-8.3586521 -8.4642868 -0.14831011 0.95352739
-8.5690432 -8.4619436 -0.15014236 0.95296645
-1.0402343 -0.92875975 -0.01738552 0.99443704
-1.0402539 -0.90555662 -0.017194595 0.99449801
-1.0403711 -0.83884764 -0.016661758 0.99466813
-1.0404102 -0.81752926 -0.016496163 0.99472088
-1.0404882 -0.75595701 -0.016034432 0.99486834
-1.0588866 -0.70992184 -0.015894394 0.99491322
-1.0882226 -0.70994139 -0.016199073 0.99481577
-1.1504102 -0.70994139 -0.016853446 0.99460685
-1.2178515 -0.70993161 -0.017574845 0.99437678
-1.253828 -0.70995116 -0.017963333 0.99425262
-1.2914063 -0.70993161 -0.018372536 0.99412215
-1.3719727 -0.70993161 -0.019259147 0.9938395
-1.4152539 -0.70995116 -0.019740028 0.99368614
-1.5087109 -0.70995116 -0.020788116 0.99335206
-1.5592773 -0.70994139 -0.021360092 0.99316972
-1.6127148 -0.70994139 -0.021968154 0.99297601
-1.6693164 -0.70993161 -0.022615394 0.99276966
-1.7749609 -0.7027539 -0.023800278 0.99239242
-1.7749413 -0.67708004 -0.023684463 0.99242944
-1.7749413 -0.65164059 -0.023573074 0.99246484
-1.7758007 0.65196288 -0.028825492 0.99246091
-1.7758203 0.67741209 -0.028961983 0.99242538
-1.7292968 0.70996094 -0.028485488 0.9925496
-1.6127148 0.70995116 -0.026850509 0.99297571
-1.5592968 0.70997071 -0.026107177 0.99316937
-1.4607812 0.70995116 -0.024749031 0.99352366
-1.4152539 0.70996094 -0.024127236 0.9936859
-1.2913672 0.70996094 -0.022456054 0.99412203
-1.1503711 0.70997071 -0.020599097 0.99460667
-1.1186719 0.70996094 -0.020189704 0.99471366
-1.0398437 0.71629882 -0.019240875 0.99496144
-1.0398242 0.73572266 -0.019409789 0.99491721
-1.0397656 0.77559566 -0.019766273 0.99482417
-1.0396875 0.79609376 -0.019954033 0.99477518
-1.039668 0.81698239 -0.020148773 0.99472433
-1.0395898 0.86004883 -0.020559501 0.99461699
-1.0395117 0.90492183 -0.021001128 0.99450171
-7.9090428 7.616416 -0.16731443 0.95702523
-7.3290429 7.6107712 -0.16100407 0.95861226
-7.3247461 7.9992285 -0.16527396 0.95753813
-7.4058981 8.2947168 -0.16944548 0.95649058
-7.3913083 9.4062109 -0.18229049 0.95327038
-7.3421679 12.594932 -0.22217216 0.94334638
-7.3217773 14.149326 -0.24276683 0.93825519
-7.3036523 16.041319 -0.26858521 0.93191731
-7.2966404 16.575136 -0.2759659 0.93011332
-3.4893749 9.504385 -0.15428138 0.96030587
-3.0433788 8.6229296 -0.13934083 0.9640798
-2.9447851 8.6900291 -0.13981664 0.96395957
-2.8455272 8.7575874 -0.14031659 0.96383286
-7.2034178 23.155966 -0.36953244 0.9075439
-2.9740429 18.042959 -0.27865085 0.92945749
-2.7621288 18.177822 -0.28017473 0.92908555
-0.82664061 16.431181 -0.25069791 0.93630362
9.69666 15.71252 -0.28135243 0.92879856
8.6061325 9.8862696 -0.19973163 0.94891536
8.8183393 9.8766403 -0.20179664 0.94841015
17.043379 18.149355 -0.37938792 0.90519869
17.086952 17.743584 -0.37536532 0.90615529
17.205917 17.423506 -0.37314156 0.90668505
17.590508 16.93955 -0.37212759 0.90692598
17.859043 16.770712 -0.37331802 0.90664214
18.217323 16.265293 -0.37214544 0.9069218
18.211817 15.853633 -0.36793464 0.90792507
18.206465 15.451133 -0.36387652 0.90889329
16.939238 14.013359 -0.33500138 0.9158088
1.2707422 0.94788086 -0.02415699 0.99367803
1.2707813 0.92329097 -0.023935165 0.99373585
1.2708398 0.8991406 -0.023721389 0.99379158
1.2708789 0.87541014 -0.023514861 0.99384546
1.2709961 0.80659175 -0.022937851 0.99399608
1.2711328 0.7197656 -0.022258682 0.99417329
1.3720117 0.70997071 -0.023539314 0.99383903
1.5087304 0.70996094 -0.02540802 0.9933517
1.5592968 0.70997071 -0.026107254 0.99316937
1.6127148 0.70995116 -0.026850279 0.99297571
1.6692969 0.70998043 -0.027641639 0.99276942
1.7293164 0.70995116 -0.028485527 0.99254954
1.9977539 0.70509762 -0.03228157 0.9915607
1.9977148 0.67697263 -0.032140996 0.99159729
15.580058 4.0002928 -0.24511133 0.93767756
1.9976367 -0.64905274 -0.032006491 0.99163252
1.8611523 -0.70995116 -0.030353354 0.99206287
1.7293555 -0.70993161 -0.028485717 0.99254942
1.6693164 -0.70995116 -0.027642097 0.99276936
1.5593359 -0.70993161 -0.026107559 0.99316931
1.4608008 -0.70994139 -0.02474945 0.9935236
1.415293 -0.70994139 -0.024127159 0.99368578
1.3307617 -0.70993161 -0.022983054 0.99398434
1.2914257 -0.70995116 -0.022455901 0.99412185
1.2711523 -0.71973634 -0.022258682 0.99417329
1.2710742 -0.7409668 -0.022419358 0.99413151
1.2710351 -0.76249021 -0.022586098 0.99408805
1.2709961 -0.78437501 -0.022758827 0.99404293
1.270957 -0.8291406 -0.023123512 0.99394768
1.2709179 -0.85206056 -0.023315925 0.99389756
1.2708398 -0.87539059 -0.023514938 0.99384564
1.2708398 -0.89910156 -0.023721389 0.9937917
1.2707617 -0.92325193 -0.023935318 0.99373603
1.2707226 -0.94784176 -0.024156952 0.99367815
10.003535 -9.1601076 -0.20668735 0.94718415
7.1342578 -8.406435 -0.16804336 0.95685071
6.9566402 -8.4090624 -0.16630298 0.9572798
6.6527929 -8.4663277 -0.16407628 0.95783967
-2.3075585 -8.9874506 -0.14139369 0.96356034
-2.7894139 -8.966836 -0.14310101 0.96312976
-2.6973047 -7.6424313 -0.12351415 0.96809834
-8.0295897 -21.049541 -0.34330299 0.9138155
-8.0135155 -19.519579 -0.32153118 0.91905278
-3.8027539 -8.9413576 -0.14807442 0.96187556
-7.9723043 -16.403759 -0.27792072 0.92963594
-7.9587302 -15.380224 -0.26388413 0.93306756
-4.9090233 -8.9294624 -0.15528913 0.96005541
-6.0160351 -8.9730568 -0.16461074 0.95770288
-7.5652733 -8.4730959 -0.1730902 0.95557576
-7.756875 -8.4709768 -0.17502439 0.95509064
-8.1533394 -8.4665527 -0.17911196 0.95406646
-8.5690432 -8.4619532 -0.18351291 0.95296466
-9.0059958 -8.4570894 -0.18825902 0.95177823
-1.0393945 -0.95176756 -0.021475753 0.99437791
-1.0395117 -0.90488279 -0.021001015 0.99450177
-1.0395312 -0.88220704 -0.02077629 0.99456054
-1.0395898 -0.86000973 -0.020559577 0.9946171
-1.0396289 -0.83827144 -0.020350609 0.9946717
-1.0588866 -0.70992184 -0.019426575 0.99491298
-1.0882226 -0.70994139 -0.019799385 0.99481559
-1.1186913 -0.70994139 -0.020189704 0.9947136
-1.1834179 -0.70993161 -0.021029014 0.99449444
-1.2178515 -0.70993161 -0.021480789 0.99437654
-1.2914063 -0.70993161 -0.022455864 0.99412191
-1.3307617 -0.70993161 -0.022983054 0.99398434
-1.4152539 -0.70993161 -0.024127236 0.99368596
-1.5592773 -0.70994139 -0.026107406 0.99316949
-1.6127148 -0.70994139 -0.026850814 0.99297571
-1.7293164 -0.70993161 -0.028485946 0.99254954
-1.7758007 -0.67738283 -0.028961867 0.9924255
-1.7757812 -0.65194333 -0.028825531 0.99246097
-22.815117 3.7606933 -0.41642708 0.91164291
-21.239471 3.7757225 -0.38850325 0.91731548
-21.191425 4.0425096 -0.38852507 0.91731143
-21.14035 4.3087692 -0.38854828 0.91730618
-21.085878 4.5743847 -0.38857302 0.91730118
-21.028086 4.8392968 -0.38859931 0.91729605
-20.967089 5.1034961 -0.38862708 0.91729051
-20.902929 5.367002 -0.38865629 0.91728431
-20.690878 6.1525097 -0.38875297 0.91726488
-20.613827 6.4126368 -0.3887881 0.91725761
-20.533573 6.6718063 -0.38882473 0.91725004
-20.450098 6.9299607 -0.38886282 0.91724235
-1.7766405 0.65227538 -0.034083899 0.99245697
-1.7766796 0.703457 -0.034413412 0.99238443
-1.7293164 0.70997071 -0.033665847 0.99254912
-1.6126758 0.70995116 -0.031733323 0.99297553
-1.5592968 0.70997071 -0.030855179 0.99316907
-1.4152539 0.70996094 -0.028514747 0.9936856
-1.2913672 0.70996094 -0.026539763 0.99412173
-1.2538086 0.70996094 -0.025948638 0.9942522
-1.1834179 0.70998043 -0.024853248 0.99449408
-1.0391601 0.71582031 -0.022724684 0.99496454
-1.0390038 0.79554683 -0.023566436 0.99477845
-1.0388867 0.83770508 -0.024034195 0.99467516
-1.0387499 0.90427732 -0.024802169 0.99450541
-7.9090037 7.616406 -0.19774233 0.95702344
-7.7104492 7.6141891 -0.1951535 0.95757377
-7.3269334 7.8024511 -0.19275962 0.95808339
-7.3247657 7.999238 -0.19533089 0.9575361
-7.3440428 12.970029 -0.26842687 0.94211364
-7.3390427 13.349736 -0.27435377 0.94087386
-7.3338475 13.74667 -0.28059563 0.93957031
-8.3331051 21.046982 -0.40767002 0.91341853
-3.0433397 8.6229391 -0.16468027 0.96407819
-2.9447851 8.6900482 -0.16524275 0.96395785
-2.8454883 8.7576075 -0.16583423 0.96383119
-6.7361522 21.653955 -0.40840361 0.91326904
-6.4654684 21.743456 -0.40852797 0.91324401
-5.9206247 21.91246 -0.40877831 0.91319335
-4.5400977 22.2754 -0.40941268 0.91306502
-4.1239257 21.618496 -0.39635384 0.9157173
-3.3686523 18.950008 -0.34662762 0.92588907
-2.9740624 18.04295 -0.32932371 0.92945439
-2.7620897 18.177822 -0.33112973 0.92908245
-3.0363476 21.826006 -0.39685366 0.9156152
-2.7627149 21.869219 -0.39697945 0.91559017
-2.2136915 21.945782 -0.39723179 0.91553849
-0.73869139 11.741064 -0.21186525 0.95402563
-0.82662106 16.431278 -0.29629096 0.9363004
-0.83263671 22.076611 -0.39786664 0.91540968
-0.55535156 22.092333 -0.3979941 0.91538405
7.8754883 23.240448 -0.44191882 0.90649456
7.8665819 22.288721 -0.42567012 0.90977299
9.7792578 20.121729 -0.40290904 0.91438502
10.285429 19.876562 -0.4030464 0.91435641
10.787246 19.621933 -0.40325615 0.91431415
12.407988 19.551865 -0.41703483 0.91151989
13.389043 18.924032 -0.41748655 0.91142923
13.629531 18.759481 -0.41759735 0.91140586
13.867832 18.5916 -0.41770706 0.91138369
14.103965 18.420567 -0.4178158 0.91136211
14.56998 18.069687 -0.41803041 0.91131818
8.5243549 10.044453 -0.23725976 0.94866008
8.6014061 9.8808689 -0.23592547 0.94894034
8.8131638 9.8708687 -0.23831347 0.94843727
15.695156 17.140244 -0.41854876 0.91121399
16.128731 16.748554 -0.41874853 0.91117287
16.552246 16.345556 -0.4189437 0.91113341
16.965448 15.931621 -0.41913414 0.91109508
17.168125 15.720693 -0.41922754 0.91107619
17.368183 15.507158 -0.41931975 0.91105729
17.759941 15.072177 -0.41950035 0.91102129
16.939199 14.01334 -0.39592075 0.91580528
1.2700976 0.82861328 -0.027310714 0.99395144
1.2701563 0.8060742 -0.027091751 0.99399972
1.2701952 0.78389645 -0.026880378 0.99404639
1.3720117 0.70997071 -0.027820013 0.99383879
1.4152539 0.70996094 -0.028514747 0.9936856
1.5592968 0.70997071 -0.030855026 0.99316907
1.6127148 0.70995116 -0.031733397 0.99297535
1.7293164 0.70995116 -0.033666037 0.99254918
1.7931445 0.70996094 -0.034731675 0.9923141
1.9998242 0.70583981 -0.038192444 0.99155158
1.9997851 0.67768556 -0.038025666 0.99158823
21.730801 6.4617481 -0.40828794 0.91329223
21.812832 6.1888766 -0.40833747 0.91328257
15.569902 3.9976952 -0.28949806 0.9377141
22.231192 4.5310841 -0.40860161 0.91322982
22.288553 4.2517967 -0.40864009 0.91322172
24.029551 -4.8975878 -0.44165051 0.90654898
22.523651 -4.8862305 -0.41506875 0.91191798
22.110664 -5.0883789 -0.40860575 0.91322851
21.738535 -6.463984 -0.40843612 0.91326278
21.653652 -6.7360544 -0.40839741 0.91327024
1.999707 -0.64971679 -0.037866287 0.99162346
1.9997461 -0.67764646 -0.038025968 0.99158841
1.9998437 -0.70580077 -0.038192481 0.99155158
1.9337695 -0.70993161 -0.037098501 0.99179268
1.7931445 -0.70994139 -0.034731902 0.99231416
1.6693164 -0.70995116 -0.032668799 0.99276906
1.5593359 -0.70993161 -0.030855255 0.99316895
1.4608008 -0.70994139 -0.029250182 0.9935233
1.3719921 -0.70993161 -0.027820243 0.99383891
1.3307617 -0.70993161 -0.027162818 0.99398404
1.2703124 -0.71926755 -0.026290093 0.99417686
1.2701952 -0.78385741 -0.026880302 0.99404645
1.2701563 -0.80604488 -0.027091864 0.99399978
1.2701367 -0.82857418 -0.027310601 0.99395138
1.2700195 -0.87478513 -0.027772864 0.99384946
1.2699804 -0.89850587 -0.028016243 0.99379557
1.2699413 -0.92263669 -0.028268814 0.99373978
18.784042 -14.760342 -0.43023494 0.90885156
17.801542 -15.894053 -0.42978439 0.90894234
10.003496 -9.1601076 -0.24427509 0.94718188
17.388985 -16.329346 -0.42959517 0.90897983
17.178436 -16.542763 -0.42949858 0.90899986
16.965351 -16.753506 -0.42940086 0.90901953
16.749647 -16.961454 -0.42930189 0.9090395
16.31041 -17.368818 -0.42910036 0.90908039
15.861211 -17.764717 -0.42889422 0.90912181
15.63291 -17.958271 -0.42878947 0.90914285
7.1342382 -8.4064064 -0.19857526 0.95684892
6.7784958 -8.4067087 -0.19448318 0.95771652
6.6498632 -8.6850681 -0.19699523 0.95718253
14.214121 -19.055859 -0.42813832 0.9092744
13.723495 -19.396729 -0.42791307 0.90932029
13.224707 -19.724989 -0.4276841 0.90936613
12.972324 -19.884287 -0.4275682 0.90938932
12.71791 -20.040215 -0.4274514 0.9094131
12.203535 -20.342295 -0.42721522 0.90946066
11.681933 -20.630928 -0.4269757 0.90950918
11.418457 -20.770088 -0.4268547 0.9095341
11.153399 -20.906063 -0.42673302 0.90955836
10.886621 -21.038349 -0.42661044 0.90958381
10.618418 -21.167549 -0.42648727 0.90960795
10.348535 -21.293016 -0.42636332 0.9096334
9.8044338 -21.533817 -0.42611343 0.90968359
8.9777927 -21.868456 -0.42573372 0.90976071
8.6997852 -21.973085 -0.42560595 0.90978587
8.1399221 -22.171415 -0.42534876 0.90983772
7.8582811 -22.265106 -0.42521939 0.90986413
7.5755467 -22.355244 -0.42508945 0.90989047
7.2917771 -22.441767 -0.42495909 0.90991688
7.0070505 -22.524727 -0.42482826 0.90994322
6.7213669 -22.603895 -0.42469698 0.90997016
6.4348044 -22.679619 -0.42456532 0.90999645
6.1473827 -22.751562 -0.42443323 0.91002333
5.8591599 -22.819872 -0.42430076 0.91005021
5.5701952 -22.884541 -0.42416799 0.91007704
5.2805467 -22.945526 -0.42403486 0.91010392
4.6992774 -23.056396 -0.42376772 0.9101581
4.1157618 -23.152588 -0.42349955 0.91021222
3.5304101 -23.234034 -0.42323047 0.91026622
3.2371483 -23.26914 -0.4230957 0.91029352
1.7668359 -23.389032 -0.42241982 0.91043031
0.45369139 -9.0173826 -0.16260128 0.96452355
0.88320309 -23.416494 -0.42201355 0.91051239
0.58869141 -23.418116 -0.42187813 0.91054016
0.29427734 -23.416229 -0.42174277 0.91056728
-0.58792967 -23.388231 -0.42133707 0.91064906
-1.174746 -23.351084 -0.42106724 0.91070372
-1.4675976 -23.326942 -0.42093253 0.91073126
-1.7600585 -23.299257 -0.42079806 0.91075832
-2.0520313 -23.267754 -0.42066374 0.91078591
-1.0219727 -8.9977245 -0.16308345 0.9644202
-3.214453 -23.105967 -0.42012912 0.91089368
-3.503418 -23.056454 -0.4199962 0.91092062
-4.6516404 -22.822557 -0.41946805 0.91102749
-4.9365039 -22.755262 -0.419337 0.91105378
-5.2204099 -22.684248 -0.41920638 0.9110806
-6.6242576 -22.277391 -0.41856048 0.91121107
-7.452363 -21.991806 -0.41817939 0.91128844
-2.8052733 -7.640986 -0.14659044 0.96796054
-8.2685738 -21.675947 -0.41780376 0.9113639
-3.8027732 -8.9413967 -0.17498668 0.96187365
-7.9649997 -14.929688 -0.3047438 0.93454367
-7.9300389 -13.218691 -0.27761167 0.94019347
-7.9250193 -12.841738 -0.27176625 0.94141537
-6.1271286 -8.8950491 -0.1945201 0.95770895
-7.8917966 -10.307158 -0.2337853 0.94939131
-7.5117579 -8.8512106 -0.20907152 0.95461822
-7.5652537 -8.4730854 -0.20456821 0.9555738
-7.7568555 -8.4709568 -0.20685382 0.95508873
-7.9528122 -8.4687796 -0.20922428 0.95458579
-8.1533394 -8.4665623 -0.21168321 0.95406437
-8.3586521 -8.4642677 -0.21423618 0.95352364
-8.5690432 -8.4619436 -0.21688659 0.95296258
-1.0386328 -0.95104492 -0.025362434 0.99438184
-1.0386914 -0.92738277 -0.025077285 0.99444479
-1.0388086 -0.88158202 -0.024537163 0.99456406
-1.0389062 -0.83766598 -0.0240345 0.99467516
-1.0389258 -0.8163867 -0.023796272 0.99472785
-1.0390429 -0.77501953 -0.023344688 0.99482757
-1.039121 -0.73517579 -0.022924041 0.99492055
-1.0391601 -0.71579099 -0.022724761 0.9949646
-1.1186913 -0.70994139 -0.02386158 0.99471337
-1.1504102 -0.70994139 -0.024345512 0.99460638
-1.1834179 -0.70993161 -0.024853477 0.9944942
-1.2178515 -0.70993161 -0.02538719 0.9943763
-1.2914063 -0.70993161 -0.026539726 0.99412167
-1.3307617 -0.70993161 -0.027162895 0.99398404
-1.3719727 -0.70993161 -0.027820243 0.99383897
-1.4608008 -0.70993161 -0.029250182 0.9935233
-1.5592773 -0.70994139 -0.03085495 0.99316919
-1.6127148 -0.70994139 -0.031733628 0.99297541
-1.6692773 -0.70993161 -0.032668877 0.99276918
-1.7766601 -0.70342773 -0.034413528 0.99238449
-1.7766405 -0.67769527 -0.03424526 0.99242163
-20.37254 -7.1902637 -0.38907462 0.91719908
-20.459063 -6.9329491 -0.38903457 0.91720772
-20.844433 -5.6320505 -0.38885599 0.91724414
-20.912069 -5.3692966 -0.38882461 0.91724974
-20.976112 -5.1056442 -0.3887949 0.91725647
-21.037245 -4.8413377 -0.3887665 0.91726166
-21.21541 -4.3240232 -0.38993248 0.91702515
-24.04834 -4.2749805 -0.43988526 0.90690529
-23.61166 9.7656248e-06 -0.49066749 0.90985775
-23.604355 0.59338868 -0.49067023 0.90985715
-23.58252 1.1863965 -0.49067962 0.90985525
-23.545918 1.7787012 -0.49069583 0.9098528
-23.49498 2.3699901 -0.4907186 0.90984845
-23.463984 2.665117 -0.49073252 0.90984613
-23.391191 3.2541504 -0.49076536 0.90984023
-22.779043 3.7547264 -0.47974947 0.91177171
-20.987167 3.7308397 -0.44296598 0.91825217
-18.380741 3.7463183 -0.38981771 0.92769641
-18.229746 4.4372363 -0.38988638 0.92768389
-18.114941 4.8945994 -0.38993868 0.92767447
-17.921503 5.5751171 -0.39002693 0.92765921
-17.703222 6.2482128 -0.39012656 0.92764127
-1.7774805 0.6780566 -0.039534148 0.99241757
-1.7775195 0.70379883 -0.039728507 0.99238038
-1.6692773 0.70997071 -0.037695732 0.99276876
-1.4607812 0.70995116 -0.03375103 0.993523
-1.4152539 0.70996094 -0.032902792 0.99368525
-1.3719336 0.70996094 -0.0321014 0.99383873
-1.3307226 0.70997071 -0.031342622 0.99398381
-1.2913672 0.70996094 -0.030623855 0.99412143
-1.217832 0.70996094 -0.029293861 0.994376
-1.1833984 0.70996094 -0.02867794 0.9944939
-1.0588866 0.70995116 -0.026492538 0.99491245
-1.0384179 0.73471677 -0.026434097 0.99492359
-1.0383788 0.75444335 -0.026672134 0.99487799
-1.0383203 0.77453125 -0.026918717 0.99483079
-1.0382227 0.8158496 -0.027439002 0.99473107
-1.0380859 0.85882813 -0.027997931 0.99462414
-1.0379883 0.90361327 -0.028598174 0.9945091
-7.7104101 7.6142187 -0.22518568 0.95757157
-7.3290625 7.6107907 -0.21956523 0.95860809
-7.3774805 10.427363 -0.26543623 0.95017964
-7.3700585 10.992685 -0.27502507 0.94842726
-7.342207 12.594971 -0.30296016 0.94334072
-8.3526564 17.75037 -0.40766451 0.92451447
-7.2308006 18.262959 -0.40817976 0.92442238
-3.5974998 9.4308205 -0.20975327 0.96042109
-2.8455079 8.7576075 -0.19135422 0.96382928
-5.8437109 18.785019 -0.40881702 0.92430896
-5.6086326 18.861904 -0.408925 0.92428994
-3.6014452 14.02665 -0.30093995 0.94370753
-3.4364257 14.118144 -0.3019506 0.94352359
-3.0409179 13.213886 -0.28177097 0.94719642
-3.8105469 18.695898 -0.39650103 0.92650336
-3.5762303 18.747353 -0.39660868 0.92648435
-2.7621288 18.177832 -0.38208532 0.9290787
-2.6326365 18.92412 -0.39704239 0.92640668
-2.3953125 18.960907 -0.39715144 0.92638725
-0.82660156 16.431366 -0.34188518 0.93629676
-0.72169918 19.135038 -0.39792076 0.92624998
-0.48130858 19.147852 -0.39803129 0.92623049
-0.24396484 19.411425 -0.40341341 0.92527103
1.953125e-05 24.133026 -0.50149816 0.90796185
0.91035151 24.135977 -0.50191677 0.90788877
1.2139062 24.129129 -0.50205636 0.90786511
1.5174414 24.118916 -0.50219589 0.90783983
1.820918 24.10457 -0.50233549 0.90781569
2.1242383 24.086435 -0.5024749 0.9077915
3.3354883 23.975868 -0.50303197 0.90769398
3.6374805 23.938681 -0.50317091 0.90766966
4.2402735 23.85289 -0.50344813 0.90762103
4.5409179 23.804159 -0.50358641 0.90759724
5.4393163 23.635555 -0.50399971 0.90752476
5.7374411 23.57159 -0.5041368 0.9075014
6.3314257 23.432812 -0.50441009 0.90745312
6.6272068 23.357723 -0.50454617 0.90742922
6.9220114 23.278818 -0.50468177 0.90740573
7.2159176 23.196133 -0.50481701 0.90738237
7.5088086 23.109776 -0.50495178 0.90735888
7.8007617 23.019823 -0.50508606 0.90733498
7.8602147 22.270634 -0.49077892 0.9098382
7.84832 21.37711 -0.47322294 0.91291839
7.814785 19.035479 -0.4276067 0.92097121
7.8031445 17.725624 -0.40246436 0.92544055
8.2406244 17.512197 -0.40219349 0.92548859
8.4619722 17.411308 -0.40228599 0.92547196
8.6820898 17.30747 -0.40237796 0.92545581
8.900918 17.201015 -0.40246949 0.92543918
9.1184568 17.09165 -0.40256035 0.92542297
9.33459 16.979589 -0.40265071 0.92540675
9.5493555 16.864658 -0.40274048 0.9253909
9.1946287 15.326709 -0.37141699 0.93098885
9.5674019 15.07579 -0.3710449 0.93105501
11.010683 15.984736 -0.40335131 0.92528206
11.612558 15.568076 -0.4036029 0.9252373
12.19748 15.930586 -0.41694185 0.92286426
12.399492 15.779638 -0.41703489 0.92284751
12.797714 15.469794 -0.41721833 0.92281514
8.5966988 9.8754396 -0.27208325 0.94896489
8.8094721 9.8667183 -0.27486163 0.94845563
13.570371 14.819824 -0.41757429 0.92275208
13.944238 14.480107 -0.41774654 0.92272151
14.127988 14.306669 -0.41783121 0.92270631
14.309472 14.13081 -0.41791487 0.92269158
14.665878 13.772197 -0.41807911 0.9226622
14.840566 13.589355 -0.41815963 0.92264831
15.013066 13.404385 -0.41823912 0.92263389
