# .PCD v0.7 - Point Cloud Data file format
VERSION 0.7
FIELDS x y z intensity
SIZE 4 4 4 4
TYPE F F F F
COUNT 1 1 1 1
WIDTH 1084
HEIGHT 1
VIEWPOINT 0 0 0 1 0 0 0
POINTS 1084
DATA ascii
-1.0328516 0.87658203 -0.05444698 0.99459153
-1.0327734 0.89904296 -0.055032194 0.99453348
-1.0325 0.94546872 -0.056267966 0.99441123
-7.2299609 6.7894139 -0.39862579 0.96107352
-7.1440234 6.8796678 -0.39862338 0.96107382
-7.0569725 6.9688668 -0.3986209 0.96107399
-6.9688282 7.056963 -0.39861843 0.96107411
-6.8795114 7.1439157 -0.3986159 0.96107453
-6.6052341 7.3979979 -0.39860815 0.96107525
-6.4171481 7.5615234 -0.3986029 0.96107584
-6.225039 7.7203121 -0.39859751 0.96107626
-6.1274805 7.7978806 -0.39859477 0.9610765
-6.0289841 7.8741989 -0.39859203 0.96107674
-5.8291016 8.0231056 -0.39858642 0.96107733
-5.7278123 8.0957031 -0.39858359 0.96107745
-5.2079883 8.439043 -0.39856914 0.96107894
-5.1014843 8.5037498 -0.39856616 0.96107924
-4.6676173 8.7490425 -0.39855412 0.96108049
-4.5573044 8.8069916 -0.39855105 0.96108055
-4.4462109 8.8634663 -0.39854798 0.96108103
-4.2220311 8.9722853 -0.39854178 0.96108145
-3.7970312 8.625371 -0.37877396 0.9629758
-3.6972265 8.6933002 -0.37968546 0.96288824
-3.5969532 8.7615528 -0.38066259 0.96279454
-3.4172657 9.3079681 -0.39851955 0.96108371
-3.3 9.3501072 -0.3985163 0.96108395
-3.1822069 9.3907423 -0.39851311 0.96108437
-3.0639453 9.4299507 -0.39850983 0.96108449
-2.7062891 9.5385056 -0.39849997 0.96108544
-2.5861719 9.5716305 -0.39849669 0.96108592
-2.2235546 9.6620703 -0.39848673 0.96108681
-2.1019139 9.6891794 -0.39848343 0.96108711
-1.9799999 9.7147169 -0.39848006 0.96108752
-1.8577734 9.7387791 -0.39847672 0.9610877
-1.6124219 9.782217 -0.39847004 0.96108842
-1.2425195 9.8357906 -0.39845991 0.96108937
-1.1447461 10.078652 -0.40768409 0.96020681
-1.1074219 10.978701 -0.44349182 0.95678812
-0.9402734 12.447139 -0.50169981 0.95125729
-0.78378904 12.45793 -0.50169557 0.95125741
-0.62714845 12.46667 -0.50169128 0.95125788
-0.47046873 12.473486 -0.50168705 0.95125824
-0.15683593 12.481113 -0.50167847 0.9512592
0.15685546 12.480927 -0.50167 0.95125991
0.31369141 12.477861 -0.50166571 0.95126033
0.47042969 12.472802 -0.50166148 0.95126081
0.62714845 12.465791 -0.50165725 0.95126128
0.94019526 12.445928 -0.50164872 0.95126188
1.0964843 12.433018 -0.50164449 0.95126235
1.4085547 12.401357 -0.50163609 0.95126301
1.5642773 12.382529 -0.50163186 0.95126361
1.8749609 12.339121 -0.50162345 0.95126426
2.0298047 12.314433 -0.50161928 0.95126492
2.1843946 12.2879 -0.50161511 0.9512651
2.492461 12.228867 -0.50160682 0.95126611
2.6458983 12.196543 -0.50160265 0.95126629
3.1036327 12.087831 -0.50159037 0.95126754
3.2552538 12.047792 -0.50158632 0.95126784
3.5569141 11.961972 -0.50157815 0.95126873
3.8563671 11.868604 -0.50157017 0.95126951
4.4476757 11.659502 -0.50155431 0.95127094
4.5938282 11.602636 -0.50155038 0.95127118
4.8838282 11.4833 -0.50154263 0.95127213
5.454453 11.223066 -0.50152743 0.95127362
5.7346873 11.082314 -0.50151998 0.95127422
5.8734765 11.009316 -0.50151628 0.95127445
6.2841406 10.779863 -0.50150532 0.95127553
6.4190235 10.699942 -0.50150174 0.951276
6.5529685 10.618379 -0.50149822 0.95127618
6.8176169 10.450195 -0.50149125 0.95127696
6.948359 10.363662 -0.50148773 0.95127714
6.9537497 10.095127 -0.49268401 0.95211178
6.9569921 9.0862494 -0.45994502 0.95522153
6.9829102 8.8864746 -0.45423874 0.95576459
7.0353317 8.5042772 -0.44360188 0.95677769
7.0619922 8.3213282 -0.43865553 0.95724934
7.0880466 8.1423635 -0.43388274 0.95770442
7.2925973 7.5728512 -0.42254928 0.95878613
7.3447461 7.4376364 -0.42012164 0.95901793
7.3962498 7.3038964 -0.41778517 0.95924121
7.4471874 7.1716013 -0.41553798 0.95945591
7.497539 7.0406542 -0.41337818 0.95966238
7.5473437 6.9110446 -0.41130289 0.95986068
7.5961719 6.7822361 -0.40928859 0.9600535
7.7453513 6.4075193 -0.40401694 0.96055764
7.8233786 6.3081541 -0.40391758 0.960567
7.9012499 6.2087498 -0.40388027 0.96057075
1.2629297 0.94206053 -0.063325077 0.99371243
1.2630664 0.91767573 -0.062747836 0.99376947
1.2634765 0.82429683 -0.060631827 0.99397898
1.2635742 0.80191404 -0.060148239 0.99402684
1.2636719 0.77986324 -0.059681509 0.99407309
1.263828 0.73677731 -0.058796536 0.99416077
1.415293 0.70997071 -0.063637964 0.99368137
1.5087109 0.70997071 -0.067016296 0.99334717
1.5592968 0.70998043 -0.068860702 0.99316466
1.6692969 0.70997071 -0.07290794 0.99276441
1.7293359 0.70997071 -0.075133778 0.99254429
1.7931445 0.70997071 -0.077512242 0.99230915
2.0167773 0.71182615 -0.085958019 0.99147481
11.701445 3.4794824 -0.49065253 0.9523043
11.963163 3.3942773 -0.49980071 0.95143718
12.082188 3.1021776 -0.50135607 0.95128971
12.120195 2.9501171 -0.50135517 0.95128977
12.281406 2.1832421 -0.50135159 0.95129019
12.30789 2.0287499 -0.50135106 0.95129013
12.35496 1.7188085 -0.5013501 0.95129025
12.375586 1.5634179 -0.50134969 0.95129025
12.449258 0.78324217 -0.5013485 0.95129055
12.465 0.47015625 -0.50134844 0.95129055
12.47289 0.1567578 -0.50134856 0.95129049
12.473866 2.9296874e-05 -0.50134873 0.95129055
12.449316 -0.78323239 -0.50135022 0.95129031
12.438516 -0.93961912 -0.50135064 0.95129019
12.410976 -1.2518945 -0.50135171 0.95129019
12.394297 -1.4077441 -0.50135237 0.95129007
12.375606 -1.5633789 -0.50135303 0.95129019
12.355039 -1.7187792 -0.50135374 0.95128995
12.281523 -2.1832225 -0.50135624 0.95128977
12.253202 -2.3374121 -0.5013572 0.95128947
12.222813 -2.4911816 -0.50135815 0.95128965
12.190625 -2.6446092 -0.50135922 0.95128936
12.082324 -3.1021972 -0.50136262 0.95128918
12.042421 -3.2538085 -0.50136387 0.95128906
11.911366 -3.7054002 -0.50136793 0.95128852
2.0165429 -0.65517575 -0.085217699 0.99154782
2.0166407 -0.68335938 -0.085579567 0.99151224
1.6692969 -0.70992184 -0.072907791 0.99276453
1.6127343 -0.70993161 -0.070820734 0.99297082
1.5592968 -0.70992184 -0.068860851 0.99316472
1.4608203 -0.70993161 -0.065278165 0.99351907
1.3719921 -0.70992184 -0.062087517 0.99383497
1.2634765 -0.82424802 -0.060632017 0.9939791
1.2632617 -0.87014645 -0.061652489 0.99387807
1.263164 -0.8936621 -0.062190514 0.99382484
1.263086 -0.91763669 -0.062747575 0.99376953
1.2629297 -0.94202149 -0.063325159 0.99371248
7.7939453 -6.1243749 -0.39839256 0.96109581
7.7163672 -6.2218652 -0.39839476 0.96109575
7.5576758 -6.413877 -0.39839926 0.96109527
7.4765234 -6.5083981 -0.39840156 0.96109504
7.3941793 -6.6018748 -0.39840388 0.9610948
7.1402731 -6.8759665 -0.3984111 0.96109408
7.0533009 -6.9651852 -0.39841354 0.96109402
6.8761325 -7.1403513 -0.39841858 0.96109343
6.7858982 -7.2262301 -0.39842108 0.96109325
6.5088673 -7.4770312 -0.39842886 0.96109235
6.4144139 -7.5582418 -0.39843154 0.96109229
6.318984 -7.6383004 -0.39843422 0.961092
6.2225389 -7.7171483 -0.39843693 0.96109176
5.9273825 -7.9463668 -0.39844519 0.96109092
5.8271093 -8.0202732 -0.39844799 0.96109068
5.6238279 -8.1643162 -0.39845365 0.96108997
5.4169531 -8.3031931 -0.39845943 0.96108943
5.3122067 -8.3706446 -0.39846233 0.96108925
5.1002536 -8.5016308 -0.39846823 0.96108866
4.8850389 -8.6272459 -0.39847422 0.96108818
4.9378123 -9.2554293 -0.42162186 0.95887476
4.8211522 -9.3168259 -0.42162508 0.9588744
4.703711 -9.3767185 -0.42162833 0.95887423
4.4666991 -9.4920998 -0.42163494 0.95887357
4.1058202 -9.653945 -0.4216449 0.95887268
3.9842186 -9.7048531 -0.42164823 0.95887232
3.8619921 -9.7542477 -0.4216516 0.95887196
3.7391601 -9.8020897 -0.421655 0.9588716
3.4916992 -9.893115 -0.42166182 0.95887095
3.2420311 -9.9779196 -0.42166868 0.95887023
2.86375 -10.093242 -0.42167911 0.95886934
2.4813476 -10.194248 -0.4216896 0.95886838
2.2244337 -10.253545 -0.4216966 0.95886773
1.9660742 -10.306416 -0.4217037 0.95886695
1.8364258 -10.330361 -0.42170727 0.95886672
1.7064843 -10.352724 -0.42171082 0.95886636
1.57625 -10.373457 -0.4217144 0.95886594
1.4457812 -10.392529 -0.42171794 0.95886558
1.3150976 -10.40997 -0.42172149 0.95886523
1.0267383 -9.0396576 -0.3656565 0.96423477
1.0530859 -10.439912 -0.42172867 0.95886457
0.92185545 -10.452373 -0.42173225 0.95886433
0.79041016 -10.463232 -0.42173582 0.95886397
0.65886718 -10.472441 -0.42173943 0.95886356
0.26373047 -10.490068 -0.42175013 0.95886266
0.13187499 -10.492685 -0.42175373 0.95886219
1.953125e-05 -10.493604 -0.42175731 0.95886183
-0.2636914 -10.490458 -0.42176449 0.95886117
-0.39548826 -10.486396 -0.42176804 0.95886087
-0.65890622 -10.473369 -0.42177519 0.95885998
-0.79046875 -10.464326 -0.4217788 0.95885974
-0.92191404 -10.453652 -0.42178228 0.95885944
-1.0532031 -10.441298 -0.42178589 0.95885921
-1.1843555 -10.427334 -0.42178944 0.95885885
-1.3152734 -10.411689 -0.42179298 0.95885861
-1.4460351 -10.394463 -0.42179647 0.95885813
-1.5765625 -10.375576 -0.42180008 0.95885772
-1.7067969 -10.35499 -0.42180353 0.95885754
-2.3537695 -10.227802 -0.421821 0.95885587
-2.6100781 -10.165576 -0.42182788 0.95885527
-2.7376561 -10.132099 -0.42183134 0.95885479
-2.8647265 -10.096963 -0.42183471 0.95885456
-2.9914258 -10.060254 -0.42183813 0.9588542
-3.3685155 -9.9406052 -0.42184821 0.95885324
-3.6173632 -9.8529978 -0.42185488 0.95885247
-4.1080079 -9.6590719 -0.421868 0.95885128
-4.2290626 -9.6067476 -0.42187124 0.95885104
-3.4917772 -7.6691504 -0.33868384 0.96682882
-4.4691796 -9.4975872 -0.42187765 0.9588505
-4.7065234 -9.382431 -0.421884 0.95884979
-4.9409375 -9.2613277 -0.4218902 0.95884913
-5.056953 -9.1985445 -0.4218933 0.95884895
-5.1721873 -9.1343946 -0.42189634 0.95884848
-5.286582 -9.0686913 -0.42189941 0.95884842
-5.1037693 -8.5075588 -0.39874542 0.96106213
-5.420918 -8.3093262 -0.39875385 0.96106136
-5.5249414 -8.2405853 -0.39875659 0.96106112
-5.6280856 -8.1705666 -0.39875931 0.96106088
-5.8317184 -8.0266695 -0.39876467 0.96106035
-5.9321485 -7.9527926 -0.39876735 0.96106017
-6.0316796 -7.8776951 -0.39876997 0.96105981
-6.1302147 -7.8012986 -0.39877257 0.96105969
-6.2278123 -7.7237401 -0.39877513 0.96105927
-6.6082029 -7.4012499 -0.39878511 0.96105832
-6.8825779 -7.1470604 -0.3987923 0.9610576
-7.0601172 -6.9719238 -0.39879695 0.96105713
-7.2331247 -6.7923727 -0.39880145 0.96105683
-1.0333984 -0.77081054 -0.051815756 0.9948523
-1.0588672 -0.70992184 -0.051239625 0.99490958
-1.0882226 -0.70992184 -0.052222632 0.99481207
-1.1186719 -0.70992184 -0.053252526 0.99471009
-1.2178124 -0.70991212 -0.056657676 0.99437284
-1.2537891 -0.70993161 -0.057910383 0.99424863
-1.5087109 -0.70993161 -0.067016482 0.99334723
-1.5592577 -0.70992184 -0.068860628 0.9931649
-1.6126952 -0.70992184 -0.070820883 0.992971
-1.7292968 -0.70993161 -0.075133547 0.99254447
-1.7834765 -0.68032223 -0.076720543 0.99238765
-11.778281 -4.1570215 -0.50201195 0.95122778
-11.972461 -3.560039 -0.50201654 0.95122701
-12.01625 -3.4093261 -0.50201756 0.95122701
-12.098164 -3.1062694 -0.50201946 0.95122689
-12.13621 -2.9539843 -0.50202036 0.95122701
-12.206699 -2.6480858 -0.50202191 0.95122671
-12.239023 -2.4944823 -0.50202268 0.95122665
-12.269453 -2.3405077 -0.50202334 0.95122647
-12.297891 -2.1861424 -0.50202394 0.95122647
-12.348945 -1.8764062 -0.50202501 0.95122647
-12.410898 -1.4096386 -0.50202614 0.95122647
-12.427656 -1.2535645 -0.5020265 0.95122635
-12.455235 -0.94085938 -0.50202692 0.95122635
-12.466132 -0.78426754 -0.50202698 0.95122612
-12.47496 -0.62754881 -0.50202709 0.95122629
-12.481894 -0.47076172 -0.50202709 0.95122617
-12.489785 -0.15694335 -0.50202698 0.95122617
-11.683516 9.7656248e-06 -0.50200492 0.95429999
-11.682578 0.1468457 -0.50200474 0.95430005
-11.679805 0.29361328 -0.5020045 0.95430011
-11.675195 0.44038084 -0.50200421 0.95430011
-11.668711 0.5870508 -0.50200391 0.95430017
-11.650273 0.88009763 -0.50200307 0.95430017
-11.638281 1.0264257 -0.5020026 0.95430022
-11.608749 1.3185546 -0.50200146 0.95430046
-11.571953 1.6098731 -0.50200021 0.95430046
-11.5508 1.7551757 -0.50199944 0.95430046
-11.502988 2.044873 -0.50199783 0.9543007
-11.447929 2.3333008 -0.50199604 0.95430082
-11.351816 2.7630858 -0.501993 0.954301
-11.278691 3.0474706 -0.50199068 0.95430142
-11.239491 3.1889355 -0.50198948 0.95430148
-11.155742 3.4703808 -0.50198686 0.95430171
-10.101953 3.5654101 -0.46029189 0.95801651
-1.7843359 0.68069333 -0.082057722 0.99238306
-1.7844336 0.70653319 -0.082462497 0.99234551
-1.7293359 0.70996094 -0.080321349 0.99254346
-1.6692969 0.70998043 -0.077942081 0.99276358
-1.6126952 0.70998043 -0.075711019 0.99297011
-1.5592577 0.70998043 -0.073615454 0.993164
-1.5086719 0.70998043 -0.07164371 0.99334657
-1.3719531 0.70997071 -0.066374511 0.99383432
-1.2913672 0.70998043 -0.063319393 0.99411726
-1.2538086 0.70997071 -0.061909217 0.99424785
-1.2178515 0.70997071 -0.060569722 0.99437195
-1.1833984 0.70997071 -0.059296302 0.99449003
-1.1503906 0.70998043 -0.058084182 0.99460226
-1.0882031 0.70997071 -0.055828512 0.99481142
-1.0589062 0.70996094 -0.054777525 0.99490875
-1.0328711 0.73081052 -0.05436451 0.99494708
-1.0327734 0.75039059 -0.054851338 0.99490196
-1.0324805 0.81133789 -0.056419905 0.99475646
-1.0323437 0.83244139 -0.056980893 0.99470454
-1.0322461 0.85396481 -0.057562407 0.9946506
-1.0321094 0.87596679 -0.058164902 0.99459475
-1.0319922 0.89840817 -0.058789596 0.99453688
-1.0317187 0.94478512 -0.06010868 0.99441469
-6.762754 6.3506932 -0.39861357 0.96353835
-6.6824217 6.4351368 -0.39861128 0.96353847
-6.5185156 6.600986 -0.39860669 0.96353883
-6.4349999 6.6823144 -0.39860433 0.96353912
-6.1784763 6.9199805 -0.39859709 0.96353972
-5.7315621 7.2940331 -0.39858454 0.96354097
-5.5464063 7.4356737 -0.39857939 0.96354133
-5.4524803 7.5047555 -0.39857674 0.96354151
-5.1656637 7.7047362 -0.39856875 0.96354234
-4.8714843 7.8938084 -0.39856055 0.96354306
-4.6715236 8.0136232 -0.39855498 0.96354353
-4.4686131 8.1283789 -0.39854938 0.96354401
-4.3660545 8.1838284 -0.39854652 0.96354431
-4.2628708 8.2379885 -0.39854366 0.96354455
-4.1589451 8.2908392 -0.39854079 0.96354485
-4.0544333 8.3424025 -0.3985379 0.96354502
-3.9492188 8.3926268 -0.39853498 0.96354538
-3.8434374 8.4415331 -0.39853206 0.96354556
-3.4143748 8.6237202 -0.3985202 0.96354657
-2.97666 8.7841206 -0.39850813 0.96354771
-2.7549219 8.8560152 -0.39850202 0.96354824
-2.5314844 8.9223337 -0.39849588 0.96354872
-2.1933203 9.0111427 -0.39848661 0.96354973
-2.0799217 9.03792 -0.39848348 0.96355003
-1.9661719 9.0633001 -0.39848042 0.96355021
-1.623125 9.1307516 -0.39847103 0.96355104
-1.5082421 9.1503515 -0.39846787 0.96355134
-1.4003906 9.2161617 -0.40053442 0.96336567
-1.2778125 9.185215 -0.39846155 0.96355194
-1.1805859 9.3455372 -0.40474007 0.96298832
-1.133086 9.975996 -0.43139419 0.9605996
-1.1039453 10.94412 -0.47262055 0.95691639
-0.8795312 11.643193 -0.50169903 0.95432734
-0.5866406 11.661445 -0.50169104 0.954328
-0.29339844 11.672343 -0.50168306 0.9543286
-0.14669922 11.675 -0.50167912 0.95432901
0 11.67582 -0.50167507 0.95432943
0.14675781 11.674805 -0.50167114 0.95432979
0.44007811 11.667275 -0.50166315 0.95433038
0.5866406 11.660684 -0.50165921 0.95433092
0.73308593 11.652344 -0.50165522 0.9543311
1.3176172 11.60043 -0.50163937 0.95433247
1.4632422 11.582822 -0.50163549 0.95433301
1.7538476 11.542285 -0.50162762 0.95433342
1.8987499 11.519199 -0.50162369 0.9543339
2.1875975 11.467686 -0.50161588 0.95433456
2.3314843 11.43917 -0.50161207 0.95433503
2.475039 11.408887 -0.50160813 0.95433533
3.0450389 11.269775 -0.50159281 0.9543367
3.1864061 11.230527 -0.50158906 0.95433706
3.4675586 11.146757 -0.50158149 0.95433772
3.6073437 11.102217 -0.50157773 0.95433801
4.1604686 10.906611 -0.50156289 0.95433939
4.2971482 10.853408 -0.50155926 0.95433968
4.4331641 10.798476 -0.50155562 0.95433998
4.8369336 10.623476 -0.50154483 0.95434099
5.1022849 10.498437 -0.50153774 0.95434159
5.3644528 10.366728 -0.50153077 0.95434225
5.4942188 10.298447 -0.50152731 0.95434254
5.7512302 10.156992 -0.50152051 0.95434308
6.2541404 9.8549213 -0.50150716 0.95434433
6.6209764 9.6120214 -0.50149745 0.95434523
6.7411914 9.5279884 -0.50149429 0.95434552
6.8603711 9.4424801 -0.50149113 0.9543457
6.9821873 8.8855562 -0.48555389 0.95576406
7.0321484 8.5004292 -0.47401816 0.95679194
7.0562496 8.3145895 -0.4685626 0.95727843
7.0798044 8.1329298 -0.46330318 0.9577477
7.1761718 7.8368649 -0.45657 0.95834869
7.2791796 7.5588965 -0.45089287 0.95885575
7.3297458 7.422451 -0.44821307 0.9590953
7.3797655 7.2875977 -0.44563568 0.95932567
7.4780469 7.0223727 -0.44077262 0.95976049
7.5742965 6.7627149 -0.43628815 0.96016169
7.8822265 6.1937985 -0.43072712 0.96065933
1.2622266 0.91707027 -0.067035027 0.99377292
1.2626562 0.82376951 -0.064776152 0.99398214
1.262871 0.77935547 -0.063761175 0.99407619
1.2914063 0.70998043 -0.063319735 0.99411714
1.3307421 0.70997071 -0.06480591 0.99397945
1.3719921 0.70998043 -0.066374473 0.99383414
1.415293 0.70997071 -0.068031885 0.99368066
1.4607812 0.70997071 -0.069785766 0.99351841
1.5087109 0.70997071 -0.071643829 0.99334645
1.7293359 0.70997071 -0.080321692 0.99254346
1.7931445 0.70997071 -0.082864337 0.99230832
2.0189061 0.71256834 -0.091990471 0.99146485
11.142285 3.4662011 -0.50138116 0.95435554
11.22582 3.1850684 -0.50137919 0.95435578
11.26496 3.04375 -0.5013783 0.95435578
11.337831 2.7596972 -0.50137663 0.95435601
11.371601 2.6170115 -0.50137585 0.95435601
11.403593 2.4739063 -0.50137514 0.95435601
11.488671 2.0423338 -0.50137329 0.95435625
11.513437 1.8977929 -0.50137275 0.95435625
11.536366 1.7529589 -0.50137228 0.95435625
11.5575 1.6078711 -0.50137186 0.95435619
11.576777 1.4625098 -0.5013715 0.95435625
11.594218 1.3169141 -0.5013712 0.95435637
11.609843 1.1711133 -0.50137091 0.95435637
11.623632 1.0251172 -0.50137067 0.95435643
11.635586 0.87898433 -0.50137055 0.95435649
11.653984 0.58628905 -0.50137037 0.95435655
11.660429 0.43981445 -0.50137037 0.95435655
11.667812 0.14664063 -0.50137043 0.95435649
11.667812 -0.14662109 -0.50137079 0.95435649
11.654062 -0.5862695 -0.50137162 0.95435625
11.645741 -0.73266602 -0.50137198 0.95435637
11.635664 -0.87894529 -0.5013724 0.95435619
11.623672 -1.0251172 -0.50137287 0.95435625
11.609882 -1.1710644 -0.50137341 0.95435625
11.594257 -1.3168848 -0.50137401 0.95435619
11.576836 -1.4624707 -0.5013746 0.95435607
11.557539 -1.6078222 -0.50137532 0.95435607
11.536426 -1.7529297 -0.50137603 0.95435607
11.513515 -1.8977636 -0.50137681 0.95435596
11.488789 -2.0423143 -0.50137764 0.95435584
11.40371 -2.4738965 -0.50138038 0.9543556
11.371718 -2.6169922 -0.50138146 0.9543556
11.337969 -2.7596874 -0.50138253 0.95435548
11.302402 -2.9019725 -0.5013836 0.95435542
11.265117 -3.0437694 -0.50138474 0.95435518
11.185117 -3.3259082 -0.50138724 0.954355
11.142461 -3.4662108 -0.50138855 0.95435488
2.0186327 -0.65586913 -0.091197774 0.99153817
1.9337499 -0.70991212 -0.088510014 0.99178654
1.8611327 -0.70993161 -0.085587196 0.99205661
1.7931249 -0.70991212 -0.082864381 0.99230844
1.7293164 -0.70992184 -0.080321312 0.99254358
1.6693358 -0.70992184 -0.07794182 0.99276352
1.6127343 -0.70993161 -0.075710714 0.99296999
1.4608203 -0.70993161 -0.06978561 0.99351835
1.3719921 -0.70992184 -0.066374399 0.99383426
1.2914063 -0.70992184 -0.063319512 0.99411726
1.263164 -0.7151953 -0.062368926 0.99420518
1.2630469 -0.73624998 -0.062816277 0.99416381
1.2629297 -0.75764644 -0.063280411 0.9941209
1.262832 -0.77932614 -0.063761137 0.99407637
1.262539 -0.84645504 -0.065311313 0.99393272
1.262207 -0.9170019 -0.06703487 0.9937731
1.2620703 -0.94139647 -0.067651555 0.993716
7.2908006 -5.7290039 -0.39840579 0.96355683
7.1445704 -5.9104686 -0.39840996 0.96355659
7.0697656 -5.9998045 -0.39841208 0.96355641
6.9938669 -6.088203 -0.39841422 0.96355617
6.9168358 -6.1756539 -0.39841643 0.96355599
6.8387108 -6.2621093 -0.39841864 0.96355587
6.597949 -6.5155172 -0.39842543 0.96355528
6.4322071 -6.6793551 -0.39843008 0.9635548
6.2623825 -6.8389645 -0.39843491 0.96355444
6.1760154 -6.9171581 -0.39843735 0.96355414
6.0003123 -7.0702829 -0.39844227 0.96355367
5.9110155 -7.1451364 -0.39844477 0.96355355
5.8208203 -7.2189355 -0.3984473 0.96355319
5.7296481 -7.291533 -0.39844984 0.96355307
5.6376171 -7.3630075 -0.39845243 0.96355283
5.4508982 -7.5024509 -0.39845765 0.9635523
5.3561716 -7.5704098 -0.3984603 0.96355218
5.0671678 -7.7670603 -0.39846835 0.9635514
4.7709765 -7.9527049 -0.3984766 0.96355051
4.365449 -8.1826172 -0.39848784 0.96354955
4.2623048 -8.2368841 -0.39849076 0.96354932
4.1585155 -8.289834 -0.39849362 0.96354908
4.0540233 -8.3415136 -0.39849651 0.96354878
3.7368553 -8.4885349 -0.39850524 0.96354812
3.4143164 -8.6235743 -0.39851418 0.96354723
3.4976952 -9.1691113 -0.4216609 0.96147132
2.3211133 -9.5359278 -0.42169327 0.96146834
2.2011328 -9.5644236 -0.42169654 0.96146804
2.0807617 -9.5913572 -0.42169982 0.96146792
1.9600977 -9.6168261 -0.42170313 0.96146762
1.8391405 -9.64081 -0.42170647 0.96146715
1.717832 -9.6632128 -0.42170978 0.96146697
1.5962695 -9.6841307 -0.42171308 0.96146661
1.3524414 -9.7213478 -0.42171976 0.96146595
1.2301757 -9.7376661 -0.4217231 0.9614656
1.0267383 -9.0396576 -0.39090499 0.96423072
0.86230469 -9.7772951 -0.42173311 0.96146488
0.4932031 -9.8030758 -0.42174318 0.96146405
0.36996093 -9.8086033 -0.42174655 0.96146363
0.24669921 -9.8125486 -0.42174992 0.96146333
0 -9.8158302 -0.4217566 0.96146268
-0.12332031 -9.8151264 -0.42175993 0.96146238
-0.24667968 -9.8128805 -0.4217633 0.96146208
-0.4932031 -9.80375 -0.42176998 0.96146142
-0.61636716 -9.7968359 -0.42177331 0.96146119
-0.98519528 -9.7668848 -0.4217833 0.96146029
-1.2303125 -9.7391701 -0.42178991 0.96145982
-1.3526171 -9.7230368 -0.42179325 0.9614594
-1.5965625 -9.6861229 -0.42179984 0.96145886
-1.718164 -9.6653805 -0.42180312 0.9614585
-2.2017188 -9.5671387 -0.42181614 0.96145731
-2.3217578 -9.5387697 -0.42181936 0.96145713
-2.4414649 -9.5089455 -0.42182258 0.96145672
-2.6796875 -9.4446974 -0.42182899 0.9614563
-2.798203 -9.4103613 -0.4218322 0.96145594
-2.9162304 -9.3745022 -0.4218353 0.96145576
-3.033828 -9.3372068 -0.42183852 0.9614554
-3.3836718 -9.2164545 -0.42184788 0.96145445
-3.6142774 -9.1286421 -0.42185408 0.96145391
-3.7287109 -9.0825491 -0.42185709 0.96145374
-3.6316991 -8.5391502 -0.39870548 0.96353
-3.4917772 -7.6691504 -0.36207527 0.96682507
-4.16082 -8.2945213 -0.39871958 0.96352893
-4.3680077 -8.18748 -0.39872512 0.96352834
-4.5724607 -8.0752249 -0.39873055 0.96352786
-4.6736326 -8.0171871 -0.3987332 0.96352756
-4.7740235 -7.957871 -0.39873588 0.96352738
-4.8736911 -7.8973336 -0.39873853 0.96352702
-5.0706639 -7.7724609 -0.39874375 0.96352661
-5.2644529 -7.6426463 -0.39874887 0.96352625
-5.360117 -7.5759473 -0.39875141 0.96352595
-5.5488477 -7.4389353 -0.39875641 0.96352559
-5.6419334 -7.3686719 -0.39875883 0.96352535
-5.8253903 -7.224668 -0.39876366 0.96352488
-5.9157419 -7.1509275 -0.39876604 0.9635247
-6.0052147 -7.0760741 -0.39876837 0.9635244
-6.0936718 -7.0000877 -0.39877072 0.96352422
-6.2677341 -6.8448238 -0.39877528 0.96352381
-6.4378514 -6.6852145 -0.39877975 0.96352345
-6.7657418 -6.353447 -0.3987883 0.96352267
-1.0317383 -0.9447363 -0.060108375 0.99441475
-1.0318555 -0.92128903 -0.05943691 0.99447703
-1.0319922 -0.89834958 -0.058789749 0.99453706
-1.0321094 -0.8759082 -0.058164824 0.99459493
-1.0324805 -0.81129879 -0.056419831 0.99475658
-1.0327734 -0.75034177 -0.054851338 0.99490201
-1.0588672 -0.70992184 -0.054777678 0.99490899
-1.1186719 -0.70992184 -0.056929283 0.99470949
-1.2178124 -0.70991212 -0.0605698 0.99437219
-1.2537891 -0.70993161 -0.061908949 0.99424797
-1.7292968 -0.70993161 -0.080321461 0.99254364
-1.7843359 -0.68062496 -0.082057953 0.99238312
-1.7842969 -0.65504879 -0.081669733 0.99241894
-11.065117 -3.749619 -0.50199211 0.95430136
-11.198652 -3.3299413 -0.50199533 0.954301
-11.351913 -2.7630956 -0.50199884 0.95430064
-11.385781 -2.6202245 -0.50199962 0.95430046
-11.417812 -2.4769628 -0.50200033 0.95430046
-11.448047 -2.3332911 -0.50200099 0.9543004
-11.52789 -1.9001465 -0.50200272 0.95430028
-11.550899 -1.755127 -0.50200319 0.95430017
-11.591367 -1.4643164 -0.50200397 0.95430011
-11.608828 -1.3185253 -0.50200433 0.95430017
-11.624492 -1.1725585 -0.50200456 0.95430017
-11.63832 -1.0263965 -0.50200474 0.95430011
-11.668769 -0.58700192 -0.50200516 0.95429999
-10.974101 2.9296874e-05 -0.50198567 0.95700914
-10.973203 0.13791016 -0.50198549 0.95700932
-10.966249 0.41363281 -0.50198501 0.95700938
-10.960234 0.55140626 -0.50198472 0.9570092
-10.887442 1.3754199 -0.50198185 0.95700967
-10.752812 2.1916308 -0.50197732 0.95700997
-10.724394 2.3265526 -0.50197637 0.95701009
-10.694316 2.4611328 -0.50197542 0.95701009
-10.593906 2.8624413 -0.50197226 0.95701033
-10.393125 3.5219336 -0.50196612 0.95701087
-10.101913 3.5654101 -0.49002719 0.95801157
-1.7851562 0.65541989 -0.086987875 0.9924143
-1.7293359 0.70996094 -0.085510559 0.99254256
-1.6692969 0.70998043 -0.082977176 0.99276268
-1.5592577 0.70998043 -0.078371316 0.99316317
-1.4607812 0.70997071 -0.074294239 0.99351764
-1.4152734 0.70997071 -0.072427213 0.99367994
-1.2178515 0.70997071 -0.064482689 0.99437124
-1.1833984 0.70997071 -0.063127249 0.99448931
-1.0320898 0.74987304 -0.058355637 0.9949047
-1.0319922 0.76979488 -0.058892056 0.99485797
-1.0313672 0.87532222 -0.061878204 0.99459803
-1.0309765 0.94407225 -0.063944548 0.99441808
-6.3521872 5.9651465 -0.39860281 0.96570939
-6.2767382 6.0444627 -0.3986007 0.96570945
-6.1227927 6.2002439 -0.39859638 0.96570975
-5.9649801 6.3520703 -0.39859191 0.96571016
-5.8033981 6.4999022 -0.39858738 0.96571052
-5.638164 6.6436133 -0.39858273 0.96571088
-5.469336 6.7831345 -0.39857799 0.96571136
-5.3836327 6.8512692 -0.39857557 0.96571159
-5.2971091 6.9183297 -0.39857313 0.96571177
-5.2097263 6.9843063 -0.39857069 0.96571195
-5.1215234 7.0491991 -0.39856827 0.96571207
-5.0324998 7.1129293 -0.39856574 0.96571237
-4.8521094 7.2370896 -0.39856073 0.96571267
-4.6686325 7.3566208 -0.39855564 0.9657132
-4.5757813 7.4146385 -0.39855304 0.9657135
-4.4822264 7.4715133 -0.39855045 0.96571368
-4.3879685 7.5272069 -0.3985478 0.96571386
-4.1973438 7.6349902 -0.39854252 0.9657144
-3.9065039 7.7876072 -0.39853445 0.96571511
-3.8083203 7.8360448 -0.39853176 0.96571523
-3.6101367 7.9291601 -0.39852625 0.96571577
-3.5101953 7.9738379 -0.39852348 0.965716
-3.3086717 8.0594234 -0.39851794 0.96571642
-2.6920702 8.2854004 -0.39850098 0.96571785
-2.2723045 8.4099512 -0.39848942 0.96571887
-2.1664453 8.4377928 -0.39848652 0.96571904
-2.0602343 8.4642773 -0.39848357 0.96571934
-1.6323047 8.5568361 -0.39847186 0.96572036
-1.5246289 8.5766211 -0.39846891 0.96572059
-1.4167187 8.5950384 -0.39846596 0.96572083
-1.3085938 8.6120901 -0.39846301 0.96572107
-1.2346094 8.8747559 -0.40986559 0.96475762
-1.1232812 9.8898726 -0.45529851 0.96092832
-0.96353513 10.925478 -0.50170207 0.95703298
-0.82613277 10.93668 -0.50169832 0.95703316
-0.68867189 10.946084 -0.50169462 0.95703357
-0.55105466 10.953798 -0.50169086 0.95703387
-0.1378125 10.966523 -0.5016796 0.95703489
0 10.967343 -0.50167584 0.95703506
0.1378125 10.966396 -0.50167215 0.95703536
0.27562499 10.963691 -0.50166839 0.95703578
0.55105466 10.953174 -0.50166088 0.95703626
0.6886133 10.945273 -0.50165719 0.95703673
1.2376758 10.896533 -0.50164235 0.95703793
1.3744726 10.880029 -0.50163865 0.95703828
1.5110742 10.861856 -0.50163496 0.95703846
1.7835351 10.820234 -0.50162756 0.9570393
1.9193358 10.796933 -0.50162393 0.95703942
2.1900389 10.745117 -0.5016166 0.95704007
2.5933983 10.654716 -0.50160575 0.95704097
2.7270703 10.621191 -0.50160217 0.95704138
3.3884959 10.428652 -0.50158441 0.95704275
3.5192187 10.385185 -0.50158089 0.95704305
3.6494529 10.340058 -0.50157738 0.95704335
3.9080858 10.244941 -0.50157046 0.95704395
4.0364451 10.194942 -0.50156701 0.9570443
4.4177732 10.035371 -0.50155681 0.95704508
4.5434766 9.9789944 -0.50155348 0.95704538
4.7927732 9.8615627 -0.50154686 0.95704579
5.1609373 9.6736908 -0.50153702 0.95704681
5.2820311 9.608037 -0.50153387 0.95704699
5.4023438 9.5408106 -0.50153065 0.95704734
5.6403513 9.4019527 -0.50152433 0.9570477
5.7580075 9.3302736 -0.50152117 0.957048
5.8747263 9.2571096 -0.50151807 0.95704836
6.2193747 9.0289354 -0.50150895 0.95704907
6.3322849 8.9500294 -0.50150597 0.95704937
6.4442186 8.8696966 -0.50150305 0.95704961
6.773828 8.6203709 -0.50149435 0.95705026
6.8815818 8.5345306 -0.50149155 0.9570505
7.0555468 8.3137598 -0.49878454 0.95727748
7.3297458 7.422451 -0.47716972 0.95909035
7.4780469 7.0223727 -0.46924844 0.95975566
7.5264063 6.8918748 -0.46681127 0.9599604
7.5742965 6.7627149 -0.46447441 0.96015692
7.6686716 6.5081153 -0.4600831 0.96052599
7.8040624 6.2925878 -0.45856917 0.96065319
1.2612109 0.94079101 -0.071972884 0.99371946
1.2621484 0.75718749 -0.067325555 0.99412376
1.262246 0.73582029 -0.066832311 0.99416673
1.3307421 0.70997071 -0.068992615 0.99397874
1.3719921 0.70998043 -0.070662573 0.99383342
1.415293 0.70997071 -0.072427101 0.99367988
1.6127343 0.70996094 -0.080602035 0.9929691
1.6692969 0.70997071 -0.08297722 0.99276268
1.7293359 0.70997071 -0.085510902 0.99254251
1.933789 0.70996094 -0.09422832 0.99178535
2.0207617 0.65660155 -0.097192034 0.99152815
10.50662 3.1241992 -0.5013988 0.95705831
10.545019 2.991914 -0.50139791 0.95705843
10.616836 2.7259667 -0.50139624 0.95705855
10.650234 2.592334 -0.50139546 0.95705867
10.681992 2.4582715 -0.50139475 0.95705861
10.711953 2.3238573 -0.50139409 0.95705891
10.766992 2.053916 -0.5013929 0.95705885
10.815156 1.7827051 -0.50139183 0.95705903
10.856543 1.5103418 -0.50139099 0.95705903
10.874609 1.3737988 -0.5013907 0.9570592
10.891054 1.237041 -0.5013904 0.95705909
10.918692 0.96296871 -0.50138992 0.95705909
10.929922 0.82566404 -0.50138974 0.95705914
10.947266 0.55073243 -0.50138956 0.95705897
10.953281 0.41313475 -0.50138956 0.95705909
10.957617 0.27547851 -0.50138962 0.95705909
10.960234 0.13774414 -0.50138968 0.95705897
10.961074 1.953125e-05 -0.5013898 0.95705909
10.960215 -0.13772461 -0.50138992 0.95705909
10.957598 -0.2754297 -0.50139016 0.95705914
10.939453 -0.68825191 -0.50139111 0.95705909
10.91873 -0.96293944 -0.50139195 0.95705897
10.874687 -1.3737891 -0.50139362 0.95705891
10.856602 -1.5103124 -0.50139421 0.95705879
10.836797 -1.6466308 -0.50139493 0.95705867
10.792031 -1.9184473 -0.50139642 0.95705855
10.76707 -2.0538964 -0.50139725 0.95705855
10.71211 -2.3238475 -0.50139904 0.95705831
10.682051 -2.4582813 -0.50139999 0.95705837
10.506738 -3.1241992 -0.50140548 0.95705783
2.0207617 -0.65656251 -0.097191691 0.99152821
1.7931249 -0.70991212 -0.088217311 0.99230748
1.7293164 -0.70992184 -0.085510522 0.99254268
1.6693358 -0.70992184 -0.08297722 0.99276263
1.5592968 -0.70992184 -0.078370973 0.99316311
1.4152734 -0.70993161 -0.072427027 0.99368
1.3719921 -0.70992184 -0.070662498 0.99383348
1.2623438 -0.71475583 -0.066356465 0.99420816
1.2621484 -0.75714844 -0.067325436 0.99412382
1.2616016 -0.86900389 -0.070074312 0.99388462
1.2614648 -0.89249021 -0.070685156 0.99383157
6.7803707 -5.4671583 -0.39841938 0.96572495
6.6409373 -5.6358786 -0.39842334 0.96572453
6.4972849 -5.801074 -0.39842743 0.96572405
6.4239063 -5.8822656 -0.39842948 0.96572393
6.3495116 -5.9625778 -0.39843163 0.96572375
6.2741208 -6.041904 -0.39843374 0.96572363
6.1977539 -6.1203122 -0.39843589 0.96572334
6.1203513 -6.1977344 -0.39843807 0.96572328
6.0420313 -6.2741895 -0.39844027 0.9657231
5.9627342 -6.349658 -0.39844254 0.96572292
5.8013673 -6.4975586 -0.39844707 0.9657225
5.6363087 -6.6413865 -0.39845169 0.96572208
5.3821092 -6.8492284 -0.39845887 0.96572143
5.2956247 -6.9163475 -0.39846125 0.96572131
5.0312696 -7.1111522 -0.39846861 0.96572071
4.9415622 -7.1738672 -0.39847115 0.96572047
4.8510742 -7.2354488 -0.39847365 0.96572018
4.4814844 -7.4702048 -0.39848396 0.96571952
4.2924218 -7.5805955 -0.39848921 0.96571892
3.9062109 -7.7868748 -0.39849991 0.96571815
3.8080859 -7.8354297 -0.39850265 0.96571779
3.610039 -7.9287791 -0.3985081 0.96571726
3.4096875 -8.0170698 -0.39851364 0.9657169
3.3086913 -8.0593653 -0.39851645 0.9657166
3.1051562 -8.1400681 -0.39852205 0.96571618
3.0026171 -8.1785059 -0.39852488 0.96571594
2.8996484 -8.2156544 -0.39852771 0.96571571
2.7962108 -8.2514839 -0.39853057 0.96571547
2.3781641 -8.3818159 -0.39854205 0.96571445
2.1667969 -8.4390526 -0.39854786 0.96571398
1.9540625 -8.4909763 -0.3985537 0.96571344
1.8472265 -8.5148926 -0.39855662 0.96571332
1.5250391 -8.5786524 -0.39856544 0.96571255
1.0405078 -9.160635 -0.42172763 0.96375638
0.92531246 -9.1730566 -0.42173079 0.96375614
0.46328124 -9.2082319 -0.42174333 0.96375507
0.34751952 -9.2133884 -0.42174655 0.96375483
0.11585937 -9.2193651 -0.42175281 0.96375424
-0.11585937 -9.2194824 -0.4217591 0.96375382
-0.23167968 -9.217392 -0.42176223 0.96375346
-0.46326169 -9.2087889 -0.42176852 0.96375293
-0.57894528 -9.2023335 -0.42177168 0.96375257
-0.69453126 -9.1943655 -0.4217748 0.96375245
-0.9253906 -9.1741304 -0.42178103 0.96375197
-1.1556641 -9.1481152 -0.42178726 0.96375144
-1.2705468 -9.1329393 -0.42179039 0.96375114
-1.4173828 -8.5988674 -0.3986454 0.96570581
-1.8476562 -8.5170412 -0.39865699 0.96570486
-2.1674023 -8.4415522 -0.39866561 0.96570402
-2.3788867 -8.3845119 -0.3986713 0.96570367
-2.4841015 -8.354023 -0.39867407 0.96570337
-2.6932812 -8.2890816 -0.39867973 0.96570289
-3.3101561 -8.0629883 -0.39869624 0.96570146
-3.4112108 -8.0208101 -0.39869896 0.96570128
-3.711211 -7.8867283 -0.39870697 0.96570045
-3.810039 -7.8394918 -0.39870957 0.96570033
-4.0058789 -7.7413669 -0.39871478 0.96569997
-4.1992188 -7.6383691 -0.39871994 0.96569943
-4.2949023 -7.5850487 -0.39872244 0.9656992
-4.3899217 -7.530498 -0.398725 0.96569908
-4.4842186 -7.4748044 -0.39872748 0.96569884
-4.5778122 -7.4179101 -0.39873001 0.96569866
-4.6707029 -7.3598533 -0.39873245 0.96569836
-4.7628512 -7.3006344 -0.3987349 0.96569812
-4.9448633 -7.1787109 -0.3987397 0.96569777
-5.2120118 -6.9873533 -0.39874676 0.96569723
-5.3859959 -6.854238 -0.39875138 0.96569693
-5.5566406 -6.7168164 -0.39875582 0.96569639
-5.640625 -6.6464844 -0.39875805 0.96569628
-5.7237496 -6.5751266 -0.39876023 0.96569604
-5.8059373 -6.5027146 -0.39876235 0.96569586
-5.8872266 -6.4292579 -0.39876449 0.96569574
-6.0469918 -6.2793555 -0.39876869 0.96569538
-6.2794528 -6.04707 -0.39877474 0.9656949
-1.0311133 -0.92060542 -0.06323044 0.99448037
-1.0313672 -0.87527341 -0.061878316 0.99459815
-1.0314844 -0.8533203 -0.061237715 0.99465394
-1.0316211 -0.83182615 -0.060619507 0.9947077
-1.0317383 -0.81072265 -0.060023114 0.99475968
-1.0318359 -0.79004884 -0.059447668 0.99480981
-1.0319726 -0.76976562 -0.058891945 0.99485809
-1.0320898 -0.74984372 -0.058355711 0.99490482
-1.0322655 -0.71104491 -0.057338141 0.99499351
-1.0588672 -0.70992184 -0.058316495 0.99490833
-1.1186719 -0.70992184 -0.060607109 0.99470884
-1.1503906 -0.70992184 -0.061836775 0.99460173
-1.1833984 -0.70993161 -0.063127175 0.99448943
-1.2537891 -0.70993161 -0.065908663 0.99424726
-1.2913672 -0.70993161 -0.067410007 0.9941166
-1.3307031 -0.70991212 -0.06899254 0.99397898
-1.4152734 -0.70993161 -0.072427027 0.99368
-1.4607617 -0.70993161 -0.074294053 0.99351776
-1.5087109 -0.70993161 -0.076272085 0.99334568
-1.5592577 -0.70992184 -0.078371271 0.99316323
-1.6692773 -0.70993161 -0.082977138 0.99276286
-1.7852734 -0.70681638 -0.087832332 0.99234104
-1.7851562 -0.65538085 -0.086987644 0.99241436
-10.348203 -3.6522753 -0.50197256 0.95701033
-10.39332 -3.5219727 -0.50197363 0.95701015
-10.436719 -3.391084 -0.50197464 0.95701027
-10.478516 -3.2596776 -0.50197566 0.95701021
-10.518711 -3.1277635 -0.50197661 0.95700997
-10.662637 -2.5953221 -0.50197995 0.95700973
-10.694433 -2.4611328 -0.50198066 0.95700967
-10.724531 -2.3265429 -0.50198132 0.95700961
-10.804648 -1.9207031 -0.50198311 0.95700943
-10.827949 -1.7847754 -0.50198358 0.95700932
-10.849531 -1.6485839 -0.501984 0.95700932
-10.869375 -1.5121094 -0.50198442 0.95700938
-10.887539 -1.3753906 -0.50198478 0.95700932
-10.903965 -1.2384765 -0.50198501 0.95700926
-10.918672 -1.1013671 -0.50198531 0.95700926
-10.93168 -0.96406245 -0.50198555 0.95700914
-10.94289 -0.82664061 -0.50198567 0.95700932
-10.95246 -0.68903321 -0.50198579 0.95700914
-10.960234 -0.55136716 -0.50198585 0.9570092
-10.970625 -0.27575195 -0.50198585 0.9570092
-10.973203 -0.13787109 -0.50198579 0.95700932
-10.344902 0.13004883 -0.50196838 0.95941502
-10.338379 0.38995117 -0.50196797 0.95941496
-10.325274 0.64963865 -0.50196737 0.95941508
-10.316289 0.77933592 -0.50196695 0.95941514
-10.293437 1.0383203 -0.50196606 0.9594152
-10.246992 1.4255469 -0.50196439 0.95941514
-10.228203 1.554209 -0.50196373 0.95941538
-10.137187 2.0661523 -0.50196069 0.95941544
-10.110371 2.1933594 -0.5019598 0.95941561
-10.082031 2.3202343 -0.50195897 0.95941556
-10.052031 2.4467382 -0.50195801 0.95941573
-10.020469 2.5728416 -0.501957 0.95941585
-9.9873438 2.6985545 -0.50195599 0.95941585
-9.9525976 2.823828 -0.50195491 0.95941603
-9.9163275 2.9486816 -0.50195378 0.95941603
-9.7980661 3.3202929 -0.5019502 0.95941639
-1.7860156 0.65574217 -0.09231174 0.99240965
-1.7860937 0.68134767 -0.092751198 0.9923737
-1.7861718 0.7072168 -0.093209073 0.99233615
-1.6692969 0.70998043 -0.088013649 0.99276173
-1.4152734 0.70997071 -0.076823421 0.99367911
-1.3719531 0.70995116 -0.074951701 0.99383277
-1.3307031 0.70998043 -0.073180541 0.99397808
-1.2178515 0.70997071 -0.068397023 0.99437052
-1.1503906 0.70998043 -0.06559021 0.99460089
-1.1186913 0.70998043 -0.064286232 0.99470794
-1.0882031 0.70997071 -0.063042872 0.9948101
-1.0589062 0.70996094 -0.061856229 0.9949075
-1.0316015 0.71062499 -0.060778271 0.99499595
-1.0315039 0.72984374 -0.061307523 0.99495244
-1.0313867 0.74938476 -0.061856002 0.99490744
-1.03125 0.76927733 -0.062423971 0.99486089
-1.0311718 0.78955078 -0.063012615 0.99481249
-1.0309374 0.8312695 -0.064254075 0.99471051
-1.0307617 0.8527832 -0.064908788 0.9946568
-1.0306445 0.87468749 -0.065587118 0.99460113
-5.9885545 5.623662 -0.39859334 0.96763611
-5.9174218 5.6984472 -0.39859131 0.96763617
-5.8452735 5.7723241 -0.39858928 0.96763647
-5.7722459 5.845293 -0.39858717 0.96763659
-5.6983204 5.9173341 -0.39858511 0.96763676
-5.5477734 6.0585938 -0.39858088 0.96763706
-5.3937106 6.1960154 -0.39857659 0.96763742
-5.2362499 6.3295507 -0.39857215 0.96763772
-4.9114842 6.5845213 -0.39856303 0.96763843
-4.7444139 6.705781 -0.39855838 0.96763879
-4.488203 6.8796778 -0.39855126 0.96763951
-4.2256641 7.0438375 -0.39854392 0.96763998
-3.9571092 7.1979589 -0.39853644 0.96764058
-3.866328 7.2470994 -0.39853394 0.9676407
-3.7749219 7.2950487 -0.39853141 0.967641
-3.5903516 7.3874998 -0.39852631 0.96764147
-3.4972265 7.4320211 -0.39852372 0.96764147
-3.3092968 7.5174217 -0.3985185 0.96764207
-3.2145507 7.5583982 -0.39851591 0.96764219
-3.0235546 7.6366696 -0.39851066 0.96764266
-2.9273436 7.6740136 -0.39850798 0.96764284
-2.8306444 7.7101269 -0.39850533 0.96764314
-2.7335155 7.7450681 -0.39850265 0.9676432
-2.5379686 7.8112011 -0.39849725 0.96764374
-2.3408594 7.8723922 -0.39849186 0.96764416
-2.2417383 7.9011426 -0.39848912 0.96764433
-1.841875 8.0035934 -0.39847815 0.96764517
-1.7411327 8.0260153 -0.39847541 0.96764553
-1.5388671 8.0671387 -0.39846984 0.96764588
-1.4373633 8.0857906 -0.39846709 0.96764612
-1.3653905 8.2835445 -0.4073348 0.96693814
-1.290625 8.4938278 -0.4168455 0.96617943
-1.0377344 10.288115 -0.50170475 0.95943576
-0.77890623 10.310781 -0.50169772 0.95943636
-0.64925778 10.319677 -0.50169414 0.95943666
0.38970703 10.332177 -0.50166595 0.9594388
0.51953125 10.326396 -0.50166243 0.95943904
0.64921874 10.318974 -0.50165892 0.95943934
0.9083398 10.299257 -0.50165188 0.95943993
1.0376562 10.286972 -0.50164837 0.95944017
1.1668359 10.273007 -0.50164491 0.95944059
1.4246093 10.240322 -0.50163794 0.95944101
1.8095312 10.179121 -0.5016275 0.9594419
1.9372851 10.155546 -0.50162411 0.95944208
2.0647266 10.130322 -0.50162065 0.95944238
2.1918359 10.103477 -0.50161725 0.95944279
2.3186328 10.075108 -0.50161386 0.95944285
2.445039 10.045097 -0.50161046 0.95944315
2.5710547 10.013506 -0.50160706 0.95944345
2.69666 9.9803314 -0.50160366 0.95944375
2.9465625 9.9092674 -0.50159693 0.95944434
3.0708592 9.8714447 -0.50159359 0.9594444
3.440625 9.7484665 -0.5015837 0.95944536
3.5628514 9.7043848 -0.50158042 0.95944566
3.9260156 9.5630465 -0.5015707 0.95944631
4.283535 9.4080763 -0.50156116 0.95944721
4.5185742 9.2973633 -0.50155491 0.95944756
4.750742 9.1807613 -0.50154871 0.95944804
4.865664 9.1202927 -0.50154567 0.95944834
4.9798632 9.0583496 -0.50154263 0.95944864
5.2058787 8.930254 -0.50153661 0.95944905
5.538672 8.7275486 -0.50152779 0.95944971
5.6478906 8.6572065 -0.50152493 0.95944995
5.7561717 8.5855074 -0.50152206 0.95945019
5.8635936 8.5124702 -0.5015192 0.9594503
5.9700584 8.4380369 -0.50151634 0.95945066
6.1801171 8.285244 -0.50151086 0.9594512
6.3863282 8.1272459 -0.50150543 0.9594515
6.4879098 8.0463181 -0.50150275 0.95945174
6.5884762 7.9640918 -0.50150007 0.95945197
6.7864842 7.7959375 -0.50149488 0.95945233
6.8838673 7.7100291 -0.50149232 0.95945245
6.9801559 7.6228318 -0.50148982 0.95945287
7.0753903 7.5345016 -0.50148731 0.95945293
7.2624021 7.3542676 -0.50148243 0.95945328
7.5264063 6.8918748 -0.49514759 0.95995533
7.6217184 6.6348243 -0.49028739 0.96034026
7.6686716 6.5081153 -0.48800883 0.96052098
7.8040624 6.2925782 -0.486404 0.96064818
1.2603906 0.94013667 -0.076289557 0.9937228
1.2608984 0.84538084 -0.073653944 0.99393904
1.2914063 0.70998043 -0.071502112 0.99411565
1.3307421 0.70997071 -0.073180236 0.99397796
1.415293 0.70997071 -0.076823384 0.99367905
1.4607812 0.70997071 -0.078803636 0.99351674
1.5592968 0.70998043 -0.083128281 0.99316216
1.6127343 0.70996094 -0.08549469 0.9929682
1.7931445 0.70997071 -0.093572423 0.99230635
1.933789 0.70996094 -0.099948235 0.99178427
2.0232031 0.71409178 -0.10409912 0.99144459
2.0230467 0.68557614 -0.10363907 0.9914822
2.0228906 0.65728515 -0.10319992 0.9915182
9.9056835 2.9455175 -0.50141531 0.95945871
9.9418945 2.820791 -0.50141448 0.95945883
9.9765234 2.6956248 -0.5014137 0.95945895
10.099336 2.1909473 -0.50141084 0.95945907
10.126094 2.0638573 -0.50141031 0.95945895
10.151152 1.9364452 -0.50140977 0.95945925
10.196601 1.6807519 -0.50140876 0.95945925
10.252695 1.2952343 -0.50140762 0.9594593
10.268184 1.1663085 -0.50140738 0.95945925
10.313749 0.64888668 -0.50140667 0.95945948
10.326797 0.3895117 -0.50140661 0.95945948
10.330898 0.25971678 -0.50140661 0.95945942
10.333359 0.12989257 -0.50140667 0.95945936
10.330898 -0.25969726 -0.50140721 0.95945942
10.304883 -0.77841794 -0.50140846 0.95945913
10.282031 -1.0371484 -0.50140935 0.95945925
10.268242 -1.1662695 -0.50140989 0.95945901
10.252773 -1.2951953 -0.50141042 0.95945901
10.216992 -1.5524511 -0.50141168 0.95945901
10.126133 -2.0638573 -0.50141466 0.95945883
10.071133 -2.3176856 -0.50141644 0.95945859
10.04125 -2.4440527 -0.5014174 0.95945841
10.009766 -2.5700684 -0.50141835 0.95945835
9.8680468 -3.0697558 -0.50142276 0.95945811
2.0230467 -0.68551755 -0.10363964 0.99148226
1.9337499 -0.70991212 -0.099947393 0.99178445
1.8611327 -0.70993161 -0.0966473 0.99205458
1.7931249 -0.70991212 -0.09357246 0.99230653
1.7293164 -0.70992184 -0.090700798 0.99254167
1.6127343 -0.70993161 -0.085494347 0.99296826
1.50875 -0.70991212 -0.080901526 0.99334472
1.4608203 -0.70993161 -0.078803554 0.99351668
1.4152734 -0.70993161 -0.076823309 0.99367923
1.3719921 -0.70992184 -0.074951664 0.99383271
1.3307421 -0.70992184 -0.073180079 0.99397802
1.2615429 -0.71429688 -0.070340037 0.99421108
1.2607812 -0.8684082 -0.074278526 0.9938879
1.260625 -0.89188474 -0.074925385 0.99383491
1.2605078 -0.91577148 -0.075595357 0.9937799
6.4567966 -5.0736718 -0.39842772 0.96764934
6.3925781 -5.1544433 -0.39842954 0.9676491
6.2610936 -5.3135056 -0.3984333 0.9676488
6.1256051 -5.4692087 -0.39843714 0.96764863
5.9152341 -5.6963086 -0.3984431 0.96764803
5.8432031 -5.770205 -0.39844516 0.96764791
5.7702732 -5.8432226 -0.39844719 0.96764767
5.6964059 -5.9152732 -0.39844927 0.96764761
5.6216407 -5.9864259 -0.39845139 0.96764749
5.5460544 -6.0566502 -0.3984535 0.96764714
5.3921094 -6.19416 -0.39845785 0.96764696
5.1548829 -6.3930955 -0.3984645 0.96764648
4.8273044 -6.6441793 -0.39847365 0.96764565
4.7434568 -6.7043552 -0.39847603 0.96764547
4.6588283 -6.7634568 -0.39847839 0.96764541
4.4007225 -6.9343848 -0.39848557 0.96764469
4.313242 -6.9891696 -0.39848799 0.96764457
4.2251172 -7.042871 -0.39849043 0.96764427
4.1362891 -7.0954394 -0.39849293 0.96764416
4.0468359 -7.146904 -0.39849541 0.96764398
3.9567187 -7.1972461 -0.39849791 0.96764374
3.8660154 -7.2464647 -0.39850044 0.96764344
3.7746875 -7.2944822 -0.39850295 0.96764332
3.4034765 -7.4751172 -0.39851323 0.96764255
3.2146094 -7.5584083 -0.39851844 0.96764201
3.119375 -7.5982518 -0.3985211 0.96764189
2.6362109 -7.7793651 -0.39853439 0.96764088
2.3412108 -7.8733592 -0.39854252 0.96764022
2.1426368 -7.9298043 -0.39854798 0.9676398
1.9426953 -7.9812789 -0.39855346 0.96763927
1.8422461 -8.0051069 -0.3985562 0.96763915
1.7415234 -8.0276756 -0.39855894 0.96763891
1.6405468 -8.0490236 -0.39856175 0.96763849
1.234082 -8.1214552 -0.39857283 0.96763784
1.1319336 -8.1364059 -0.39857566 0.96763754
1.0295898 -8.1500483 -0.39857844 0.9676373
0.92710936 -8.1624022 -0.39858124 0.96763706
0.41279295 -8.2048044 -0.39859527 0.96763593
0.30964842 -8.2093945 -0.39859805 0.96763569
0.10328124 -8.2146873 -0.39860365 0.96763533
-0.10320313 -8.2148046 -0.39860928 0.96763486
-0.20644531 -8.2129097 -0.39861208 0.96763468
-0.3096289 -8.2097168 -0.39861488 0.9676345
-0.41277343 -8.2052441 -0.39861768 0.9676342
-0.51583982 -8.1994534 -0.39862049 0.96763402
-0.61886716 -8.1923923 -0.39862326 0.96763378
-0.82455075 -8.174365 -0.39862883 0.96763337
-0.9271875 -8.1634083 -0.39863157 0.96763313
-1.0297265 -8.1511908 -0.3986344 0.96763283
-1.3362499 -8.1067772 -0.39864266 0.96763211
-1.4380273 -8.0893555 -0.3986454 0.96763206
-1.5395508 -8.070713 -0.39864814 0.96763182
-1.8426952 -8.0071192 -0.39865631 0.9676311
-1.9431835 -7.983408 -0.39865902 0.9676308
-2.0433788 -7.9583983 -0.39866173 0.96763068
-2.3419139 -7.8758788 -0.39866972 0.96763003
-2.6371484 -7.7821875 -0.39867768 0.96762937
-2.734746 -7.7484765 -0.39868027 0.96762919
-2.9286523 -7.677412 -0.39868546 0.96762872
-3.0248828 -7.6400485 -0.39868805 0.9676286
-3.120703 -7.6014843 -0.39869061 0.96762836
-3.3107617 -7.5207419 -0.39869568 0.967628
-3.49875 -7.4352636 -0.39870071 0.96762764
-3.8680077 -7.2502537 -0.39871052 0.96762687
-3.9588671 -7.2011132 -0.39871296 0.96762663
-4.0490818 -7.1508789 -0.39871532 0.96762627
-4.1386132 -7.099453 -0.39871773 0.96762621
-4.4033399 -6.9385352 -0.39872473 0.96762568
-4.5763669 -6.8257713 -0.39872932 0.96762526
-4.7465234 -6.7086911 -0.39873382 0.9676249
-4.8304687 -6.6485543 -0.39873603 0.96762472
-4.9960546 -6.5251465 -0.39874041 0.96762437
-5.1585155 -6.3975778 -0.39874464 0.96762413
-5.2385154 -6.3322849 -0.39874676 0.96762395
-5.5501952 -6.0612011 -0.39875495 0.96762329
-5.7008004 -5.9198728 -0.39875889 0.967623
-5.8478513 -5.7747946 -0.39876273 0.96762264
-5.9911914 -5.6260743 -0.39876646 0.96762228
-1.0301952 -0.94333005 -0.067775652 0.99442166
-1.0303515 -0.91993159 -0.067019425 0.99448371
-1.0305078 -0.89705074 -0.06629055 0.99454349
-1.0306445 -0.87463868 -0.065587193 0.99460125
-1.0308985 -0.83122069 -0.064253993 0.99471074
-1.0310352 -0.810166 -0.063622169 0.99476254
-1.03125 -0.76922852 -0.062424086 0.99486101
-1.0316015 -0.71058589 -0.060778312 0.99499607
-1.0882226 -0.70992184 -0.06304279 0.99481016
-1.1186719 -0.70992184 -0.064286076 0.99470812
-1.1503906 -0.70992184 -0.065590054 0.99460101
-1.1833984 -0.70993161 -0.066958733 0.99448872
-1.2913672 -0.70993161 -0.071501657 0.99411589
-1.3719727 -0.70991212 -0.074951515 0.99383277
-1.4152734 -0.70993161 -0.076823235 0.99367923
-1.5592577 -0.70992184 -0.083127975 0.99316239
-1.7292968 -0.70993161 -0.090700872 0.99254173
-1.7860937 -0.68131834 -0.092750818 0.9923737
-9.7981834 -3.3203125 -0.50195724 0.95941591
-9.839179 -3.1969237 -0.50195825 0.95941579
-9.9164448 -2.9486718 -0.50196004 0.95941561
-9.952734 -2.823828 -0.50196087 0.95941556
-10.020586 -2.5728221 -0.50196248 0.95941544
-10.052129 -2.4467187 -0.5019632 0.95941538
-10.08207 -2.3202245 -0.50196385 0.95941544
-10.162421 -1.9385644 -0.50196564 0.9594152
-10.185976 -1.810703 -0.50196618 0.9594152
-10.207949 -1.6825879 -0.5019666 0.95941508
-10.247031 -1.4255273 -0.50196743 0.95941502
-10.26414 -1.2966309 -0.50196773 0.95941502
