# .PCD v0.7 - Point Cloud Data file format
VERSION 0.7
FIELDS x y z intensity
SIZE 4 4 4 4
TYPE F F F F
COUNT 1 1 1 1
WIDTH 1084
HEIGHT 1
VIEWPOINT 0 0 0 1 0 0 0
POINTS 1084
DATA ascii
14.498828 0.18221679 -0.50232643 0.94361722
14.49998 9.7656248e-06 -0.50232673 0.94361717
14.498789 -0.18221679 -0.50232685 0.94361734
14.49539 -0.364375 -0.50232691 0.94361722
14.443848 -1.2738184 -0.50232548 0.94361746
14.42666 -1.4552246 -0.50232488 0.94361758
14.407227 -1.6364062 -0.50232422 0.94361764
14.385468 -1.8173046 -0.50232339 0.94361788
14.361485 -1.9979395 -0.50232249 0.94361788
14.335195 -2.1782324 -0.50232148 0.94361812
14.306719 -2.3581934 -0.50232041 0.943618
14.275937 -2.5378027 -0.50231916 0.94361806
14.170019 -3.074033 -0.50231487 0.94361854
14.043984 -3.6058691 -0.50230968 0.94361895
13.94875 -3.957617 -0.50230569 0.94361967
13.89791 -4.1325779 -0.50230354 0.94361973
1.9337499 -0.70994139 -0.071363598 0.99178916
1.6692969 -0.70994139 -0.062842555 0.99276596
1.6127148 -0.70994139 -0.061043739 0.99297231
1.5592968 -0.70994139 -0.059354361 0.99316609
1.4607812 -0.70994139 -0.056266591 0.99352056
1.3307421 -0.70995116 -0.052251395 0.99398142
1.2914063 -0.70993161 -0.051052816 0.99411911
1.2655274 -0.71657223 -0.050381467 0.99419618
1.2651953 -0.80291992 -0.051911965 0.99402046
1.2651563 -0.82535154 -0.052329712 0.9939723
1.2648437 -0.89489257 -0.053676985 0.99381787
1.2646484 -0.94333982 -0.054657515 0.99370521
9.1446486 -7.0017381 -0.39899921 0.95494938
9.0558987 -7.116045 -0.39899528 0.95494962
8.8739452 -7.3411422 -0.39898714 0.95495099
8.7809763 -7.4520798 -0.39898303 0.95495099
8.6865234 -7.5617285 -0.39897883 0.95495158
8.4935932 -7.7774901 -0.39897022 0.95495242
8.3950777 -7.8835154 -0.39896584 0.95495296
8.0916796 -8.1940432 -0.39895228 0.95495456
7.9879684 -8.2949514 -0.39894763 0.95495516
7.5607615 -8.68542 -0.39892849 0.95495719
7.88375 -9.2895699 -0.42209235 0.95240474
7.7662301 -9.3877535 -0.42208704 0.95240557
7.6475387 -9.4844627 -0.42208174 0.95240623
7.160996 -9.8562689 -0.42205986 0.95240843
6.7841406 -10.11875 -0.42204288 0.95241034
6.6563668 -10.203056 -0.42203712 0.952411
6.5275388 -10.285742 -0.42203131 0.95241165
6.3976951 -10.366806 -0.42202544 0.95241231
6.2668357 -10.44625 -0.42201957 0.9524129
5.8683982 -10.674589 -0.42200157 0.95241487
4.8497267 -9.0903616 -0.35693467 0.95960146
4.7669139 -11.208301 -0.42195171 0.95242041
4.625586 -11.267168 -0.4219453 0.95242107
4.4835739 -11.324219 -0.42193884 0.95242184
4.0533595 -11.484629 -0.42191932 0.95242399
3.1765039 -11.75623 -0.4218795 0.95242828
3.0284569 -11.795019 -0.42187274 0.95242906
2.8799608 -11.831953 -0.421866 0.95242983
2.5816209 -11.900214 -0.42185241 0.95243126
2.2816796 -11.960898 -0.42183876 0.95243299
2.1311524 -11.988438 -0.42183188 0.95243371
1.5260156 -12.079599 -0.42180428 0.95243669
0.61169922 -12.159053 -0.4217625 0.95244116
0.15296875 -12.172832 -0.42174152 0.9524436
-0.15296875 -12.172421 -0.42172751 0.95244515
-0.76433593 -12.148555 -0.42169952 0.95244825
-1.0693555 -12.125146 -0.42168552 0.95244962
-1.2216015 -12.110537 -0.42167854 0.95245045
-1.5255078 -12.075605 -0.42166457 0.952452
-1.8283983 -12.033027 -0.42165068 0.95245367
-1.9794531 -12.008945 -0.42164373 0.95245427
-2.1301563 -11.98291 -0.42163679 0.9524551
-2.2805469 -11.95498 -0.42162991 0.95245594
-2.4305468 -11.925215 -0.42162299 0.95245659
-2.5801561 -11.893535 -0.42161614 0.95245737
-2.7293749 -11.85997 -0.42160925 0.95245814
-2.1900001 -8.9973927 -0.32080099 0.96361583
-3.905371 -11.524707 -0.42155504 0.95246404
-4.0498047 -11.474511 -0.42154837 0.95246488
-4.6209764 -11.255849 -0.42152202 0.95246768
-3.9399998 -8.950078 -0.33877507 0.96161687
-5.0416598 -11.073164 -0.42150256 0.95246989
-5.1803317 -11.008769 -0.42149612 0.9524706
-5.3181639 -10.942617 -0.42148975 0.95247138
-3.8338866 -7.6427145 -0.29624826 0.96635675
-5.5913477 -10.805234 -0.42147711 0.95247257
-5.7265625 -10.733906 -0.42147085 0.95247352
-5.0536523 -8.9249611 -0.35531712 0.95978081
-6.5183005 -10.271192 -0.42143407 0.9524774
-6.0380859 -9.0059376 -0.37563017 0.95753115
-7.0257812 -9.9301853 -0.42141056 0.95247978
-7.5153513 -9.5640821 -0.4213877 0.95248264
-7.7531834 -9.3719721 -0.42137665 0.95248359
-7.8702145 -9.2736721 -0.42137119 0.95248431
-7.9860153 -9.1739349 -0.42136577 0.95248491
-7.7630076 -8.4777441 -0.3982268 0.95503449
-8.0767183 -8.1788378 -0.39821211 0.9550361
-8.2794724 -7.9730663 -0.39820263 0.9550373
-8.3789062 -7.8682909 -0.39819798 0.95503789
-1.0345117 -0.83416992 -0.04603916 0.99469519
-1.0346289 -0.81299806 -0.045584869 0.99474734
-1.0348632 -0.75188476 -0.044314917 0.99489331
-1.0350391 -0.71295899 -0.043540344 0.9949823
-1.0589062 -0.70994139 -0.044165839 0.99491042
-1.1186913 -0.70994139 -0.045900878 0.99471104
-1.253828 -0.70995116 -0.049915619 0.99424964
-1.2914063 -0.70994139 -0.051053006 0.99411911
-1.3307031 -0.70995116 -0.052251395 0.9939816
-1.4152734 -0.70994139 -0.054852486 0.9936828
-1.5592773 -0.70994139 -0.059354588 0.99316621
-1.6692578 -0.70992184 -0.062842712 0.99276614
-1.7292968 -0.70994139 -0.064761274 0.99254602
-1.7818359 -0.70546871 -0.066391028 0.9923591
-1.7817968 -0.67966795 -0.066065788 0.99239635
-1.7817383 -0.65413082 -0.065753631 0.99243218
-13.583476 -4.4135351 -0.4947947 0.94443887
-13.862695 -4.1220994 -0.50103277 0.94375849
-13.913359 -3.9475877 -0.50103027 0.94375861
-14.008007 -3.5966601 -0.50102556 0.9437592
-14.05207 -3.4203222 -0.50102335 0.94375938
-14.093867 -3.2434473 -0.50102127 0.94375962
-14.1708 -2.8882227 -0.50101733 0.9437601
-14.205917 -2.7099121 -0.50101554 0.94376034
-14.238828 -2.5311816 -0.50101388 0.9437604
-14.323945 -1.992705 -0.50100935 0.94376105
-14.388789 -1.4513867 -0.50100583 0.94376141
-14.405859 -1.2704589 -0.50100487 0.94376153
-14.443477 -0.72661132 -0.50100255 0.94376159
-14.451484 -0.54503906 -0.50100201 0.94376153
-14.460488 -0.18170898 -0.50100118 0.943762
-13.389785 0.16828124 -0.50104982 0.94781035
-13.386641 0.33652344 -0.50104982 0.94781023
-13.373945 0.67283201 -0.50105 0.94781029
-13.364414 0.84082031 -0.50105029 0.94781035
-13.352812 1.0087012 -0.50105065 0.94781029
-13.339062 1.1763965 -0.50105107 0.94781035
-13.305332 1.51125 -0.50105226 0.94781017
-13.212734 2.1779003 -0.50105578 0.94780964
-13.050117 3.0032909 -0.50106239 0.94780886
-13.011367 3.1670215 -0.501064 0.9478088
-12.927734 3.4930468 -0.50106746 0.9478085
-11.496914 3.576494 -0.45051745 0.9529478
-10.523222 3.5660155 -0.41574457 0.95649934
-10.116094 3.5703905 -0.40140173 0.95796818
-1.7826366 0.68000972 -0.071390077 0.992392
-1.7292968 0.70996094 -0.069946863 0.99254525
-1.6692969 0.70996094 -0.06787464 0.99276525
-1.4607812 0.70996094 -0.060771827 0.99351984
-1.3719921 0.70996094 -0.057801284 0.99383557
-1.1503906 0.70994139 -0.050581817 0.99460357
-1.0882031 0.70997071 -0.048617475 0.99481255
-1.034336 0.7124902 -0.046995543 0.99498516
-1.0341797 0.7513867 -0.047831077 0.99489617
-1.0340625 0.77135742 -0.048271522 0.99484944
-1.0339843 0.79170895 -0.048727836 0.99480081
-1.0339062 0.81243163 -0.049200743 0.9947505
-1.0338281 0.83357418 -0.049690511 0.99469829
-1.0335742 0.87718749 -0.050724525 0.99458838
-1.033496 0.89968747 -0.051270064 0.9945302
-1.0332421 0.94615233 -0.052422065 0.99440777
-7.7548242 7.2822752 -0.39804929 0.9583118
-7.6249218 7.9179101 -0.41130546 0.95695364
-7.5248828 8.0132132 -0.41130996 0.95695317
-7.3213282 8.1999121 -0.41131908 0.95695227
-7.2177734 8.2913771 -0.41132373 0.9569518
-7.1131248 8.3815327 -0.41132843 0.9569512
-7.0073438 8.4703512 -0.41133314 0.95695066
-6.7924023 8.6439648 -0.4113428 0.95694977
-6.68332 8.7287397 -0.41134772 0.95694929
-6.3497849 8.9747267 -0.41136271 0.95694792
-5.474082 9.1248045 -0.39815179 0.95830119
-5.1264648 9.3249998 -0.39816746 0.95829964
-4.8906446 9.4511623 -0.3981781 0.95829844
-4.0856247 8.6823826 -0.35904247 0.9623189
-3.9844921 8.7512207 -0.35978952 0.96224195
-4.1651564 9.7934761 -0.39821094 0.95829523
-4.0417967 9.8451948 -0.39821655 0.95829463
-3.9178514 9.8953419 -0.39822215 0.95829403
-3.5422657 10.036416 -0.3982392 0.95829225
-3.4158983 10.080322 -0.39824492 0.95829153
-3.2890038 10.122568 -0.3982507 0.95829105
-3.0336719 10.202314 -0.39826232 0.95828986
-2.7764256 10.275605 -0.398274 0.95828873
-2.5173829 10.342451 -0.39828581 0.95828748
-2.2567577 10.402763 -0.39829764 0.95828623
-2.1258788 10.430478 -0.39830363 0.95828557
-1.9946874 10.456543 -0.39830962 0.95828485
-1.8631641 10.480908 -0.39831561 0.95828438
-1.7313281 10.503662 -0.3983216 0.95828372
-1.4988672 10.774072 -0.40701941 0.95739257
-1.4691601 11.629667 -0.43860954 0.9541626
-1.3453516 13.3375 -0.50158715 0.94775593
-1.1776953 13.353613 -0.50159478 0.94775492
-1.0097852 13.367529 -0.50160253 0.94775432
-0.84175777 13.379365 -0.50161016 0.94775355
-0.33689451 13.402236 -0.50163323 0.94775105
-0.16845703 13.405576 -0.50164098 0.94775045
0 13.406856 -0.50164866 0.94774961
0.16849609 13.406006 -0.50165635 0.94774878
0.50533199 13.39792 -0.50167179 0.94774735
0.84189451 13.381426 -0.50168723 0.94774568
1.1779296 13.356455 -0.50170267 0.94774413
1.5132421 13.323066 -0.50171798 0.94774246
1.6805859 13.303173 -0.50172573 0.94774181
1.8476562 13.28122 -0.50173336 0.94774097
2.1808593 13.230967 -0.50174868 0.94773954
2.5127733 13.172412 -0.50176394 0.94773787
2.6781249 13.139999 -0.50177151 0.9477371
2.8430858 13.105508 -0.50177914 0.94773632
3.0075781 13.068945 -0.50178671 0.94773561
3.1716406 13.030302 -0.50179428 0.94773483
3.6606641 12.902119 -0.50181675 0.94773245
3.9838672 12.806425 -0.50183171 0.94773096
4.622539 12.590791 -0.50186116 0.9477281
4.780488 12.531923 -0.50186843 0.9477272
4.9376173 12.471025 -0.5018757 0.94772655
5.0940037 12.408164 -0.50188291 0.94772589
5.55832 12.207891 -0.50190443 0.94772363
5.8634958 12.064649 -0.50191849 0.94772238
6.0147071 11.990205 -0.50192547 0.9477216
6.3143163 11.835615 -0.50193936 0.94772011
6.4626169 11.755478 -0.50194627 0.94771951
6.5795898 11.286718 -0.48883799 0.94904929
6.5793357 10.967197 -0.47854382 0.95009518
6.5801368 10.66248 -0.46881798 0.95108408
6.5932226 9.3188477 -0.42713362 0.95533466
6.6564841 8.6937399 -0.40969825 0.95711821
6.6843357 8.5065136 -0.40480149 0.95761973
6.7115231 8.3236227 -0.40008086 0.95810348
6.7950387 8.2138186 -0.39887542 0.95822704
6.9152732 8.148428 -0.39988837 0.95812309
6.9994726 8.0406246 -0.39888304 0.95822614
7.0999804 7.9520798 -0.39888504 0.95822597
7.4907031 7.5854492 -0.39889297 0.95822519
7.5854492 7.4907227 -0.39889503 0.95822513
7.6790233 7.3948631 -0.39889705 0.95822483
7.7714062 7.297822 -0.39889911 0.95822459
7.8625388 7.1996679 -0.39890116 0.95822424
8.1283979 6.8982811 -0.39890742 0.95822382
8.2989063 6.6915817 -0.39889312 0.95822525
8.3821869 6.5866699 -0.39888534 0.95822597
8.4641209 6.4806738 -0.39887756 0.9582268
1.2643945 0.80242187 -0.056032334 0.99402362
1.2644531 0.7803418 -0.055597153 0.99407005
1.2645508 0.75863278 -0.055176999 0.99411464
1.2914063 0.70995116 -0.055140875 0.99411845
1.4152734 0.70996094 -0.059244536 0.99368215
1.4607812 0.70997071 -0.060771942 0.99351984
1.5087109 0.70996094 -0.062389906 0.99334794
1.6127148 0.70996094 -0.065931812 0.9929716
1.7931249 0.70997071 -0.072161295 0.99231005
2.0146289 0.71104491 -0.079939 0.99148476
2.014375 0.65453124 -0.079251781 0.99155772
11.269004 3.5055859 -0.44158733 0.95385867
12.263789 3.313623 -0.47533214 0.95042139
13.152871 2.6807518 -0.50226218 0.94768727
13.216113 2.3493946 -0.50226539 0.94768715
13.244648 2.1831446 -0.50226688 0.94768697
13.271093 2.0165429 -0.50226831 0.94768673
13.317656 1.682412 -0.50227082 0.94768643
13.397167 0.84289062 -0.50227535 0.94768584
13.406699 0.67445314 -0.50227594 0.9476859
13.414102 0.50593752 -0.50227642 0.9476859
13.419414 0.33733398 -0.50227684 0.9476859
13.422617 -0.16867188 -0.50227755 0.94768578
13.419414 -0.3373242 -0.50227761 0.9476859
13.414102 -0.50593752 -0.50227755 0.9476859
13.397187 -0.84286129 -0.50227714 0.94768578
13.317734 -1.682412 -0.50227439 0.94768614
13.295488 -1.8496192 -0.50227356 0.94768637
13.271211 -2.0165625 -0.50227261 0.94768625
13.244765 -2.1831543 -0.50227159 0.94768649
13.216289 -2.3494239 -0.50227046 0.94768649
13.081406 -3.0104492 -0.50226498 0.94768709
13.001562 -3.3382225 -0.5022617 0.94768733
12.817206 -3.9871972 -0.50225395 0.9476881
2.014375 -0.65450191 -0.079251595 0.99155778
2.0146093 -0.71101558 -0.079939157 0.99148488
1.9337499 -0.70994139 -0.077077635 0.99178833
1.8611327 -0.70994139 -0.074532658 0.99205834
1.7293359 -0.70994139 -0.069946557 0.99254513
1.6692969 -0.70994139 -0.067874447 0.99276525
1.6127148 -0.70994139 -0.065931737 0.99297166
1.5592968 -0.70994139 -0.064106867 0.99316543
1.5087304 -0.70993161 -0.062389638 0.99334788
1.4607812 -0.70994139 -0.060771674 0.9935199
1.415293 -0.70993161 -0.059244499 0.99368215
1.3719727 -0.70994139 -0.057801321 0.99383569
1.2914063 -0.70993161 -0.055140801 0.99411851
1.2646484 -0.73721677 -0.054772183 0.99415767
1.2645313 -0.75861329 -0.05517723 0.99411476
1.2643945 -0.80239254 -0.056032218 0.99402368
1.2641015 -0.87072265 -0.057434425 0.99387467
1.2639843 -0.89429688 -0.05793621 0.99382138
1.2637891 -0.94266599 -0.058993947 0.99370891
8.300312 -6.6926951 -0.39896023 0.9582184
8.2155075 -6.7964454 -0.39895645 0.95821857
8.1293554 -6.8990622 -0.39895263 0.95821911
7.9532418 -7.1010251 -0.39894477 0.95821995
7.7721286 -7.2985253 -0.39893669 0.95822072
7.6797266 -7.3955369 -0.39893258 0.95822114
7.5860934 -7.4913573 -0.39892837 0.95822167
7.49125 -7.5860057 -0.39892414 0.95822221
7.3953123 -7.679502 -0.39891985 0.95822233
7.2981248 -7.771699 -0.39891547 0.95822299
7.1003904 -7.9524899 -0.39890665 0.95822376
6.8981247 -8.128232 -0.39889759 0.95822471
6.4807029 -8.464179 -0.39887881 0.95822656
6.2658005 -8.6241302 -0.39886916 0.95822763
6.2808204 -9.3680468 -0.42201903 0.95585757
6.162539 -9.4460936 -0.4220137 0.95585817
5.8019528 -9.6713085 -0.42199743 0.9558596
5.6798434 -9.7433596 -0.42199194 0.9558602
5.5569139 -9.8138275 -0.42198637 0.95586073
4.8497267 -9.0903616 -0.38551596 0.95959747
4.9294138 -10.142685 -0.421958 0.95586365
4.2824802 -10.431445 -0.4219287 0.95586681
4.1510158 -10.484287 -0.42192274 0.95586735
4.018867 -10.535468 -0.42191672 0.95586801
3.6188281 -10.679004 -0.42189857 0.95586979
3.3491991 -10.76625 -0.42188632 0.95587111
3.2135937 -10.807364 -0.42188019 0.95587158
3.0774999 -10.846728 -0.42187396 0.95587224
2.940918 -10.884345 -0.42186779 0.95587301
2.8038671 -10.920312 -0.42186153 0.95587355
2.3901954 -11.017735 -0.42184269 0.95587546
1.973125 -11.099472 -0.42182368 0.95587748
1.833457 -11.123222 -0.4218173 0.95587814
1.4128516 -11.183916 -0.42179811 0.95588011
1.1313477 -11.215566 -0.42178527 0.95588136
0.99029297 -11.22873 -0.42177886 0.95588201
0.70777345 -11.249707 -0.42176592 0.95588338
1.953125e-05 -11.271074 -0.42173353 0.95588672
-0.1416211 -11.270009 -0.42172706 0.95588738
-0.2832422 -11.267207 -0.42172056 0.95588791
-0.42478514 -11.262568 -0.4217141 0.95588863
-0.68121094 -9.0173244 -0.33836535 0.96444988
-0.99007809 -11.226298 -0.4216882 0.95589131
-1.4124218 -11.180488 -0.4216688 0.95589334
-1.6928906 -11.141093 -0.42165592 0.95589477
-1.8327343 -11.118828 -0.42164952 0.95589519
-1.9722656 -11.094727 -0.42164311 0.95589596
-2.1115038 -11.068935 -0.4216367 0.9558965
-2.5270703 -10.980957 -0.42161757 0.95589858
-2.1900001 -8.9973927 -0.34648749 0.96361226
-2.8021483 -10.913632 -0.4216049 0.95589995
-3.3467577 -10.758418 -0.42157981 0.95590252
-3.4816406 -10.715371 -0.42157358 0.95590305
-3.6159375 -10.670606 -0.42156741 0.95590377
-3.7496874 -10.62418 -0.42156124 0.95590436
-3.8828514 -10.576064 -0.4215551 0.95590496
-3.4315038 -8.9956245 -0.36024991 0.96219462
-4.147285 -10.474844 -0.42154285 0.95590621
-4.2785153 -10.421777 -0.42153677 0.95590675
-4.6681056 -10.252695 -0.4215188 0.95590848
-4.7964845 -10.193047 -0.42151281 0.95590925
-5.177031 -10.004609 -0.42149529 0.95591104
-5.3022852 -9.938633 -0.42148939 0.95591158
-4.9311914 -8.9697657 -0.38300171 0.95985579
-6.0353513 -9.5101948 -0.42145541 0.95591521
-6.2722654 -9.3552637 -0.42144439 0.9559164
-6.3892579 -9.2755861 -0.42143896 0.95591694
-6.5052342 -9.1944723 -0.42143357 0.95591742
-6.6201954 -9.1118946 -0.4214282 0.95591789
-6.3644333 -8.5323238 -0.3982909 0.95828694
-6.4710741 -8.451582 -0.3982859 0.95828742
-6.5766993 -8.369482 -0.39828101 0.95828789
-6.6812496 -8.2860737 -0.39827612 0.95828849
-6.7847652 -8.2013283 -0.39827129 0.95828909
-6.988574 -8.0280857 -0.39826179 0.95828986
-1.0333788 -0.92263669 -0.05183544 0.99447018
-1.0335156 -0.8996582 -0.051269911 0.99453026
-1.0335938 -0.87717772 -0.0507246 0.99458838
-1.033711 -0.85514647 -0.05019825 0.99464434
-1.0342578 -0.73174804 -0.047405813 0.99494153
-1.0589062 -0.70994139 -0.047702216 0.99490994
-1.0882031 -0.70995116 -0.048617437 0.99481261
-1.1503906 -0.70993161 -0.050581854 0.99460357
-1.1834375 -0.70994139 -0.051637381 0.99449116
-1.2914063 -0.70994139 -0.055140913 0.99411851
-1.4607812 -0.70993161 -0.060771748 0.9935199
-1.5592773 -0.70994139 -0.064106941 0.99316549
-1.7292968 -0.70994139 -0.069946744 0.99254525
-1.7825781 -0.65443361 -0.071052738 0.99242783
-12.547187 -4.428369 -0.49786451 0.94813329
-12.736328 -4.1382813 -0.50108433 0.94780684
-12.836171 -3.8168554 -0.50107944 0.94780737
-12.883085 -3.6552734 -0.50107712 0.94780749
-12.927929 -3.4930565 -0.50107491 0.94780779
-13.154042 -2.5092676 -0.50106347 0.94780886
-13.184492 -2.3437598 -0.50106192 0.94780904
-13.212812 -2.177871 -0.50106043 0.9478094
-13.26332 -1.8451366 -0.50105774 0.94780958
-13.285429 -1.6783203 -0.50105661 0.9478097
-13.305449 -1.5112402 -0.50105548 0.94780976
-13.323399 -1.3439257 -0.50105447 0.9478097
-13.352851 -1.0086719 -0.5010528 0.94781017
-13.364491 -0.84080076 -0.50105208 0.94781005
-13.373945 -0.67279297 -0.50105149 0.94781029
-13.381328 -0.50466794 -0.50105095 0.94781035
-13.386641 -0.33649415 -0.50105053 0.94781023
-13.389805 -0.16826172 -0.50105023 0.94781029
-12.467519 9.7656248e-06 -0.50109226 0.95131469
-12.466484 0.15667969 -0.50109208 0.95131493
-12.458613 0.46990234 -0.50109214 0.95131487
-12.44291 0.7828418 -0.50109249 0.95131475
-12.432109 0.93914062 -0.50109285 0.95131469
-12.369258 1.5626074 -0.50109506 0.95131451
-12.326133 1.8729589 -0.50109673 0.95131433
-12.246875 2.3362403 -0.50109982 0.95131397
-12.184336 2.6432519 -0.50110239 0.95131385
-12.150234 2.7961719 -0.50110376 0.95131356
-12.114101 2.9486523 -0.50110525 0.95131367
-12.076133 3.1006444 -0.50110686 0.9513135
-12.036289 3.2521484 -0.50110853 0.95131326
-11.950859 3.553623 -0.5011121 0.95131284
-11.496894 3.5765135 -0.48392439 0.95294291
-10.085117 3.559453 -0.42984354 0.95808971
-1.7835547 0.70619136 -0.077098846 0.9923501
-1.6126952 0.70996094 -0.07082054 0.99297094
-1.3719921 0.70996094 -0.062087402 0.99383491
-1.2537891 0.70996094 -0.057910498 0.99424857
-1.2178515 0.70996094 -0.056657597 0.99437261
-1.1834179 0.70994139 -0.055466231 0.99449062
-1.1186719 0.70995116 -0.053252447 0.99471003
-1.0335547 0.73125976 -0.05088703 0.99494439
-1.0334766 0.75087887 -0.051343001 0.99489909
-1.0331836 0.81187499 -0.052812308 0.99475354
-1.0331249 0.83299804 -0.05333782 0.99470133
-1.0329688 0.85456055 -0.053882446 0.9946475
-1.0328516 0.87654293 -0.054446906 0.99459165
-1.0327344 0.89903319 -0.055032156 0.99453366
-1.0325977 0.92199218 -0.055638619 0.99447358
-1.0325 0.94545895 -0.05626747 0.99441123
-7.2199607 6.7799902 -0.39807433 0.96112639
-7.0474606 6.9594431 -0.39808205 0.96112549
-6.9594922 7.0474901 -0.39808598 0.96112531
-6.5035934 7.4709864 -0.39810637 0.96112323
-6.2175779 7.7110348 -0.39811918 0.96112204
-5.8225389 8.0140429 -0.39813697 0.96112043
-5.7214451 8.0866795 -0.39814153 0.96111989
-5.2026954 8.4304686 -0.3981649 0.96111768
-5.096406 8.4952927 -0.3981697 0.96111721
-4.989336 8.5587597 -0.39817455 0.96111673
-4.6633592 8.7410841 -0.39818928 0.96111524
-4.5531836 8.7990723 -0.39819425 0.96111488
-4.1863475 8.6137886 -0.38492665 0.96238589
-4.0856051 8.6823826 -0.38566536 0.96231496
-3.991992 9.0681934 -0.39821967 0.96111238
-3.8777733 9.117754 -0.39822483 0.9611119
-3.6475194 9.2125587 -0.39823526 0.96111095
-3.297832 9.3438377 -0.39825115 0.96110952
-3.1801953 9.384697 -0.39825648 0.96110886
-3.0620701 9.4240332 -0.39826187 0.96110839
-2.464453 9.5983686 -0.39828902 0.96110576
-2.3436718 9.6287012 -0.39829451 0.96110529
-2.2225194 9.6575489 -0.39830002 0.96110469
-2.1010156 9.6848049 -0.39830554 0.96110433
-1.5202148 10.004726 -0.40672359 0.96029866
-1.4661914 11.606054 -0.47017622 0.95424867
-1.4084179 12.40002 -0.50158525 0.95126814
-1.2524999 12.416972 -0.5015924 0.95126724
-0.94011718 12.444863 -0.50160664 0.95126593
-0.62707031 12.464863 -0.50162095 0.9512648
-0.47039062 12.471972 -0.50162816 0.95126396
-0.31367186 12.47709 -0.50163531 0.95126325
-0.15683593 12.480225 -0.50164247 0.95126259
0 12.481397 -0.50164968 0.95126188
0.31369141 12.477822 -0.50166404 0.95126045
0.78378904 12.457656 -0.50168556 0.95125848
0.9402734 12.446973 -0.50169271 0.95125788
1.7200781 12.364286 -0.50172848 0.95125437
1.8753711 12.341855 -0.50173563 0.95125377
2.0303125 12.317529 -0.50174278 0.95125294
2.7999413 12.166553 -0.50177819 0.95124978
3.2566211 12.052871 -0.50179917 0.95124781
3.407871 12.011201 -0.5018062 0.95124704
3.70875 11.922099 -0.50182003 0.95124573
3.8583202 11.874687 -0.50182694 0.95124513
4.0072851 11.825449 -0.5018338 0.95124441
4.1556249 11.774287 -0.50184065 0.95124388
4.4503126 11.666455 -0.50185424 0.95124263
4.5966601 11.609795 -0.50186098 0.95124185
4.7422266 11.55124 -0.50186771 0.95124131
4.8870702 11.490918 -0.50187439 0.9512406
5.1744142 11.364795 -0.50188774 0.95123929
6.0162497 10.943555 -0.50192666 0.95123571
6.4246874 10.709434 -0.50194561 0.95123392
6.558867 10.627997 -0.50195187 0.95123321
6.580039 10.368466 -0.49356195 0.95202857
6.5808201 10.087226 -0.48407194 0.95292878
6.5822263 9.5557318 -0.46636111 0.95461148
6.582871 9.3042088 -0.45808616 0.9553985
6.5868554 9.0660448 -0.45039988 0.95613021
6.6150389 8.8682909 -0.44467074 0.95667601
6.6432028 8.6764059 -0.43920001 0.95719743
6.7235546 8.1273928 -0.42394546 0.95865297
6.8239841 7.8390427 -0.41771919 0.95924753
6.876914 7.7022362 -0.41500285 0.95950723
6.9807224 7.433691 -0.40985885 0.95999885
7.031621 7.3018165 -0.40742743 0.96023136
7.0819139 7.1714745 -0.40508795 0.96045512
7.3197656 6.7026267 -0.39890105 0.96104717
7.4034958 6.6101756 -0.39890498 0.96104681
7.4860153 6.5166893 -0.39890826 0.96104652
7.7258983 6.2295704 -0.3988871 0.9610486
7.8034177 6.131875 -0.39887992 0.96104932
7.8797264 6.0332322 -0.39887264 0.96104997
1.2631445 0.89372069 -0.062190246 0.99382478
1.2632812 0.87018555 -0.061652258 0.99387795
1.2633593 0.84703124 -0.061132964 0.99392945
1.2634375 0.82428712 -0.060631905 0.9939791
1.4607812 0.70997071 -0.065278165 0.99351913
1.6692969 0.70995116 -0.072907679 0.99276447
1.9337499 0.70997071 -0.082793385 0.99178743
11.260899 3.5030663 -0.47399086 0.95388627
12.102812 3.1074803 -0.50221366 0.95120859
12.211484 2.6491504 -0.50221914 0.95120806
12.243867 2.4955175 -0.50222081 0.95120782
12.353926 1.8771777 -0.50222647 0.95120728
12.47121 0.78461915 -0.50223297 0.95120674
12.487012 0.47097656 -0.50223404 0.95120668
12.491992 0.31402344 -0.50223446 0.95120651
12.495 0.15703125 -0.50223476 0.95120633
12.494961 -0.15701172 -0.50223511 0.95120645
12.471289 -0.78460938 -0.5022347 0.95120645
12.447577 -1.0977832 -0.50223392 0.95120668
12.432793 -1.2541015 -0.50223345 0.95120668
12.397305 -1.5661426 -0.50223213 0.95120686
12.353984 -1.8771875 -0.50223047 0.95120704
12.302871 -2.1870508 -0.50222844 0.95120722
12.243945 -2.4955175 -0.50222611 0.95120752
12.211601 -2.6491797 -0.5022248 0.95120758
12.177363 -2.802412 -0.50222337 0.95120752
12.021015 -3.4106641 -0.50221688 0.95120817
11.977187 -3.5614355 -0.50221503 0.95120829
11.931406 -3.7116601 -0.50221306 0.95120859
2.0164843 -0.65520507 -0.085217781 0.99154806
2.0166211 -0.6833691 -0.085579105 0.9915123
2.0167773 -0.7117871 -0.085957982 0.99147487
1.7931249 -0.70994139 -0.077512011 0.99230927
1.5592968 -0.70994139 -0.068860434 0.99316472
1.5087304 -0.70993161 -0.067016102 0.99334717
1.4607812 -0.70994139 -0.065278053 0.99351919
1.415293 -0.70993161 -0.063637733 0.99368143
1.26375 -0.75812501 -0.059230916 0.9941178
1.2636523 -0.7798242 -0.059681397 0.99407321
1.2635742 -0.80186522 -0.060148314 0.99402696
1.2634375 -0.82426757 -0.060631905 0.99397916
1.2633593 -0.84701169 -0.061133269 0.99392951
1.2632617 -0.87015623 -0.061652448 0.99387807
1.2631445 -0.89369136 -0.062190551 0.99382484
1.2630469 -0.91763669 -0.062747836 0.99376965
7.8045702 -6.1327634 -0.3989369 0.96104372
7.7267966 -6.2303028 -0.39893347 0.96104413
7.6478515 -6.3268356 -0.39892998 0.96104443
7.567656 -6.4224024 -0.39892638 0.96104479
7.4862695 -6.5169044 -0.39892277 0.96104521
7.2350974 -6.7942381 -0.3989116 0.9610464
7.0619922 -6.9737792 -0.39890385 0.96104699
6.5162106 -7.4854684 -0.39887938 0.96104932
6.4215622 -7.5666895 -0.39887515 0.96104968
6.1316013 -7.8030562 -0.39886215 0.96105105
5.9334178 -7.9545312 -0.39885321 0.96105188
5.6292381 -8.1722364 -0.39883953 0.96105307
5.3170118 -8.3783007 -0.39882544 0.9610545
5.2112498 -8.4443159 -0.39882073 0.96105504
4.9972849 -8.572422 -0.39881101 0.96105587
4.8891015 -8.6344528 -0.39880615 0.96105635
5.0578122 -9.2001171 -0.42196289 0.9588421
4.7073045 -9.3838472 -0.421947 0.95884359
4.3500586 -9.5542383 -0.42193085 0.9588452
3.9867382 -9.7110157 -0.4219144 0.95884681
3.8643358 -9.7602339 -0.42190883 0.95884728
3.7413476 -9.8078709 -0.42190325 0.95884788
3.6177537 -9.8539648 -0.42189765 0.95884848
3.4935937 -9.8985252 -0.42189202 0.95884895
3.3688867 -9.941494 -0.42188635 0.95884955
3.1179101 -10.022763 -0.42187494 0.95885056
2.6102343 -10.166172 -0.42185187 0.95885295
2.4822655 -10.198056 -0.42184603 0.95885336
2.3538671 -10.2283 -0.42184019 0.95885396
2.2251172 -10.256914 -0.42183432 0.95885456
2.096035 -10.283945 -0.42182845 0.95885503
1.966621 -10.309306 -0.42182255 0.95885569
1.8369141 -10.333096 -0.42181662 0.95885605
1.706875 -10.355195 -0.42181072 0.95885676
1.4460547 -10.39456 -0.42179883 0.95885777
1.1843555 -10.427304 -0.4217869 0.95885897
1.0532227 -10.44124 -0.42178088 0.95885944
0.92191404 -10.453457 -0.42177489 0.95886016
0.68302733 -9.0422268 -0.36445865 0.96434975
0.65892577 -10.473046 -0.42176288 0.95886123
0.39550781 -10.486015 -0.42175081 0.9588623
0.26371095 -10.48999 -0.42174479 0.95886296
0.13185547 -10.492344 -0.42173877 0.9588635
-0.2636914 -10.489385 -0.42172065 0.95886528
-0.65880859 -10.471562 -0.42170253 0.95886695
-0.92173827 -10.451426 -0.42169052 0.95886803
-1.0529687 -10.438818 -0.42168447 0.9588688
-1.184082 -10.424639 -0.42167845 0.95886922
-1.5760547 -10.372149 -0.42166045 0.95887101
-1.70625 -10.351386 -0.42165446 0.95887154
-1.8361523 -10.328975 -0.4216485 0.95887214
-1.9657812 -10.30496 -0.42164251 0.95887268
-2.3526757 -10.223105 -0.42162475 0.9588744
-2.6087694 -10.160449 -0.42161295 0.9588756
-2.7362108 -10.126748 -0.42160708 0.95887607
-2.8631639 -10.091426 -0.4216013 0.95887667
-2.9897265 -10.054492 -0.42159542 0.95887727
-3.8610742 -9.7520113 -0.42155519 0.9588812
-3.9832616 -9.7025976 -0.42154956 0.95888174
-3.8381834 -9.0246677 -0.39416733 0.96150118
-4.3459764 -9.5451756 -0.42153278 0.9588834
-4.4655075 -9.489687 -0.42152724 0.95888394
-3.8338866 -7.6427145 -0.3436949 0.9663499
-4.8198242 -9.3143158 -0.42151085 0.95888531
-4.9364257 -9.2528811 -0.42150542 0.95888591
-5.1672654 -9.1256733 -0.42149475 0.95888692
-4.9915819 -8.5626068 -0.39835376 0.96109957
-5.3105664 -8.3680954 -0.39833894 0.96110094
-5.4152145 -8.3005667 -0.39833412 0.96110153
-5.621953 -8.1616793 -0.39832446 0.96110243
-6.0246677 -7.8685155 -0.39830574 0.96110421
-6.1229687 -7.792109 -0.39830115 0.96110469
-6.3167186 -7.6355953 -0.39829206 0.96110559
-6.4121094 -7.5555563 -0.39828765 0.96110588
-6.5064645 -7.474287 -0.39828327 0.96110636
-6.599824 -7.3918552 -0.39827892 0.96110672
-6.6921091 -7.3082418 -0.3982746 0.96110719
-6.8735156 -7.1376171 -0.39826611 0.96110797
-6.9625778 -7.0506053 -0.39826193 0.96110845
-7.0505662 -6.9624901 -0.39825782 0.96110874
-7.1374021 -6.8732715 -0.39825371 0.96110922
-1.0325 -0.94543946 -0.056267586 0.99441129
-1.0326172 -0.92198241 -0.055638503 0.99447358
-1.0329688 -0.85455078 -0.053882446 0.99464756
-1.0330859 -0.83299804 -0.053337708 0.99470145
-1.0332031 -0.81185544 -0.052812271 0.99475354
-1.0332812 -0.79114258 -0.052305143 0.99480385
-1.0333594 -0.77081054 -0.051815603 0.99485242
-1.0589062 -0.70994139 -0.051239509 0.99490941
-1.1503906 -0.70993161 -0.054332539 0.99460298
-1.2178906 -0.70994139 -0.056657713 0.99437249
-1.253828 -0.70994139 -0.057910383 0.99424845
-1.3719727 -0.70994139 -0.062087286 0.99383497
-1.4152734 -0.70993161 -0.063637882 0.99368155
-1.5087109 -0.70993161 -0.067016482 0.99334723
-1.5592773 -0.70994139 -0.068860583 0.99316478
-1.6127343 -0.70994139 -0.070820771 0.99297082
-1.6692578 -0.70992184 -0.072907634 0.99276465
-1.7835547 -0.70615232 -0.077099189 0.99235016
-1.7834375 -0.65475583 -0.076357916 0.99242342
-11.905507 -3.7035742 -0.50112188 0.95131189
-12.076328 -3.1006639 -0.50111347 0.95131278
-12.114258 -2.9486523 -0.50111157 0.95131308
-12.184472 -2.6432714 -0.50110799 0.95131332
-12.326211 -1.8729491 -0.50110066 0.95131403
-12.388007 -1.4070312 -0.50109738 0.95131421
-12.419414 -1.0952734 -0.50109559 0.95131433
-12.458672 -0.46988282 -0.50109315 0.95131469
-12.463593 -0.31329101 -0.50109273 0.95131469
-12.466562 -0.15665039 -0.50109243 0.95131463
-11.662168 0.14658202 -0.50112897 0.95437807
-11.659413 0.29309571 -0.50112891 0.95437801
-11.640098 0.73233396 -0.50112933 0.95437795
-11.604258 1.1705273 -0.50113052 0.95437783
-11.588633 1.31625 -0.50113106 0.95437783
-11.57125 1.4617969 -0.50113171 0.95437753
-11.551953 1.60708 -0.50113243 0.95437759
-11.530859 1.7521093 -0.50113326 0.95437759
-11.50793 1.8968847 -0.50113416 0.95437759
-11.45666 2.1854882 -0.50113618 0.95437741
-11.42832 2.3292968 -0.50113732 0.95437729
-11.398222 2.4727244 -0.50113857 0.95437706
-11.36625 2.6157422 -0.50113988 0.95437706
-10.988399 3.5703418 -0.49643481 0.95479542
-10.085117 3.559453 -0.45952365 0.958085
-1.7842969 0.65509766 -0.081669614 0.99241883
-1.784375 0.68068355 -0.082057528 0.99238294
-1.7844336 0.70652342 -0.082462311 0.99234551
-1.6692969 0.70996094 -0.077941626 0.99276364
-1.5087109 0.70997071 -0.071643524 0.99334645
-1.4152734 0.70995116 -0.068031766 0.99368078
-1.3719921 0.70996094 -0.066374436 0.9938342
-1.3307421 0.70996094 -0.064805523 0.99397951
-1.2537891 0.70996094 -0.061908986 0.99424791
-1.1834179 0.70995116 -0.059296113 0.99448997
-1.0589062 0.70994139 -0.05477741 0.99490881
-1.0329688 0.71154296 -0.05389427 0.99499071
-1.0328906 0.73078126 -0.054364163 0.99494708
-1.0326757 0.77029294 -0.055355642 0.99485523
-1.0323633 0.83244139 -0.056980666 0.99470448
-1.0322461 0.85397458 -0.057562064 0.9946506
-1.0321094 0.87593746 -0.058164518 0.99459487
-1.0319922 0.89837891 -0.05878948 0.99453694
-1.0317187 0.94476563 -0.060108222 0.99441475
-6.6738672 6.4268551 -0.39809969 0.96358436
-6.4270506 6.6740232 -0.39811072 0.96358341
-6.1711326 6.9117284 -0.39812222 0.96358234
-6.083828 6.9887891 -0.39812613 0.96358204
-5.9955859 7.0647364 -0.39813006 0.96358174
-5.8162694 7.2133493 -0.39813811 0.96358097
-5.7252536 7.2859473 -0.39814219 0.96358049
-5.5404296 7.4276757 -0.3981505 0.96357983
-5.4467187 7.4967871 -0.39815474 0.96357948
-5.2567186 7.6314449 -0.39816329 0.96357876
-5.1604686 7.6970019 -0.39816764 0.96357828
-4.9655466 7.8244238 -0.3981764 0.96357745
-4.8668747 7.8862696 -0.39818087 0.96357715
-4.7674608 7.9469042 -0.39818534 0.96357667
-4.6672263 8.006279 -0.39818987 0.96357638
-4.5663671 8.064394 -0.39819443 0.96357578
-4.4646873 8.1212397 -0.39819902 0.96357542
-4.3623438 8.1767874 -0.39820364 0.96357501
-4.0511913 8.3356638 -0.39821774 0.96357387
-3.6274219 8.5291109 -0.3982369 0.96357208
-3.5199804 8.574131 -0.39824179 0.96357167
-3.4120312 8.6178122 -0.39824668 0.96357113
-3.3034766 8.6600876 -0.39825159 0.96357083
-3.0849023 8.7406054 -0.39826152 0.96356982
-2.6419921 8.8849802 -0.39828166 0.96356815
-1.9653906 9.0594625 -0.39831245 0.96356529
-1.5465624 9.3827639 -0.40858871 0.96264309
-1.5073438 9.9201069 -0.43112946 0.96062332
-1.3174609 11.599306 -0.50159031 0.95433682
-0.87937498 11.641142 -0.50161028 0.95433521
-0.73304683 11.651425 -0.50161701 0.95433462
0 11.675244 -0.50165051 0.95433164
0.14669922 11.674501 -0.50165725 0.95433092
0.29339844 11.671885 -0.50166398 0.95433038
0.73316407 11.652988 -0.50168413 0.9543286
0.87955076 11.643027 -0.5016908 0.95432794
1.0257813 11.631182 -0.50169754 0.95432746
1.4635156 11.584756 -0.50171757 0.95432556
1.6089844 11.565615 -0.50172424 0.9543249
2.043828 11.497197 -0.50174427 0.95432317
2.3321679 11.4425 -0.50175756 0.95432204
2.6190624 11.380586 -0.50177073 0.95432085
3.1877148 11.235214 -0.5017969 0.95431846
3.3286912 11.194414 -0.5018034 0.95431793
3.4691405 11.151865 -0.5018099 0.95431727
3.6090233 11.10748 -0.50181633 0.95431691
3.7483983 11.061397 -0.50182277 0.95431632
3.8871484 11.013555 -0.50182915 0.95431572
4.0252733 10.963994 -0.50183553 0.95431513
4.4358201 10.804873 -0.50185448 0.95431352
4.7060547 10.690273 -0.501867 0.95431238
4.9733591 10.568926 -0.50187933 0.95431113
5.1058202 10.505713 -0.50188547 0.95431066
5.2374997 10.44083 -0.50189155 0.95431018
5.3683591 10.374335 -0.50189763 0.95430958
5.4983592 10.306152 -0.50190365 0.95430911
5.6275001 10.236396 -0.50190967 0.95430851
5.8830857 10.091963 -0.50192147 0.95430756
6.259531 9.8634272 -0.501939 0.95430583
6.581367 9.5545311 -0.4984979 0.95461202
6.5861521 9.0650873 -0.48144698 0.95612985
6.6865039 8.2925873 -0.45770693 0.95824724
6.7570701 7.9620018 -0.44869304 0.95905232
6.8090234 7.8218651 -0.44558394 0.95933044
6.8602734 7.6836133 -0.4425846 0.9595986
6.9108982 7.5471969 -0.4396942 0.95985693
7.2485156 6.6374121 -0.42229521 0.96141452
7.2944531 6.5128417 -0.42016813 0.96160495
7.3491797 6.3975682 -0.4186579 0.96174043
7.4260545 6.302207 -0.4184913 0.96175528
7.5796094 6.1116114 -0.41835439 0.96176749
1.2623242 0.89310545 -0.06643986 0.99382812
1.2624609 0.86958981 -0.065865442 0.99388129
1.262539 0.84649414 -0.065311164 0.99393266
1.262832 0.77934569 -0.063761175 0.99407631
1.2630469 0.7362988 -0.062816426 0.99416375
1.2631445 0.71524411 -0.062368773 0.99420512
1.2914063 0.70996094 -0.063319281 0.99411714
1.3307226 0.70995116 -0.064805716 0.99397957
1.3719921 0.70996094 -0.066374354 0.9938342
1.4152734 0.70996094 -0.06803184 0.99368078
1.5592968 0.70996094 -0.073615149 0.99316388
1.7292968 0.70996094 -0.080321155 0.99254358
1.8611132 0.70996094 -0.085587271 0.99205667
1.9337499 0.70997071 -0.088510014 0.99178648
2.01875 0.6841113 -0.091585346 0.9915024
2.0186133 0.65590817 -0.091197588 0.99153817
11.202578 3.3311424 -0.50217223 0.95428532
11.243632 3.1901171 -0.50217426 0.95428503
11.389921 2.621201 -0.50218153 0.95428425
11.452227 2.3341405 -0.50218469 0.95428413
11.480664 2.1900487 -0.50218618 0.95428407
11.507343 2.045625 -0.50218755 0.95428383
11.555156 1.7558007 -0.50219005 0.95428365
11.576347 1.6104785 -0.50219113 0.95428354
11.595703 1.4648633 -0.5021922 0.95428342
11.628906 1.1730175 -0.50219405 0.95428318
11.642735 1.0268066 -0.50219482 0.95428318
11.654765 0.88041991 -0.50219554 0.954283
11.664883 0.73389649 -0.50219613 0.95428306
11.673203 0.58725584 -0.50219667 0.954283
11.688007 9.7656248e-06 -0.50219798 0.95428282
11.684297 -0.29371092 -0.50219816 0.95428294
11.673203 -0.58723629 -0.50219792 0.954283
11.664922 -0.73388672 -0.50219768 0.95428294
11.654765 -0.88039058 -0.50219738 0.954283
11.642735 -1.0267968 -0.50219703 0.95428318
11.595781 -1.4648925 -0.5021953 0.95428306
11.576445 -1.6104785 -0.50219458 0.95428312
11.555293 -1.7558203 -0.50219381 0.95428312
11.507421 -2.0456347 -0.5021919 0.95428354
11.452324 -2.3341503 -0.5021897 0.95428377
11.422109 -2.4778807 -0.50218844 0.95428365
11.390038 -2.6212206 -0.50218713 0.95428377
11.356153 -2.7641211 -0.50218576 0.95428395
11.320469 -2.9066112 -0.50218427 0.95428419
11.283008 -3.0486231 -0.50218266 0.95428437
11.202773 -3.331162 -0.50217932 0.95428461
2.0187891 -0.68408203 -0.091584966 0.99150229
2.0189061 -0.71253902 -0.091990657 0.99146491
1.9337499 -0.70994139 -0.088509902 0.99178648
1.7292968 -0.70994139 -0.080321006 0.99254364
1.6127148 -0.70994139 -0.075710714 0.99297005
1.5592968 -0.70994139 -0.073615 0.99316394
1.5087304 -0.70993161 -0.071643487 0.99334639
1.415293 -0.70993161 -0.068031654 0.99368072
1.3719727 -0.70994139 -0.066374399 0.99383432
1.2631054 -0.71520507 -0.062368773 0.99420536
1.2627538 -0.80134761 -0.064259604 0.99403012
1.2626367 -0.82372069 -0.064776152 0.99398232
1.2623047 -0.89310545 -0.06643986 0.99382824
1.2621875 -0.91703123 -0.067035064 0.9937731
7.3716016 -5.6441894 -0.39891657 0.96351111
7.3000388 -5.7363181 -0.39891341 0.96351141
7.0784569 -6.007236 -0.39890358 0.9635123
6.9251366 -6.183115 -0.39889675 0.96351296
6.8468747 -6.2695899 -0.39889324 0.96351314
6.7674413 -6.3550782 -0.39888969 0.96351361
6.6869922 -6.4395504 -0.39888611 0.96351391
6.6055079 -6.5229979 -0.39888245 0.96351421
6.5229688 -6.6054688 -0.39887878 0.96351445
6.2691793 -6.846406 -0.3988674 0.96351558
6.0065036 -7.0776172 -0.39885563 0.96351659
5.5499606 -7.4404197 -0.39883512 0.96351844
5.4559765 -7.5095019 -0.39883089 0.9635188
5.3610935 -7.577373 -0.39882663 0.96351928
5.2654295 -7.6440525 -0.39882231 0.96351963
5.1689062 -7.7095408 -0.39881796 0.96351999
4.8744726 -7.8986034 -0.39880469 0.96352124
4.573164 -8.0764551 -0.39879107 0.96352237
4.4712696 -8.133193 -0.39878646 0.96352279
4.161406 -8.2956734 -0.39877251 0.96352392
4.0567966 -8.3471975 -0.39876774 0.9635244
3.8456249 -8.4462986 -0.39875814 0.96352535
3.6320703 -8.5400686 -0.39874852 0.96352619
3.41625 -8.6284571 -0.39873871 0.96352696
3.4996092 -9.17416 -0.42189151 0.96145052
2.6799023 -9.4452925 -0.42185429 0.96145386
2.560957 -9.4780951 -0.42184886 0.96145439
1.9606249 -9.6195507 -0.42182153 0.96145689
1.8395507 -9.643301 -0.42181602 0.96145743
1.7182226 -9.6655464 -0.42181048 0.96145785
1.4747461 -9.7054291 -0.42179939 0.9614588
1.3526562 -9.7230568 -0.42179382 0.96145934
0.68302733 -9.0422268 -0.38962311 0.96434569
0.61636716 -9.7965431 -0.4217602 0.96146232
0.36996093 -9.808691 -0.42174897 0.96146327
-0.36992186 -9.8078899 -0.42171508 0.96146637
-0.61626953 -9.7952337 -0.42170379 0.96146739
-0.862207 -9.7764063 -0.42169249 0.96146834
-0.98498046 -9.7646675 -0.42168686 0.96146888
-1.2300195 -9.7365818 -0.42167562 0.96146983
-1.9597851 -9.615469 -0.42164207 0.96147299
-2.0804491 -9.5899611 -0.42163652 0.96147341
-2.4403124 -9.5043745 -0.42161995 0.9614749
-2.6783202 -9.4398146 -0.42160898 0.96147579
-2.7966602 -9.4052534 -0.42160353 0.96147645
-2.9146092 -9.369277 -0.42159811 0.9614768
-3.0320702 -9.3317671 -0.42159271 0.9614774
-3.6117969 -9.1223927 -0.42156592 0.96147978
-3.5215623 -8.5779591 -0.39842108 0.96355569
-4.0530467 -8.3394232 -0.39839649 0.96355772
-3.8338866 -7.6427145 -0.36739308 0.96634609
-4.869082 -7.8897948 -0.39835864 0.96356112
-4.9677734 -7.8278904 -0.39835405 0.96356153
-5.2590623 -7.6348534 -0.39834052 0.96356279
-5.4491601 -7.5000973 -0.39833167 0.96356362
-5.5428905 -7.4309568 -0.39832732 0.96356404
-5.6357813 -7.3606443 -0.39832297 0.9635644
-5.7277536 -7.2891698 -0.39831871 0.96356475
-5.9982419 -7.0678806 -0.39830607 0.96356589
-6.0865235 -6.9918847 -0.39830199 0.96356624
-6.1738281 -6.9147558 -0.39829788 0.96356666
-6.5955076 -6.5131345 -0.39827815 0.96356839
-6.6767774 -6.4296775 -0.39827433 0.96356875
-6.7569919 -6.3451953 -0.39827061 0.9635691
-1.0321484 -0.87591797 -0.058164634 0.99459475
-1.0322461 -0.85392576 -0.057562064 0.99465072
-1.0323437 -0.83240235 -0.056980666 0.99470466
-1.0325781 -0.79060543 -0.055878181 0.99480677
-1.0329492 -0.71153319 -0.05389427 0.99499077
-1.0589062 -0.70994139 -0.054777563 0.99490881
-1.1504102 -0.70993161 -0.058084067 0.99460232
-1.2178906 -0.70994139 -0.060569685 0.99437189
-1.3719727 -0.70994139 -0.066374093 0.99383432
-1.4607812 -0.70993161 -0.069785498 0.99351847
-1.5592773 -0.70994139 -0.073615223 0.993164
-1.6127343 -0.70994139 -0.075710826 0.99296999
-1.7292968 -0.70994139 -0.080321424 0.99254364
-1.7843554 -0.68064451 -0.082057722 0.99238306
-11.092949 -3.6042967 -0.50115901 0.95437533
-11.137304 -3.4646192 -0.50115681 0.95437551
-11.179941 -3.3243847 -0.50115472 0.95437562
-11.220781 -3.1836329 -0.50115269 0.9543758
-11.332656 -2.7583983 -0.50114709 0.9543764
-11.428437 -2.3292968 -0.50114226 0.95437688
-11.456797 -2.1854882 -0.50114083 0.95437694
-11.48332 -2.0413377 -0.50113946 0.95437706
-11.508046 -1.8968847 -0.50113815 0.95437711
-11.530898 -1.7521093 -0.50113696 0.95437741
-11.588711 -1.3162597 -0.50113386 0.95437753
-11.630019 -0.87852538 -0.50113147 0.95437783
-11.640117 -0.73231441 -0.50113088 0.95437789
-11.648398 -0.58598632 -0.50113034 0.95437789
-11.654804 -0.43958008 -0.50112993 0.95437807
-10.956055 9.7656248e-06 -0.5011614 0.95707834
-10.955235 0.13769531 -0.50116128 0.95707816
-10.952617 0.27534178 -0.50116128 0.95707822
-10.934414 0.68795896 -0.50116169 0.9570784
-10.924961 0.82529294 -0.50116199 0.95707822
-10.900781 1.0995898 -0.50116277 0.95707816
-10.886132 1.2364843 -0.5011633 0.95707804
-10.851641 1.509668 -0.50116456 0.95707798
-10.78707 1.9175977 -0.50116712 0.9570778
-10.762187 2.0530078 -0.50116813 0.95707756
-10.612148 2.7247558 -0.50117427 0.95707715
-10.502011 3.1228223 -0.50117886 0.95707673
-10.461972 3.2545507 -0.50118059 0.95707661
-10.420254 3.385752 -0.50118238 0.95707661
-10.376933 3.5164452 -0.50118417 0.95707643
-10.085117 3.559453 -0.48921123 0.95807993
-1.7851562 0.6554004 -0.08698757 0.9924143
-1.7292968 0.70996094 -0.085510291 0.99254268
-1.6692969 0.70996094 -0.082977027 0.99276274
-1.6126952 0.70996094 -0.080601804 0.99296927
-1.5592773 0.70996094 -0.078370892 0.99316311
-1.5087109 0.70997071 -0.076272048 0.99334562
-1.3719921 0.70996094 -0.07066223 0.99383342
-1.2178515 0.70996094 -0.064482838 0.99437129
-1.1834179 0.70995116 -0.063126832 0.99448931
-1.1504102 0.70995116 -0.061836548 0.99460161
-1.031875 0.7900781 -0.059447136 0.99480963
-1.0317578 0.81076169 -0.060022961 0.9947595
-1.0316406 0.83183593 -0.060619313 0.99470758
-1.0314844 0.85334957 -0.061237447 0.99465388
-1.0309765 0.94407225 -0.063944243 0.99441808
-6.1928515 6.1155176 -0.39812204 0.96574986
-6.1155858 6.1929102 -0.39812553 0.9657495
-5.8779688 6.4191794 -0.39813614 0.96574867
-5.7968946 6.492578 -0.3981398 0.96574843
-5.7148829 6.5649509 -0.39814344 0.96574819
-5.548203 6.7066503 -0.39815092 0.96574748
-5.2044334 6.9772167 -0.39816639 0.96574616
-5.0275388 7.105957 -0.39817435 0.96574545
-4.9379101 7.1686034 -0.3981784 0.96574521
-4.8474998 7.2301855 -0.39818245 0.96574479
-4.7563281 7.2906151 -0.39818656 0.96574438
-4.6643748 7.3498826 -0.39819071 0.96574402
-4.3841796 7.5206637 -0.39820334 0.96574312
-4.2893553 7.5752439 -0.3982076 0.96574277
-4.0009375 7.7317967 -0.39822066 0.96574157
-3.8054686 7.8300877 -0.39822951 0.9657408
-3.6075389 7.9234176 -0.39823845 0.96574008
-3.5077734 7.9681931 -0.39824298 0.96573973
-3.4073827 8.0117579 -0.39824751 0.96573931
-3.1031249 8.1347752 -0.39826134 0.96573812
-2.897754 8.210351 -0.39827064 0.96573746
-2.794414 8.2462397 -0.39827538 0.96573693
-2.6906054 8.2808104 -0.39828005 0.96573651
-2.5863671 8.3140621 -0.39828479 0.96573609
-2.4816992 8.3459768 -0.39828956 0.96573585
-2.3766406 8.3766308 -0.39829433 0.96573532
-2.27125 8.4058981 -0.39829913 0.96573502
-2.1654687 8.4339161 -0.39830393 0.96573448
-1.9528906 8.4858789 -0.39831364 0.96573365
-1.8461328 8.5098438 -0.39831847 0.96573329
-1.6442187 8.6193647 -0.40138465 0.96547425
-1.4817187 10.650898 -0.49189335 0.95785499
-1.3743163 10.878955 -0.50158846 0.95704246
-1.2375195 10.895488 -0.50159466 0.95704198
-0.82601559 10.934814 -0.5016135 0.95704031
-0.55101562 10.952353 -0.50162607 0.95703942
-0.4133203 10.958574 -0.50163239 0.95703882
-0.27558592 10.963027 -0.50163865 0.95703834
0 10.966797 -0.50165123 0.95703715
0.1378125 10.966035 -0.50165761 0.95703673
0.27562499 10.963603 -0.50166386 0.95703614
0.41335937 10.959424 -0.50167024 0.95703554
0.55105466 10.953466 -0.5016765 0.95703518
0.68867189 10.94582 -0.50168282 0.95703459
1.1007422 10.91251 -0.50170171 0.95703298
1.2378125 10.897949 -0.50170803 0.95703244
1.5113281 10.863691 -0.50172055 0.95703137
1.6477538 10.843985 -0.50172681 0.95703077
1.9197656 10.799404 -0.50173932 0.95702982
2.3255467 10.719766 -0.50175798 0.95702827
2.460078 10.689824 -0.50176418 0.95702779
3.2585742 10.474951 -0.50180095 0.95702451
3.3899999 10.43329 -0.50180703 0.95702404
3.5208592 10.389971 -0.50181305 0.95702368
3.910078 10.250254 -0.501831 0.95702219
4.0386329 10.200419 -0.50183696 0.95702171
4.1665626 10.148993 -0.50184286 0.95702112
4.4203711 10.041318 -0.5018546 0.95702022
4.7958593 9.8679199 -0.501872 0.95701873
4.9195313 9.8069916 -0.50187773 0.95701826
5.0424218 9.7445021 -0.50188339 0.95701784
5.1645703 9.6804781 -0.50188905 0.9570173
5.5258985 9.4792767 -0.5019058 0.95701593
5.6446481 9.4091797 -0.50191128 0.95701551
5.8794532 9.2645502 -0.50192219 0.95701456
5.9955077 9.1900587 -0.50192761 0.95701396
6.2246876 9.0366602 -0.50193828 0.95701319
6.5610547 8.7958984 -0.5019539 0.95701188
6.8602734 7.6836033 -0.47117737 0.95959377
7.0101171 7.279531 -0.46228167 0.96034116
7.058867 7.1481347 -0.45953524 0.96057206
7.2017384 6.7628808 -0.45190966 0.96121347
7.2483201 6.6372166 -0.4495647 0.96141094
1.2612109 0.94077146 -0.071972959 0.99371946
1.2613281 0.91642576 -0.071317554 0.99377656
1.261582 0.86900389 -0.07007423 0.99388474
1.2618359 0.82320309 -0.068915896 0.99398541
1.2620312 0.77883786 -0.06783691 0.99407935
1.2621484 0.75718749 -0.067325555 0.99412376
1.2622266 0.73582029 -0.066832349 0.99416679
1.3719921 0.70996094 -0.070662305 0.99383342
1.4152734 0.70996094 -0.072426908 0.99368
1.4607812 0.70997071 -0.074293822 0.99351764
1.5592577 0.70996094 -0.078371011 0.99316317
1.7292968 0.70996094 -0.085510291 0.99254268
1.8611132 0.70996094 -0.091116674 0.99205565
1.9337499 0.70997071 -0.094227865 0.99178547
10.481953 3.2607617 -0.50213933 0.95699644
10.522148 3.1288085 -0.5021413 0.9569962
10.597539 2.8634179 -0.50214505 0.9569959
10.698047 2.4619727 -0.50215 0.95699543
10.78334 2.0570409 -0.50215435 0.95699507
10.808359 1.9213867 -0.50215566 0.95699495
10.891328 1.3759081 -0.50216007 0.95699465
10.922539 1.1017578 -0.5021618 0.95699435
10.977109 0.13795899 -0.50216526 0.9569943
10.978027 -0 -0.5021655 0.95699412
10.977168 -0.13794921 -0.50216562 0.95699412
10.974531 -0.27586913 -0.50216562 0.95699424
10.970234 -0.41374999 -0.50216556 0.95699412
10.935547 -0.96443355 -0.50216454 0.95699424
10.922559 -1.1017773 -0.50216413 0.9569943
10.891425 -1.3758886 -0.50216299 0.9569943
10.808437 -1.9213965 -0.50215977 0.95699465
10.783438 -2.0570507 -0.50215876 0.95699465
10.728262 -2.327373 -0.50215656 0.95699495
10.698164 -2.4620018 -0.5021553 0.95699495
10.666327 -2.596211 -0.50215399 0.95699519
10.597656 -2.8634374 -0.50215113 0.95699543
2.0208983 -0.68481445 -0.097604826 0.99149239
2.0210547 -0.71330076 -0.098037831 0.99145484
1.7931249 -0.70994139 -0.088217355 0.99230748
1.7293359 -0.70994139 -0.08551006 0.99254256
1.6692969 -0.70994139 -0.082976684 0.99276274
1.5087304 -0.70993161 -0.076272011 0.99334562
1.415293 -0.70993161 -0.07242687 0.99367994
1.3719727 -0.70994139 -0.070662268 0.99383354
1.2622266 -0.73580074 -0.066832386 0.99416685
1.2617188 -0.84588867 -0.069484673 0.993936
1.2615625 -0.86900389 -0.07007423 0.9938848
1.2614453 -0.89249998 -0.070684701 0.99383163
1.2612109 -0.94074219 -0.071972847 0.99371952
6.9239254 -5.3013768 -0.39889574 0.96568453
6.8566794 -5.3879294 -0.39889273 0.96568489
6.7883983 -5.4736228 -0.39888972 0.96568507
6.7190232 -5.5584569 -0.39888662 0.96568531
6.5771093 -5.7254491 -0.3988803 0.9656859
6.5046091 -5.8076172 -0.39887708 0.96568608
6.2809372 -6.0484958 -0.3988671 0.96568692
6.2044139 -6.126904 -0.39886367 0.9656871
6.1268358 -6.2043262 -0.39886019 0.96568751
6.0483398 -6.2807617 -0.3988567 0.96568787
5.9688668 -6.3561816 -0.39885315 0.96568829
