# .PCD v0.7 - Point Cloud Data file format
VERSION 0.7
FIELDS x y z intensity
SIZE 4 4 4 4
TYPE F F F F
COUNT 1 1 1 1
WIDTH 1092
HEIGHT 1
VIEWPOINT 0 0 0 1 0 0 0
POINTS 1092
DATA ascii
-7.2350388 -8.9728909 0.39931381 0.95491457
-7.4209762 -8.9704103 0.40332419 0.95447248
-7.610703 -8.9678907 0.40747818 0.95401448
-7.8044529 -8.965312 0.41178718 0.95353985
-8.0023241 -8.962676 0.41624999 0.95304811
-8.1596479 -8.9109278 0.41857964 0.95279205
-8.4114065 -8.9572268 0.42568138 0.9520101
-8.6230469 -8.9544134 0.43066496 0.95146227
-8.8397264 -8.9515228 0.43583465 0.95089424
-9.2819729 -8.2873631 0.43107581 0.95141685
-1.0718359 -0.90961909 0.048701935 0.9943893
-1.0714648 -0.88638669 0.048175771 0.99444979
-1.0711328 -0.86370116 0.04766861 0.99450791
-1.0701953 -0.7982617 0.046253853 0.99467057
-1.0696288 -0.75678712 0.045392495 0.99476945
-1.1503906 -0.70993161 0.046832159 0.99460411
-1.1834375 -0.70995116 0.04780937 0.9944917
-1.2178515 -0.70994139 0.048836134 0.9943738
-1.2537891 -0.70994139 0.049916152 0.99424982
-1.2913867 -0.70994139 0.0510532 0.99411917
-1.3307421 -0.70995116 0.052251622 0.99398142
-1.3719727 -0.70994139 0.053516425 0.99383628
-1.4608008 -0.70995116 0.056266554 0.99352044
-1.7427734 -0.7154687 0.06526535 0.99248815
-1.7433398 -0.66500974 0.064640082 0.99255985
-1.7475781 0.69193357 0.059902228 0.99250609
-1.7473437 0.71734375 0.060197372 0.99246925
-1.6692969 0.70995116 0.05781189 0.99276662
-1.6127343 0.70994139 0.056157224 0.99297291
-1.5087109 0.70996094 0.053140257 0.99334919
-1.4607812 0.70995116 0.05176216 0.99352109
-1.3307421 0.70994139 0.048068464 0.99398202
-1.2914063 0.70994139 0.046965864 0.99411964
-1.0668945 0.7349121 0.041287497 0.9948287
-1.0671484 0.75500977 0.041661147 0.99478209
-1.0674024 0.77551758 0.042048529 0.99473369
-1.0676563 0.79639649 0.042449836 0.99468362
-1.0679492 0.81768554 0.042866133 0.99463159
-1.0682422 0.83942384 0.043297615 0.99457765
-1.0688281 0.88422847 0.044209439 0.99446386
-1.0691601 0.90736324 0.04469078 0.99440372
-3.9810741 11.748047 0.39532417 0.9515698
6.1866794 15.625791 0.53560537 0.93495399
6.543047 15.384609 0.53280729 0.93528247
13.537773 20.191952 0.77476352 0.90729266
13.941563 20.239658 0.78325385 0.90632582
13.808594 18.512188 0.73603874 0.91171592
13.761367 17.973085 0.72142011 0.91339064
13.829784 17.599813 0.71335816 0.914316
14.004824 17.368778 0.71107167 0.91457856
6.157578 6.5571775 0.28667367 0.96464145
6.119277 6.1966696 0.27755004 0.96574724
6.5368357 5.6904101 0.27620599 0.96591038
6.8241405 5.6454391 0.28225914 0.96517628
14.858359 11.083125 0.59076154 0.92850071
1.3054882 0.94851559 0.051428754 0.99356282
1.3051953 0.92345703 0.050954893 0.99362183
1.3048828 0.89884764 0.050498199 0.99367881
1.3035156 0.7819922 0.048445243 0.99393505
1.3032812 0.75974607 0.048077393 0.99398088
1.3030468 0.73783201 0.047722891 0.99402511
1.3027929 0.7162109 0.047381058 0.99406791
1.3307421 0.70995116 0.048068695 0.99398202
1.3719727 0.70995116 0.049231909 0.99383682
1.4607812 0.70996094 0.051762085 0.99352109
1.5592773 0.70996094 0.05460266 0.9931668
1.6127343 0.70994139 0.056157112 0.99297291
1.7292968 0.70996094 0.059576947 0.99254668
1.9602929 0.69188476 0.06625133 0.99171507
12.480586 3.8824999 0.41655785 0.94903588
1.9605469 -0.66436523 0.065972023 0.99174982
1.9602929 -0.69188476 0.066251293 0.99171507
1.960039 -0.71958983 0.066543005 0.99167877
1.8611132 -0.70995116 0.063482933 0.99205995
1.7931249 -0.70995116 0.061462708 0.9923116
1.7293359 -0.70995116 0.059576567 0.99254656
1.6692969 -0.70995116 0.05781189 0.99276662
1.5592577 -0.70995116 0.054602582 0.99316686
1.4607812 -0.70995116 0.051762007 0.99352109
1.4152539 -0.70995116 0.050461233 0.99368346
1.3307421 -0.70993161 0.048068311 0.99398202
1.3030468 -0.73782223 0.047722969 0.99402511
1.3034961 -0.78200191 0.048445359 0.99393505
1.3040429 -0.82756835 0.049222145 0.99383801
1.3051953 -0.92345703 0.050955124 0.99362183
1.3055273 -0.94849604 0.051428642 0.9935627
17.411425 -13.331279 0.69887626 0.91598022
16.304375 -12.811835 0.66084939 0.92036444
15.503964 -12.825976 0.64127606 0.92262977
17.377754 -14.747831 0.72638756 0.91282129
16.669922 -14.511376 0.70441747 0.91534889
15.442266 -14.501249 0.6751259 0.91871631
6.8235154 -9.1478319 0.36371398 0.95535445
5.4791794 -9.1333981 0.33941826 0.95827067
3.8291404 -8.4101362 0.29450461 0.96369344
3.7015233 -8.4084377 0.29279318 0.96390057
3.4505858 -8.405097 0.28956467 0.96429139
3.419961 -8.6378412 0.29607925 0.96350288
-5.979609 -8.6808987 0.33594185 0.95869184
-5.973496 -8.2218065 0.32388467 0.96014452
-5.9705858 -8.0043459 0.31824827 0.96082431
-6.0254102 -7.6679688 0.31079841 0.96172363
-7.2261715 -8.961894 0.36689559 0.95497262
-7.610703 -8.9678907 0.37485602 0.95401859
-7.8044138 -8.965312 0.37881774 0.95354408
-8.1780853 -8.7087593 0.38073906 0.95331389
-8.1751757 -8.4893064 0.37560713 0.95392847
-9.2456636 -8.9034863 0.40908194 0.94992834
-9.287734 -8.7217474 0.40605071 0.95028859
-9.2848244 -8.5019922 0.40121979 0.95086521
-9.2819729 -8.2873631 0.39656502 0.9514212
-1.0691797 -0.90736324 0.044690628 0.99440366
-1.0688672 -0.88420898 0.044209328 0.9944638
-1.0685546 -0.86156249 0.043745231 0.9945218
-1.0682422 -0.83941406 0.043297842 0.99457765
-1.0679492 -0.81768554 0.042866133 0.99463159
-1.0676563 -0.79638672 0.042449873 0.99468362
-1.0671484 -0.75502926 0.041661073 0.99478203
-1.0669141 -0.73488277 0.041287649 0.9948287
-1.0666406 -0.71513671 0.040927276 0.99487382
-1.0882422 -0.70995116 0.041409682 0.99481344
-1.1186913 -0.70994139 0.042226218 0.99471158
-1.1834375 -0.70995116 0.043982085 0.99449217
-1.2178515 -0.70994139 0.044926528 0.99437433
-1.2537891 -0.70994139 0.045920029 0.99425036
-1.3307421 -0.70995116 0.048068579 0.99398202
-1.4152734 -0.70994139 0.050461538 0.9936834
-1.4608008 -0.70995116 0.051761933 0.99352103
-1.5087304 -0.70994139 0.053140488 0.99334913
-1.6692969 -0.70995116 0.057811812 0.99276662
-1.7473242 -0.71734375 0.060197335 0.99246931
-1.7478515 -0.66674805 0.059619255 0.99254131
-1.7521484 0.69374019 0.054833107 0.99248719
-1.751914 0.71923828 0.055103872 0.99245024
-1.6692969 0.70995116 0.05278198 0.99276721
-1.5592968 0.70995116 0.049851876 0.99316728
-1.5087109 0.70996094 0.048516769 0.99334973
-1.3307421 0.70994139 0.043886185 0.99398255
-1.2537891 0.70994139 0.041924551 0.99425083
-1.2178711 0.70996094 0.04101757 0.99437469
-1.1503906 0.70996094 0.03933426 0.994605
-1.1187109 0.70995116 0.038552474 0.99471194
-1.0882422 0.70995116 0.037806928 0.99481392
-1.0642188 0.71351558 0.037280846 0.99488586
-1.0644336 0.73320311 0.037608452 0.9948411
-1.0646679 0.75327146 0.037947845 0.99479461
-1.0649219 0.77369142 0.038299788 0.99474639
-1.0656641 0.83739257 0.039435003 0.99459112
-1.0659375 0.85948241 0.039841652 0.99453557
-1.0662109 0.88206053 0.04026325 0.99447787
-1.0664843 0.90509766 0.04070076 0.99441814
-1.0668163 0.92867184 0.041154288 0.99435598
-10.607695 9.9612598 0.42340812 0.94343185
-10.604394 10.211953 0.42836502 0.9427889
-10.600976 10.468613 0.43350837 0.94212228
-10.597578 10.731572 0.43884766 0.94143057
-10.594023 11.001133 0.44439316 0.94071317
-4.2173829 16.425459 0.49343276 0.93438971
6.3423829 15.448906 0.48592275 0.93535531
13.347441 20.459307 0.71078598 0.9068718
14.326094 20.248426 0.72171825 0.90550923
14.133242 17.084179 0.64515144 0.91509503
14.834531 16.614834 0.648103 0.91472447
6.1585937 6.0816989 0.25184509 0.96595687
6.3467965 5.8117089 0.25039971 0.96614891
6.5450387 5.6975293 0.25248954 0.96587121
6.670742 5.661211 0.25457519 0.96559429
6.8406444 5.6590819 0.25832275 0.96509647
15.872363 12.798232 0.59327012 0.92164791
15.863671 12.14624 0.5813477 0.9231602
14.835351 11.066015 0.53852272 0.92861307
1.3024609 0.94628906 0.046843719 0.99357826
1.3021485 0.9212988 0.046413381 0.9936372
1.3018945 0.89677733 0.045998 0.99369383
1.3011328 0.82571286 0.044838369 0.99385226
1.3003906 0.75808591 0.043798063 0.99399465
1.3002148 0.73622066 0.043475762 0.99403858
1.4152734 0.70995116 0.0460709 0.99368393
1.4607812 0.70996094 0.047258299 0.99352163
1.50875 0.70995116 0.048516843 0.99334961
1.5592773 0.70996094 0.049851913 0.99316734
1.6127343 0.70994139 0.051270943 0.99297351
1.6692969 0.70995116 0.052781675 0.99276721
1.7293359 0.70996094 0.054393385 0.99254715
1.9646484 0.72130859 0.060896605 0.99165994
1.9648438 0.66583008 0.060364608 0.99173248
1.9648438 -0.6658203 0.060364492 0.99173248
1.9647266 -0.69343746 0.060624618 0.99169707
1.7931249 -0.70995116 0.056115188 0.99231219
1.7293359 -0.70995116 0.054392926 0.99254715
1.5592577 -0.70995116 0.049851835 0.99316746
1.4607812 -0.70995116 0.047258452 0.99352169
1.3307421 -0.70993161 0.043886106 0.99398255
1.3004102 -0.75806642 0.043798063 0.99399459
1.300625 -0.78027344 0.044132385 0.99394894
1.3008593 -0.80281246 0.044479065 0.99390149
1.3011328 -0.82571286 0.044838447 0.99385226
1.3013476 -0.84899414 0.045211028 0.99380147
1.3016015 -0.87267578 0.045597535 0.99374866
1.301875 -0.89676756 0.045998231 0.99369389
17.128944 -13.115019 0.62771374 0.91729194
17.121113 -13.805117 0.63994461 0.91575062
16.289961 -14.544434 0.63542289 0.91632015
17.346054 -17.129442 0.70933479 0.90705281
17.340332 -17.559599 0.71806836 0.90596408
3.8291795 -8.4101171 0.26887977 0.96369648
3.4506249 -8.4050779 0.26437309 0.96429437
3.4199998 -8.6378317 0.2703186 0.96350586
-4.2381444 -9.006484 0.28962654 0.96095073
-5.93332 -8.8497162 0.31001547 0.95825946
-5.9764843 -8.4471579 0.30108383 0.95943767
-5.973496 -8.2218065 0.29570487 0.9601478
-5.9705858 -8.0043459 0.29055884 0.96082753
-5.9235153 -7.7364354 0.2835176 0.96175891
-7.2261715 -8.961894 0.33497399 0.95497638
-7.4209762 -8.9704103 0.33874893 0.95448035
-8.0023241 -8.962676 0.34960836 0.95305616
-8.1780853 -8.7087593 0.34761375 0.95331776
-8.8397264 -8.9515228 0.36605704 0.9509027
-9.2848043 -8.5019827 0.36631325 0.95086932
-1.0664843 -0.90508789 0.040700492 0.99441814
-1.0662109 -0.8820312 0.040263288 0.99447793
-1.0659375 -0.85947263 0.039841574 0.99453557
-1.0651562 -0.79450196 0.038664781 0.99469656
-1.0648828 -0.77368164 0.038299751 0.99474657
-1.0646679 -0.75325191 0.037947919 0.99479461
-1.064414 -0.73320311 0.037608452 0.99484116
-1.0642188 -0.71349609 0.037280846 0.99488592
-1.0882422 -0.70995116 0.037806854 0.99481392
-1.2178515 -0.70994139 0.041017454 0.99437481
-1.2913867 -0.70994139 0.042879369 0.99412018
-1.3719727 -0.70994139 0.04494831 0.99383736
-1.4608008 -0.70995116 0.047258452 0.99352157
-1.751914 -0.71922851 0.055103719 0.99245024
-1.7521484 -0.6937207 0.054833144 0.99248725
-1.7524023 -0.66847652 0.054573018 0.99252266
-1.7567382 0.69555664 0.049737968 0.99246818
-1.7565038 0.72113281 0.049984358 0.99243104
-1.6127343 0.70994139 0.046385422 0.99297404
-1.5592968 0.70995116 0.045101736 0.99316782
-1.3719727 0.70994139 0.040665474 0.99383783
-1.3307421 0.70994139 0.039704666 0.99398297
-1.2537891 0.70994139 0.037929799 0.99425125
-1.2178711 0.70996094 0.03710926 0.99437511
-1.0882422 0.70995116 0.034204483 0.99481428
-1.0619726 0.7315039 0.033946723 0.99485338
-1.0621874 0.75149411 0.034252509 0.99480712
-1.0624218 0.77187496 0.034569435 0.99475908
-1.0626172 0.79262692 0.034897842 0.99470949
-1.0628515 0.81378907 0.035238381 0.99465799
-1.0630859 0.83535153 0.035591505 0.99460465
-1.0633203 0.857373 0.035957526 0.99454933
-1.0638281 0.90284181 0.036730919 0.99443245
-1.0641016 0.9263379 0.037139203 0.99437064
-1.064414 0.95034176 0.037562866 0.99430656
-10.618008 9.7228127 0.37899467 0.94401979
-10.611015 11.018857 0.40270948 0.94062513
-10.59039 11.277597 0.40725821 0.93997312
-10.578906 12.152461 0.42413947 0.93756402
-10.570663 12.777763 0.43654931 0.93579698
-10.566406 13.104433 0.44313949 0.93486017
-3.9810741 11.748056 0.32653403 0.95157743
-4.2169919 16.424053 0.44637939 0.93440002
-4.0029101 16.445517 0.44556081 0.93451637
5.9636521 15.633584 0.44047117 0.93523926
6.3611522 15.494668 0.44092306 0.935175
6.5568943 15.417138 0.44102699 0.93516028
13.272344 20.344179 0.63943863 0.90737754
13.941563 20.239668 0.64696693 0.90634012
14.326094 20.248417 0.65295106 0.90551621
13.808613 18.512177 0.60796189 0.91172945
14.004824 17.368778 0.58734399 0.91459173
14.133242 17.084179 0.58367515 0.91510129
14.67457 16.857372 0.58834594 0.91445208
6.1853514 6.5867672 0.23785956 0.96449041
6.1231251 6.3584375 0.23237532 0.96529484
6.2024999 5.972959 0.22667579 0.96613139
6.2779684 5.8954196 0.22670875 0.9661265
6.5532227 5.7046971 0.22871795 0.96583176
15.863671 12.14624 0.5259555 0.92316586
1.2989062 0.89470702 0.041519545 0.99370879
1.2986523 0.87069333 0.041158788 0.99376327
1.2981836 0.82385743 0.040475272 0.99386662
1.2973633 0.73462892 0.039247703 0.99405205
1.2971874 0.71314454 0.038967744 0.99409425
1.3307421 0.70995116 0.039704513 0.99398297
1.4152734 0.70995116 0.041681174 0.99368441
1.50875 0.70995116 0.043893814 0.99335015
1.5592773 0.70996094 0.045101777 0.99316788
1.6692969 0.70995116 0.047752608 0.99276775
1.7931249 0.70996094 0.050768469 0.99231279
1.9666797 0.72204101 0.055151213 0.99165201
1.966875 0.66651368 0.054668769 0.99172461
1.966875 -0.66650391 0.054669037 0.99172461
1.6692969 -0.70995116 0.047752228 0.99276775
1.6127148 -0.70994139 0.046385534 0.9929741
1.5592577 -0.70995116 0.045101624 0.99316794
1.2975585 -0.75641602 0.039537888 0.99400818
1.2977539 -0.77855468 0.039839171 0.99396271
1.2979687 -0.80102539 0.040151596 0.9939155
1.298164 -0.82384765 0.040475197 0.99386668
1.2984375 -0.84707028 0.040810812 0.99381578
1.2986327 -0.87068355 0.041158941 0.99376333
1.2991601 -0.91915035 0.041893616 0.99365228
16.35961 -12.855253 0.54771024 0.92011803
17.112949 -14.523086 0.59085178 0.91410422
16.669922 -14.511376 0.5818578 0.91536194
17.362421 -15.898613 0.61972678 0.91010064
17.334473 -18.000586 0.65785009 0.9048419
6.8235741 -9.1478901 0.30042952 0.95536119
5.4792185 -9.133379 0.28039673 0.95827723
3.7015624 -8.4084177 0.24184631 0.96390629
3.5753906 -8.4067383 0.24048813 0.96410555
3.4506249 -8.4050779 0.23917991 0.96429706
3.4199803 -8.6378222 0.24456069 0.96350867
-4.2381053 -9.006465 0.26202995 0.96095377
-5.93332 -8.8496971 0.28049591 0.95826268
-5.979609 -8.6808786 0.27748832 0.95869839
-6.0254297 -7.6679296 0.25671738 0.96172971
-7.6107421 -8.9678907 0.30963242 0.95402575
-7.8044529 -8.965312 0.31290334 0.95355129
-8.0023241 -8.962676 0.31629744 0.95305967
-8.1780853 -8.7087593 0.31449103 0.95332122
-9.061758 -8.9485741 0.33525535 0.95031708
-9.2456636 -8.9034863 0.33786276 0.94993621
-9.2877541 -8.7217379 0.33539748 0.9502964
-1.064414 -0.95034176 0.037563019 0.99430656
-1.0635937 -0.87987304 0.036337126 0.99449188
-1.063125 -0.8353613 0.035591584 0.99460453
-1.0628515 -0.81378907 0.035238456 0.99465799
-1.0621874 -0.75151366 0.034252431 0.99480706
-1.0619922 -0.73152339 0.03394676 0.99485326
-1.0617969 -0.71186525 0.033651847 0.9948979
-1.1186913 -0.70994139 0.034878731 0.99471241
-1.1503906 -0.70993161 0.035586432 0.99460548
-1.2537891 -0.70994139 0.037929762 0.99425125
-1.3307421 -0.70995116 0.039704628 0.99398297
-1.3719727 -0.70994139 0.040665321 0.99383783
-1.4608008 -0.70995116 0.042755354 0.99352211
-1.6127343 -0.70994139 0.046385724 0.99297404
-1.6692969 -0.70995116 0.047752455 0.99276775
-22.056932 7.7848434 0.55090004 0.91065818
-1.6692969 0.70995116 0.042723998 0.99276829
-1.6127343 0.70994139 0.04150093 0.99297452
-1.5087109 0.70996094 0.039271466 0.99335074
-1.4607812 0.70995116 0.038253248 0.99352258
-1.4152734 0.70994139 0.03729168 0.99368483
-1.3719727 0.70994139 0.036383245 0.99383825
-1.1834375 0.70995116 0.032503244 0.99449348
-1.1503906 0.70996094 0.031838913 0.99460578
-1.0882422 0.70995116 0.030602416 0.99481463
-1.0595703 0.72984374 0.0303022 0.99486536
-1.0601171 0.79075193 0.031149406 0.99472231
-1.0603321 0.81184566 0.031452443 0.99467099
-1.0612304 0.90059566 0.032781333 0.99444646
-10.552734 14.147245 0.4156864 0.93181819
-10.547852 14.51789 0.42264938 0.93071675
-10.537617 15.297969 0.4375093 0.92837012
-10.532227 15.709052 0.44544455 0.92711931
-3.9810741 11.748047 0.29215071 0.9515807
-4.0029688 16.445625 0.39864272 0.9345203
6.19875 15.65626 0.39659393 0.93484586
6.561367 15.427666 0.39485657 0.93512177
5.3292575 9.9891796 0.26665604 0.95571071
5.468945 9.947978 0.26736945 0.95559484
13.198047 20.230293 0.56890416 0.90787745
13.564023 20.231083 0.57367301 0.90714192
13.808594 18.512226 0.54393983 0.91173518
14.133242 17.084188 0.52221352 0.91510683
14.674531 16.857372 0.52639091 0.9144578
6.1993747 6.6016598 0.21329269 0.96441388
6.1366405 6.3724608 0.20836364 0.96522194
6.2089844 5.9792576 0.20301948 0.96609873
6.3601561 5.8239646 0.20311141 0.96608371
6.8738475 5.6865625 0.21011443 0.96493506
15.863671 12.14624 0.47057128 0.92317092
14.835351 11.066006 0.43590605 0.92862308
1.2961328 0.91703123 0.037395209 0.99366742
1.2957031 0.86871094 0.036740914 0.99377781
1.2954687 0.84516597 0.036431197 0.99383026
1.2952734 0.82203126 0.036132012 0.99388069
1.2951171 0.79925781 0.035843734 0.99392927
1.2949219 0.77684569 0.035565492 0.99397624
1.2945703 0.73303711 0.035038717 0.99406523
1.4607812 0.70996094 0.038253248 0.99352258
1.50875 0.70995116 0.039271545 0.99335057
1.5592773 0.70996094 0.040352326 0.99316835
1.6127343 0.70994139 0.041501045 0.99297452
1.7292968 0.70996094 0.044028241 0.99254841
1.7931249 0.70996094 0.045422323 0.99231333
1.9687304 0.72279292 0.049394798 0.99164391
1.9689062 0.66719723 0.04896225 0.99171668
12.47627 3.8811619 0.30773613 0.94906449
1.9688867 -0.66719723 0.048962362 0.99171674
1.8611132 -0.70995116 0.046914864 0.99206173
1.7931249 -0.70995116 0.045422059 0.99231333
1.6692969 -0.70995116 0.042723767 0.99276829
1.5592577 -0.70995116 0.0403524 0.99316841
1.5087304 -0.70993161 0.039271392 0.99335068
1.4607812 -0.70995116 0.03825302 0.99352258
1.3719727 -0.70994139 0.036383018 0.99383825
1.294414 -0.71159178 0.034789313 0.99410731
1.2945312 -0.73302734 0.035038795 0.9940654
1.2949219 -0.77682614 0.035565492 0.99397629
1.295293 -0.82202148 0.036131896 0.99388063
1.2955078 -0.84515625 0.036431082 0.99383014
1.2959374 -0.89265621 0.037061997 0.99372357
1.2963672 -0.94185543 0.037740439 0.99360919
17.148985 -12.791767 0.50388914 0.91796041
16.359589 -12.855253 0.49003533 0.9201234
15.882285 -12.806231 0.48052162 0.92161185
17.112949 -14.523095 0.52863127 0.91410989
16.289961 -14.544453 0.51434267 0.91633183
15.80584 -14.473251 0.504758 0.91782469
17.351641 -16.709532 0.56735665 0.9081158
17.334454 -18.000595 0.5885759 0.90484822
5.4792185 -9.133379 0.25083137 0.95828009
3.8203125 -8.3906546 0.21714035 0.9637841
3.4506249 -8.4050779 0.21399215 0.9642995
-4.2381444 -9.006465 0.23443656 0.96095639
-5.93332 -8.8496771 0.25096831 0.95826554
-5.9764843 -8.4471388 0.24371047 0.95944351
-5.973496 -8.2217865 0.23935676 0.96015352
-5.9705858 -8.0043259 0.23519118 0.96083319
-7.6107225 -8.9678907 0.27702484 0.9540289
-8.1596088 -8.9109278 0.28453797 0.95280701
-8.4114065 -8.9572268 0.28940201 0.95202518
-8.8397655 -8.9515429 0.29630265 0.9509095
-9.0617189 -8.9485741 0.299952 0.95032054
-9.2456636 -8.9034863 0.30231833 0.94993955
-1.0617187 -0.94793946 0.0335223 0.99432135
-1.0612109 -0.90060544 0.032781448 0.99444652
-1.0609765 -0.87771481 0.032430764 0.9945057
-1.0605273 -0.83334959 0.031767007 0.99461794
-1.0599219 -0.7700879 0.030856857 0.99477172
-1.0593749 -0.71024412 0.030039748 0.99490988
-1.1503906 -0.70993161 0.031839028 0.99460584
-1.1834375 -0.70995116 0.032503434 0.99449348
-1.2178515 -0.70994139 0.033201523 0.99437565
-1.2537891 -0.70994139 0.0339357 0.99425167
-1.3307421 -0.70995116 0.035523415 0.99398339
-1.4608008 -0.70995116 0.038252942 0.99352252
-1.5087304 -0.70994139 0.039271697 0.99335068
-1.5592773 -0.70993161 0.040352479 0.99316841
-1.7613281 -0.69736326 0.044617005 0.9924491
-1.7615429 -0.67194337 0.044404678 0.99248487
-1.7617383 -0.64678711 0.044200819 0.9925192
-22.056913 7.7848239 0.48606703 0.91066349
-1.7647656 0.72452146 0.039643362 0.99239659
-1.6127343 0.70994139 0.036617048 0.99297494
-1.4152734 0.70994139 0.032903329 0.99368525
-1.2178711 0.70996094 0.029294318 0.99437588
-1.1834375 0.70995116 0.028678244 0.99449378
-1.1503906 0.70996094 0.028092192 0.99460614
-1.1187109 0.70995116 0.027533721 0.99471301
-1.0571485 0.72816402 0.026675185 0.9948774
-1.0573046 0.74805665 0.026914176 0.99483156
-1.0576367 0.78890622 0.027418898 0.99473494
-1.058164 0.85323238 0.028247451 0.99457633
-1.0585938 0.89836913 0.028852005 0.99446052
-1.058789 0.92169923 0.029171294 0.99439949
-1.0589844 0.94555664 0.029502524 0.99433613
-10.52082 16.578085 0.40802124 0.92445058
-10.508476 17.516689 0.42448944 0.92152476
-10.495117 18.534912 0.44262984 0.91831166
-3.9810741 11.748075 0.25776869 0.9515835
-4.217031 16.42416 0.3523742 0.93440789
-4.0029688 16.445751 0.3517305 0.9345237
5.3251171 9.9814939 0.23509476 0.95574671
13.167539 20.183575 0.50079346 0.90808553
13.564023 20.231104 0.50616163 0.90714729
13.808613 18.512217 0.47992811 0.91174036
13.925371 18.187334 0.47600693 0.91242927
14.004824 17.368778 0.46364936 0.9146024
14.442266 17.017685 0.46382317 0.91457194
14.834551 16.614824 0.4628742 0.91474134
15.080234 16.468731 0.46403572 0.91453493
6.1502733 6.2280564 0.18189369 0.9655866
6.1823435 6.1051559 0.18055786 0.9658348
6.3681641 5.8312793 0.17943466 0.96604383
6.8907809 5.7005372 0.18584403 0.96485245
15.867969 12.468925 0.41937187 0.92243272
14.835351 11.066006 0.3846083 0.92862731
1.2929296 0.89061522 0.032625731 0.99373835
1.2927734 0.86673826 0.032343559 0.99379224
1.2925781 0.84325194 0.032071456 0.99384439
1.2923828 0.82018554 0.0318087 0.9938947
1.2922266 0.79749024 0.031555634 0.9939431
1.2918946 0.75311524 0.031075362 0.99403501
1.4152734 0.70995116 0.03290325 0.99368519
1.4607812 0.70996094 0.033751372 0.993523
1.50875 0.70995116 0.034649964 0.99335098
1.5592773 0.70996094 0.035603486 0.99316877
1.6127343 0.70994139 0.036617164 0.99297494
1.7293359 0.70996094 0.03884697 0.9925487
1.7931249 0.70996094 0.040076714 0.9923138
1.8610938 0.70994139 0.04139366 0.99206233
1.9337499 0.70995116 0.042807389 0.99179226
12.411328 3.8609471 0.2701081 0.9493258
1.7293359 -0.70995116 0.038846891 0.9925487
1.6127148 -0.70994139 0.036616936 0.992975
1.5086914 -0.70995116 0.034649964 0.99335122
1.4607812 -0.70995116 0.033751298 0.993523
1.3719727 -0.70994139 0.032101478 0.99383861
1.3307031 -0.70993161 0.031342924 0.99398392
1.2916211 -0.71007812 0.030629348 0.9941203
1.291914 -0.75311524 0.031075401 0.99403495
1.2920703 -0.77513671 0.031310998 0.99398983
1.2922461 -0.79748046 0.031555519 0.99394304
1.2923828 -0.82018554 0.03180889 0.9938947
1.2925781 -0.84325194 0.032071419 0.99384439
1.2927734 -0.86673826 0.032343443 0.99379224
1.2929296 -0.89061522 0.032625884 0.99373835
1.2933398 -0.93967772 0.033221398 0.99362439
17.148985 -12.791767 0.44458732 0.91796523
16.830702 -12.88668 0.44050208 0.91868794
16.35961 -12.855273 0.43236527 0.92012799
15.882285 -12.80624 0.42396864 0.92161644
15.503984 -12.825986 0.41814071 0.92265135
16.815001 -14.270244 0.45830086 0.91554523
16.669922 -14.511386 0.45931539 0.91537249
16.289961 -14.544453 0.45380935 0.91633672
15.80582 -14.473262 0.44535515 0.91782957
15.442285 -14.501288 0.44021484 0.9187389
17.334454 -18.000595 0.51930952 0.90485376
5.4792185 -9.133379 0.2213362 0.95828259
3.8291795 -8.4101267 0.19203071 0.96370381
3.7015624 -8.4084272 0.19091477 0.96391088
3.5753906 -8.4067478 0.18984146 0.96411008
-4.2381248 -9.006465 0.20684776 0.96095878
-11.226503 -18.713583 0.45349059 0.9163931
-11.212656 -17.668301 0.43485275 0.91968727
-5.93332 -8.8496771 0.22145897 0.95826805
-5.9475584 -7.9734373 0.20671172 0.96098369
-5.9235153 -7.7364354 0.20249221 0.96176672
-7.2350583 -8.9728909 0.23952842 0.95493144
-7.8044333 -8.965312 0.24700806 0.95355725
-8.0023241 -8.962656 0.24968436 0.95306575
-8.1596479 -8.9109278 0.25102377 0.95280975
-8.4114065 -8.9572268 0.25534469 0.95202804
-8.8397264 -8.9515228 0.26143554 0.95091259
-9.2456446 -8.9034863 0.2667453 0.94994259
-9.287715 -8.7217283 0.26476532 0.95030284
-1.0590234 -0.94553709 0.029502334 0.99433607
-1.0583789 -0.87556636 0.02854431 0.99451947
-1.058164 -0.85323238 0.028247451 0.99457633
-1.0579883 -0.83136719 0.027961386 0.99463111
-1.0578125 -0.80991209 0.027685318 0.99468398
-1.0576367 -0.78889644 0.027418975 0.99473494
-1.0571485 -0.72816402 0.026675109 0.9948774
-1.0882422 -0.70995116 0.027001036 0.99481499
-1.1186913 -0.70994139 0.027533608 0.99471307
-1.1834375 -0.70995116 0.028678283 0.99449378
-1.2178515 -0.70994139 0.029294357 0.99437594
-1.2913867 -0.70994139 0.030624274 0.99412143
-1.3307421 -0.70995116 0.031342812 0.99398375
-1.4607812 -0.70995116 0.033751372 0.993523
-1.5087304 -0.70994139 0.034649733 0.9933511
-1.5592773 -0.70993161 0.035603561 0.99316883
-1.6692969 -0.70995116 0.037696227 0.9927687
-1.7647656 -0.72448242 0.03964325 0.99239665
-1.7648046 -0.69872069 0.039443549 0.99243474
-1.7648437 -0.67320311 0.039252091 0.99247134
-22.035469 7.777236 0.42083457 0.91075099
-1.7656835 0.67352539 0.034033507 0.99246818
-1.765625 0.72486329 0.034372825 0.99239331
-1.6692969 0.70995116 0.032668609 0.99276912
-1.4607812 0.70995116 0.029250029 0.99352336
-1.3307421 0.70994139 0.027163008 0.9939841
-1.2537891 0.70994139 0.025948754 0.99425232
-1.1187109 0.70995116 0.023861693 0.99471331
-1.0589062 0.70995116 0.022959746 0.99491262
-1.0547265 0.72653317 0.023064956 0.99488932
-1.0548438 0.74632812 0.023271063 0.99484384
-1.0549999 0.7664941 0.023485068 0.99479657
-1.0551562 0.78705078 0.023706473 0.99474752
-1.0552734 0.80801755 0.023936309 0.99469686
-1.0559765 0.89616209 0.024942512 0.99447447
-1.0563672 0.94313473 0.025503464 0.99435061
-10.614765 9.9679785 0.26223952 0.94340938
-10.604649 10.738779 0.27180374 0.94140738
-10.456016 21.514151 0.4307898 0.90873909
-10.446953 22.200996 0.44187826 0.90650338
-4.2170506 16.424219 0.30538374 0.93441105
5.9751954 15.663925 0.30192345 0.93512934
6.1739063 15.593545 0.30203858 0.93510544
6.4119921 15.618554 0.30405959 0.93468565
6.5702929 15.448671 0.3023352 0.93504363
5.3219919 9.975605 0.20362189 0.95577455
5.4651561 9.9410839 0.20430245 0.95562994
13.941601 20.239706 0.44260931 0.90635633
13.899453 18.153437 0.41175696 0.91258955
13.829784 17.599813 0.40310904 0.91434425
14.004824 17.368778 0.4018164 0.91460675
14.416055 16.986797 0.40123695 0.91472459
14.646132 16.824745 0.4017244 0.91462553
14.834492 16.614843 0.40113059 0.91474587
6.1629491 6.2409081 0.15795921 0.96551871
6.1950388 6.1176658 0.15679748 0.96576774
6.3794532 5.8415818 0.15577918 0.96598655
6.4603515 5.768115 0.1559716 0.96594507
6.7112498 5.6955762 0.15852356 0.96539795
6.9187889 5.7237306 0.16171333 0.96471393
15.872382 12.798232 0.36719573 0.92166746
15.868008 12.468935 0.36344406 0.92243659
1.2901562 0.91282225 0.028462371 0.99369723
1.2900195 0.88858396 0.028210066 0.99375284
1.2898437 0.86478513 0.027966652 0.9938066
1.2892187 0.77342772 0.027075997 0.99400342
1.2889843 0.72985351 0.026676634 0.99409145
1.3719727 0.70995116 0.027820319 0.99383897
1.50875 0.70995116 0.030028762 0.99335134
1.5592773 0.70996094 0.030855179 0.99316913
1.6127343 0.70994139 0.031733513 0.99297529
1.7931249 0.70996094 0.034731865 0.99231422
1.9337499 0.70995116 0.037098311 0.99179268
1.9728906 0.69631833 0.037678182 0.99166489
12.509999 3.7199023 0.23504578 0.94912583
1.8611132 -0.70995116 0.035873223 0.99206269
1.7293359 -0.70995116 0.033665922 0.99254912
1.6127148 -0.70994139 0.031733513 0.99297541
1.5592577 -0.70995116 0.030855332 0.99316925
1.4152539 -0.70995116 0.028514976 0.9936856
1.2891015 -0.75149411 0.026872596 0.99404818
1.2893749 -0.79572266 0.027286759 0.99395674
1.2895312 -0.8183496 0.027505301 0.99390852
1.2898437 -0.86475587 0.027966728 0.99380666
1.29 -0.88857418 0.028210182 0.9937529
1.2901562 -0.9128027 0.028462447 0.99369729
17.148829 -12.79167 0.38529328 0.91797012
15.503964 -12.825976 0.36237639 0.9226554
16.289961 -14.544453 0.39329085 0.91634101
15.856172 -14.519336 0.38719016 0.91758323
15.442285 -14.501288 0.38150206 0.91874307
17.35166 -16.709551 0.43382704 0.90812576
17.340351 -17.559629 0.44444031 0.90598726
17.334454 -18.000614 0.4500553 0.90485853
3.8291404 -8.4101267 0.1664212 0.96370578
3.5753906 -8.4067478 0.16452491 0.96411198
3.4506249 -8.4050875 0.16362831 0.96430349
3.4199803 -8.6378613 0.1673114 0.96351516
-11.258183 -21.102402 0.43074295 0.90874892
-5.9240623 -8.1537495 0.18150826 0.96048117
-5.9235153 -7.736445 0.17546928 0.96176869
-6.0254297 -7.6679392 0.17562827 0.96173662
-7.4209762 -8.9703903 0.20966804 0.95449203
-8.0023241 -8.962656 0.21638733 0.9530682
-8.1596479 -8.9109278 0.21761131 0.95281219
-8.4114065 -8.9572067 0.22129112 0.9520306
-8.6230469 -8.9543943 0.22388214 0.95148307
-8.8397264 -8.9515228 0.22656624 0.95091516
-9.2456245 -8.9034767 0.23114364 0.94994533
-1.0563476 -0.94316405 0.025503464 0.99435055
-1.0561719 -0.91938472 0.025217781 0.99441367
-1.055625 -0.85118163 0.02442112 0.99458963
-1.0554687 -0.82935548 0.024174422 0.99464422
-1.0553125 -0.807998 0.023936195 0.9946968
-1.0551562 -0.78704101 0.02370655 0.99474758
-1.0549804 -0.76650387 0.023484955 0.99479657
-1.0548438 -0.74630857 0.023270989 0.99484384
-1.0547265 -0.72651368 0.023064956 0.99488938
-1.1834375 -0.70995116 0.024853667 0.99449408
-1.2178515 -0.70994139 0.025387572 0.99437624
-1.2537891 -0.70994139 0.025948714 0.99425232
-1.3719727 -0.70994139 0.027820395 0.99383897
-1.4152734 -0.70994139 0.028515052 0.99368554
-1.4608008 -0.70995116 0.029250182 0.9935233
-1.5087304 -0.70994139 0.030028762 0.99335146
-1.6127343 -0.70994139 0.03173355 0.99297529
-1.765664 -0.69906247 0.034199446 0.99243152
-22.883495 7.75458 0.3681784 0.90786642
-21.918242 7.7358594 0.35418668 0.91120797
-1.7665429 0.67385739 0.028810462 0.99246484
-1.7664844 0.69939452 0.028951148 0.9924283
-1.7664844 0.72519529 0.02909771 0.99239004
-1.6692969 0.70995116 0.027641905 0.99276942
-1.5592968 0.70995116 0.026107902 0.99316937
-1.50875 0.70996094 0.025408247 0.99335164
-1.4608203 0.70995116 0.024749374 0.99352348
-1.3307421 0.70994139 0.022983169 0.99398434
-1.2537891 0.70994139 0.021955986 0.99425256
-1.2178711 0.70996094 0.021480903 0.99437642
-1.1834375 0.70995116 0.021029625 0.99449432
-1.1187109 0.70995116 0.020190047 0.99471354
-1.0882422 0.70995116 0.019799575 0.99481547
-1.0524414 0.74460936 0.019645233 0.99485582
-1.0525585 0.7647168 0.019825248 0.99480879
-1.0528125 0.80610347 0.020205421 0.99470949
-1.0532422 0.87129879 0.020829009 0.99454659
-1.0533594 0.89395505 0.021052742 0.99448836
-1.0537109 0.94079101 0.021524772 0.99436492
-10.564492 13.797832 0.26480871 0.93284208
-3.9810936 11.748066 0.18901779 0.95158821
-4.2170701 16.424286 0.25839362 0.93441373
-4.0030079 16.445995 0.25792152 0.93452913
6.1846871 15.620811 0.25600845 0.93499863
6.4190817 15.63581 0.25755608 0.93461883
5.4633594 9.9378119 0.17280982 0.95564622
12.618789 20.447567 0.36613983 0.90835273
12.803633 20.175283 0.36411795 0.90883523
13.941621 20.239706 0.37450194 0.90636039
13.808613 18.512207 0.35192543 0.91174877
14.004805 17.368799 0.33998641 0.91461051
14.133242 17.084179 0.33786446 0.91511995
14.834512 16.614824 0.33941475 0.91474962
14.982265 15.954482 0.33350602 0.91616786
6.175703 6.2537985 0.13393006 0.96545023
6.2077341 6.1301951 0.13294403 0.96570039
6.2392578 6.0083594 0.13199173 0.96594185
6.3147655 5.9299803 0.13200241 0.9659391
6.3907418 5.851953 0.13204208 0.96592885
6.5986915 5.7442479 0.13331406 0.96560663
6.7255273 5.707705 0.13441627 0.96532714
15.867969 12.468925 0.30751884 0.92244017
1.2873437 0.935332 0.024247818 0.99365443
1.2867773 0.83947265 0.023412017 0.99387258
1.2866406 0.8165527 0.023221398 0.99392235
1.2864063 0.77173829 0.022859611 0.99401671
1.2862109 0.72829098 0.022523232 0.99410439
1.3307421 0.70995116 0.022983246 0.99398434
1.3719727 0.70995116 0.02353962 0.9938392
1.6127343 0.70994139 0.0268507 0.99297565
1.6692969 0.70995116 0.027641982 0.99276942
1.7931249 0.70996094 0.029387321 0.99231458
1.8610938 0.70994139 0.030353317 0.99206311
1.9749414 0.69705075 0.031913832 0.99165666
1.9750195 0.66926754 0.03177597 0.99169236
12.402773 3.8583007 0.19792762 0.94936472
12.498183 3.7163866 0.19868995 0.94917494
1.9749999 -0.66925782 0.031776045 0.99169248
1.9749218 -0.69703126 0.031914022 0.99165678
1.8611132 -0.70995116 0.030353354 0.99206305
1.7931249 -0.70995116 0.029387588 0.99231458
1.6692969 -0.70995116 0.027641905 0.99276942
1.6127148 -0.70994139 0.0268507 0.99297571
1.4152539 -0.70995116 0.024127463 0.9936859
1.2913672 -0.70993161 0.022456093 0.99412209
1.2862109 -0.72828126 0.022523193 0.99410444
1.2866796 -0.81654292 0.023221435 0.99392223
1.2867968 -0.83948243 0.023412056 0.99387246
1.2869531 -0.86283201 0.023610115 0.99382073
1.2870312 -0.88655269 0.023815155 0.9937675
1.287207 -0.9107129 0.024027403 0.99371195
1.2873633 -0.93530273 0.024247741 0.99365443
16.830702 -12.88668 0.32301331 0.91869569
16.35961 -12.855273 0.31704658 0.92013568
15.503964 -12.825995 0.30661818 0.9226588
16.815001 -14.270253 0.33606255 0.91555327
15.856152 -14.519326 0.32761359 0.91758692
17.340332 -17.559629 0.37605536 0.90599144
5.4792185 -9.1333981 0.16229644 0.95828658
3.8291795 -8.4101267 0.1408142 0.96370739
3.4199803 -8.6378517 0.14156608 0.96351683
-4.2381248 -9.006465 0.15167823 0.96096259
-11.258144 -21.102383 0.36447823 0.90875304
-5.9333005 -8.8496876 0.1623619 0.95827216
-5.9270115 -8.3772268 0.15637413 0.95977873
-5.9240623 -8.1537495 0.15357979 0.96048295
-5.9211717 -7.9380856 0.15090698 0.96115708
-6.0254102 -7.6679296 0.14860344 0.96173841
-7.2350583 -8.9729004 0.17564163 0.95493579
-7.6107225 -8.9679003 0.1792327 0.95403612
-7.8044333 -8.9653225 0.18112586 0.95356178
-8.1596479 -8.9109278 0.18401633 0.95281434
-8.6230469 -8.9544039 0.18943153 0.95148522
-9.2456446 -8.9034662 0.1955822 0.94994754
-1.0537109 -0.94077146 0.021524696 0.99436498
-1.0533594 -0.89395505 0.021052666 0.99448836
-1.0530859 -0.84911132 0.020613747 0.99460292
-1.0529492 -0.8273828 0.020405617 0.99465722
-1.0528125 -0.8060742 0.020205269 0.99470961
-1.0526953 -0.78521484 0.020011863 0.99476004
-1.0524218 -0.74461913 0.019645156 0.99485588
-1.0589062 -0.70993161 0.019426879 0.99491292
-1.0882422 -0.70995116 0.019799575 0.99481547
-1.1186913 -0.70994139 0.02019001 0.9947136
-1.1503906 -0.70993161 0.020599326 0.99460673
-1.2178515 -0.70994139 0.021481019 0.99437654
-1.2537891 -0.70994139 0.021956023 0.99425256
-1.2913867 -0.70994139 0.022456169 0.99412197
-1.3719727 -0.70994139 0.023539543 0.99383926
-1.4608008 -0.70995116 0.02474945 0.9935236
-1.6127343 -0.70994139 0.026850967 0.99297565
-1.7664844 -0.72520506 0.029097671 0.99239004
-1.7664844 -0.69938475 0.028951071 0.99242836
-1.7665234 -0.64855468 0.028675688 0.99250013
-22.859062 7.7462792 0.30090842 0.90796351
-1.7673827 0.64886719 0.023472328 0.99249679
-1.7673632 0.67418945 0.023582725 0.99246162
-1.7673438 0.69974607 0.023698006 0.99242491
-1.7673047 0.72555661 0.02381813 0.99238676
-1.6127343 0.70994139 0.021968154 0.99297589
-1.4607812 0.70995116 0.020249099 0.9935239
-1.4152734 0.70994139 0.019740181 0.99368608
-1.3719727 0.70994139 0.019259376 0.9938395
-1.3307421 0.70994139 0.018804092 0.99398458
-1.2537891 0.70994139 0.017963523 0.9942528
-1.2178711 0.70996094 0.017574882 0.99437666
-1.1834375 0.70995116 0.017205467 0.99449456
-1.1187109 0.70995116 0.016518706 0.99471372
-1.0882422 0.70995116 0.016199188 0.99481571
-1.0589062 0.70995116 0.015894318 0.9949131
-1.0499219 0.7232129 0.015894432 0.99491298
-1.05 0.74290037 0.016036147 0.99486786
-1.0501171 0.76293945 0.016182594 0.99482101
-1.0505469 0.84707028 0.016824683 0.99461609
-1.0506641 0.86917967 0.017000198 0.99456006
-1.050918 0.91484374 0.017370796 0.99444175
-1.0510547 0.93841797 0.017566528 0.99437934
-10.603984 11.580312 0.19576523 0.93911976
-10.560566 14.535419 0.22397597 0.93064946
-10.515508 17.528477 0.25484055 0.92148453
-3.9810545 11.748066 0.15464722 0.95159006
-4.2170701 16.424345 0.21140915 0.93441594
-4.003047 16.446083 0.21102516 0.93453121
5.9829688 15.684248 0.20928253 0.93505323
6.214922 15.69708 0.2104792 0.93469423
5.315742 9.9638577 0.14079536 0.95582908
5.4615622 9.9345503 0.14133933 0.95566207
12.828437 20.214325 0.29848173 0.90867043
13.564023 20.231113 0.30366898 0.90715951
13.941621 20.239706 0.30640364 0.90636384
14.326113 20.248447 0.30923706 0.90554017
14.133242 17.084188 0.27643019 0.91512305
14.67457 16.857382 0.27864012 0.91447401
14.987773 16.367744 0.27668968 0.91504729
14.982265 15.954512 0.272865 0.91617084
6.2197266 6.4587402 0.11178906 0.96476638
6.2519531 6.0206246 0.10821117 0.96587491
6.4874997 5.7923341 0.10842689 0.96580732
6.9755077 5.7706347 0.11286655 0.96443284
15.119941 12.191524 0.24214683 0.92524445
15.115742 11.877831 0.23967345 0.92598003
15.111679 11.570458 0.23728469 0.92669004
1.284375 0.93315428 0.01979267 0.99366933
1.2841406 0.88455075 0.019440079 0.99378169
1.2840234 0.86088866 0.019273262 0.99383497
1.2834375 0.7267285 0.018388024 0.99411732
1.2914063 0.70996094 0.018372955 0.99412209
1.3719727 0.70995116 0.019259224 0.99383944
1.4152734 0.70995116 0.019740105 0.99368608
1.4607812 0.70996094 0.020248946 0.9935239
1.5592773 0.70996094 0.021360092 0.99316972
1.6127343 0.70994139 0.021968117 0.99297589
1.6692969 0.70995116 0.022615509 0.99276972
1.8610938 0.70994139 0.024833908 0.9920634
1.9337499 0.70995116 0.025681686 0.99179339
12.43455 3.6974511 0.16173348 0.94942898
21.660702 -5.5615039 0.27880821 0.91442478
1.9770117 -0.66997069 0.026024818 0.99168432
1.9769921 -0.69776368 0.026137771 0.99164838
1.8611132 -0.70995116 0.024833946 0.99206334
1.6692969 -0.70995116 0.022615433 0.99276972
1.5592577 -0.70995116 0.021360168 0.99316978
1.5086914 -0.70995116 0.020787964 0.99335212
1.3719727 -0.70994139 0.019258995 0.9938395
1.2913672 -0.70993161 0.018372765 0.99412233
1.2834179 -0.72671872 0.018388061 0.99411738
1.2838086 -0.81473631 0.01895668 0.99393594
1.2839258 -0.83759761 0.019112129 0.99388635
1.2840234 -0.86088866 0.019273186 0.99383497
1.2841015 -0.88454098 0.019440383 0.99378186
16.35961 -12.855253 0.25939614 0.92013866
16.815001 -14.270234 0.27495131 0.91555643
16.669922 -14.511386 0.27555954 0.91538364
16.289999 -14.544473 0.27226332 0.91634762
6.8236132 -9.1478901 0.14228408 0.95537281
3.8291404 -8.4101267 0.11520714 0.96370882
3.7015624 -8.4084272 0.11453872 0.96391577
3.5753906 -8.4067478 0.11389484 0.96411496
3.4199803 -8.6378613 0.11582565 0.9635182
-11.248984 -19.866308 0.28462821 0.91271901
-5.929492 -7.9492188 0.12363773 0.96110511
-6.0254102 -7.6679296 0.12158088 0.96173984
-7.2350583 -8.9729004 0.14370407 0.95493752
-7.2847457 -8.8057518 0.14248154 0.95531207
-7.2277536 -8.5166502 0.13926239 0.9562993
-7.4205856 -8.524394 0.14090255 0.95579612
-7.8208203 -8.5409079 0.14437835 0.95473033
-8.0287304 -8.5497065 0.14622146 0.95416594
-8.2737885 -8.5917578 0.14870879 0.95340532
-8.6870308 -8.5785446 0.15221107 0.95233428
-9.1988478 -8.6382618 0.15732338 0.95077312
-1.0510547 -0.9384082 0.017566489 0.99437934
-1.050918 -0.91483396 0.017370833 0.99444181
-1.0507812 -0.89175779 0.017182082 0.99450201
-1.0506641 -0.86917967 0.017000236 0.99456006
-1.0505469 -0.84708005 0.016824875 0.99461609
-1.0502343 -0.78335935 0.016334686 0.99477249
-1.0501171 -0.76294923 0.01618267 0.99482101
-1.0589062 -0.70993161 0.015894165 0.9949131
-1.0882422 -0.70995116 0.016199265 0.99481571
-1.2178515 -0.70994139 0.017574845 0.99437672
-1.2913867 -0.70994139 0.018372536 0.99412221
-1.3307421 -0.70995116 0.018804055 0.99398458
-1.3719727 -0.70994139 0.019258995 0.9938395
-1.4152734 -0.70994139 0.019740105 0.99368608
-1.5592773 -0.70993161 0.021360092 0.99316978
-1.6127343 -0.70994139 0.021968307 0.99297589
-1.7673047 -0.72554684 0.02381794 0.99238676
-1.7673047 -0.69974607 0.023697777 0.99242508
-1.7673827 -0.6741699 0.02358284 0.99246156
-1.7673438 -0.64885741 0.023472175 0.99249697
-22.859062 7.7462988 0.23403679 0.90796614
-21.918282 7.7358789 0.22537887 0.91121364
-1.7682226 0.64916992 0.018264694 0.99249345
-1.768164 0.72590816 0.018533859 0.9923833
-1.6692969 0.70995116 0.017589416 0.99276996
-1.6127343 0.70994139 0.017085953 0.99297613
-1.5592968 0.70995116 0.01661312 0.99316984
-1.4608203 0.70995116 0.015748825 0.99352396
-1.4152734 0.70994139 0.01535305 0.99368632
-1.3307421 0.70994139 0.014625015 0.99398476
-1.2914063 0.70994139 0.014289474 0.99412233
-1.2537891 0.70994139 0.013971519 0.99425298
-1.2178711 0.70996094 0.013669167 0.99437678
-1.1503906 0.70996094 0.013108368 0.99460703
-1.1187109 0.70995116 0.012847519 0.9947139
-1.0882422 0.70995116 0.01259903 0.99481583
-1.0589062 0.70995116 0.012361831 0.99491322
-1.0475585 0.7215625 0.012334061 0.9949246
-1.0476172 0.74122071 0.012443695 0.9948796
-1.0476953 0.76119137 0.012557258 0.99483305
-1.0478516 0.80229491 0.012796859 0.99473476
-1.0479492 0.823457 0.012923279 0.99468285
-1.048125 0.86707032 0.013190117 0.99457335
-1.0483203 0.91256833 0.013476944 0.99445564
-1.0484179 0.93606442 0.013628349 0.99439359
-6.2409763 8.3668652 0.1012133 0.95910531
-6.1324997 8.4406538 0.10116653 0.95912403
-5.9157224 8.5881643 0.10111996 0.95914239
-10.529219 16.591347 0.19054542 0.9244048
-10.489414 19.661446 0.21610206 0.91471541
-3.9810936 11.748075 0.12027969 0.95159143
6.43332 15.67041 0.16425559 0.93448329
6.5837498 15.480292 0.16311722 0.93492234
12.828379 20.214296 0.23214874 0.90867329
13.193027 20.222626 0.23413162 0.90793091
13.564023 20.231142 0.23618256 0.90716213
13.941601 20.239727 0.23831084 0.90636653
14.326113 20.248486 0.24051231 0.90554285
13.808633 18.512197 0.22394134 0.91175461
14.004844 17.368799 0.21634124 0.91461605
14.133242 17.084179 0.21499419 0.91512555
6.2332811 6.1554394 0.084945254 0.96556395
6.2647653 6.0329199 0.084334217 0.96580732
6.3372264 5.9510641 0.084296107 0.9658224
7.0042186 5.7943845 0.088143803 0.9642902
15.160878 11.608134 0.18514878 0.92646247
14.736718 10.992402 0.1782701 0.92909622
1.2814062 0.93100584 0.015358581 0.99368411
1.2813281 0.90656251 0.015219497 0.99374098
1.2812109 0.88254881 0.015085754 0.99379599
1.2807422 0.74662107 0.014374961 0.99408734
1.2806641 0.72517574 0.014270821 0.99413013
1.2914063 0.70996094 0.014289627 0.99412227
1.3307421 0.70995116 0.014625015 0.99398476
1.3719727 0.70995116 0.014978981 0.99383962
1.50875 0.70995116 0.016168136 0.99335212
1.6692969 0.70995116 0.017589493 0.99276996
1.979082 0.67066407 0.020262146 0.99167591
12.424863 3.6945801 0.12569134 0.94946885
1.9790624 -0.6706543 0.020262297 0.99167603
1.9337305 -0.70994139 0.019974517 0.99179375
1.6692969 -0.70995116 0.017589416 0.99276996
1.5592577 -0.70995116 0.016613007 0.99317002
1.5086914 -0.70995116 0.016168136 0.99335235
1.4607812 -0.70995116 0.015748825 0.99352407
1.3307031 -0.70993161 0.014624862 0.99398494
1.2913672 -0.70993161 0.014289741 0.99412251
1.2807031 -0.72516602 0.014270553 0.99413002
1.2807813 -0.74662107 0.014374999 0.99408722
1.2812109 -0.88253903 0.015085716 0.99379599
1.2813867 -0.93100584 0.015358199 0.99368417
16.699432 -12.786152 0.20394118 0.9193089
15.856152 -14.519316 0.20847206 0.91759241
15.442285 -14.501308 0.20541106 0.91875196
17.351679 -16.709551 0.23358428 0.90813577
17.346094 -17.129433 0.23638603 0.90708596
3.8291404 -8.4101267 0.0896051 0.96370989
3.5753906 -8.4067478 0.088583946 0.96411604
3.4199803 -8.6378613 0.09008339 0.96351928
-4.2381248 -9.006465 0.096518211 0.96096522
-11.258124 -21.102421 0.23188293 0.90875894
-6.0118356 -8.9668064 0.1046825 0.95773458
-11.17707 -14.984277 0.18126762 0.92794907
-5.9235153 -7.7364354 0.094485857 0.96177304
-7.34832 -8.4413471 0.10852043 0.95621842
-7.5355468 -8.4399214 0.10971077 0.95574903
-7.9228907 -8.4369917 0.11222797 0.95475763
-8.3286915 -8.4339743 0.11493576 0.95369142
-8.5391016 -8.4324512 0.11636703 0.95312804
-1.0482227 -0.88956052 0.013330917 0.9945156
-1.048125 -0.86708003 0.013190193 0.99457335
-1.0480078 -0.84504879 0.013054084 0.99462914
-1.0476953 -0.76119137 0.01255722 0.99483305
-1.0476172 -0.74121094 0.012443809 0.99487966
-1.0589062 -0.70993161 0.012361907 0.99491328
-1.0882422 -0.70995116 0.012599181 0.99481583
-1.4608008 -0.70995116 0.015748825 0.99352401
-1.5087304 -0.70994139 0.01616806 0.99335223
-1.5592773 -0.70993161 0.016613083 0.99316996
-1.6692969 -0.70995116 0.017589493 0.99276996
-1.768164 -0.72588867 0.01853363 0.99238336
-1.7682031 -0.70005858 0.01844017 0.99242151
-1.7682226 -0.6491797 0.018264655 0.99249345
-22.859043 7.7462988 0.16716529 0.90796822
-1.7690234 0.67482418 0.013113555 0.99245495
-1.7690234 0.70041013 0.013177643 0.99241817
-1.769043 0.72624999 0.013244591 0.99237972
-1.6692969 0.70995116 0.012563782 0.99277008
-1.6127343 0.70994139 0.012204285 0.99297631
-1.5592968 0.70995116 0.011866264 0.99317002
-1.4608203 0.70995116 0.011248931 0.99352407
-1.4152734 0.70994139 0.010966377 0.99368644
-1.3307421 0.70994139 0.010446243 0.99398494
-1.1834375 0.70995116 0.0095582195 0.99449486
-1.1187109 0.70995116 0.0091767116 0.99471402
-1.0882422 0.70995116 0.0089992518 0.99481595
-1.0589062 0.70995116 0.0088298796 0.99491334
-1.0454491 0.72011715 0.0087923044 0.99493492
-1.0454882 0.80050778 0.0091199111 0.99474669
-1.0456445 0.88741207 0.0094987107 0.99452907
-10.569062 13.450205 0.11847221 0.9338631
-6.0190234 8.507226 0.072176054 0.95917106
-5.9107614 8.5809174 0.072167128 0.95917702
-10.508965 18.027225 0.14451194 0.91991979
-6.1272655 13.021191 0.099670522 0.94406098
-5.823359 13.228271 0.1001033 0.94382483
-4.2170701 16.424452 0.11744636 0.93441892
-4.0030856 16.446318 0.11723194 0.93453372
6.2230077 15.717558 0.1170808 0.93461531
6.5882421 15.490859 0.11659065 0.93488085
13.564023 20.231142 0.16870041 0.90716416
14.326113 20.248486 0.17179343 0.90554494
13.808633 18.512197 0.15995674 0.91175652
13.92539 18.187353 0.15864944 0.91244525
14.004844 17.368799 0.15452857 0.91461796
14.133242 17.084179 0.15356475 0.91512746
14.67457 16.857372 0.15479484 0.91447842
14.834531 16.614853 0.15425391 0.91475695
14.987773 16.367754 0.15370917 0.91505164
14.982265 15.954512 0.15158409 0.91617513
6.2461133 6.1681247 0.06079895 0.96549505
6.424902 5.8832226 0.060335808 0.96575302
6.7820897 5.7556834 0.061607245 0.9650439
15.173457 12.552578 0.13639045 0.92425013
15.169179 12.23124 0.13496055 0.9250142
15.160898 11.608144 0.13224739 0.92646408
1.2785156 0.95369136 0.011047401 0.99364001
1.2784375 0.92884761 0.010945053 0.99369884
1.2782812 0.85703123 0.010658989 0.99386281
1.2782031 0.83391601 0.010570144 0.99391371
1.2781249 0.81114256 0.010484772 0.993963
1.2780859 0.78875977 0.010401992 0.99401033
1.2780273 0.76671875 0.010322647 0.99405611
1.2779882 0.74500972 0.010245666 0.99410015
1.2779492 0.72362304 0.010171547 0.99414271
1.3307421 0.70995116 0.01044609 0.99398488
1.4607812 0.70996094 0.011248931 0.99352425
1.50875 0.70995116 0.01154869 0.99335229
1.5592773 0.70996094 0.011866455 0.99317008
1.6127343 0.70994139 0.012204247 0.99297631
1.6692969 0.70995116 0.012563705 0.99277008
1.7292968 0.70996094 0.012947387 0.99255025
1.7931249 0.70996094 0.013356972 0.99231523
1.8610938 0.70994139 0.013796157 0.99206382
1.9810938 0.69921875 0.014550666 0.99163157
1.9811132 0.6713379 0.014487762 0.99166763
12.415175 3.6917088 0.089708783 0.94950837
1.9810938 -0.6713379 0.014487953 0.99166769
1.9811132 -0.6991992 0.014550399 0.99163151
1.9337305 -0.70994139 0.01426712 0.99179393
1.7931249 -0.70995116 0.013357162 0.99231529
1.6692969 -0.70995116 0.012563782 0.99277008
1.5086914 -0.70995116 0.011548309 0.99335247
1.4607812 -0.70995116 0.01124916 0.99352425
1.4152539 -0.70995116 0.010966225 0.9936865
1.2913672 -0.70993161 0.010206718 0.99412262
1.2779688 -0.7450195 0.010245666 0.99410021
1.2780468 -0.76670897 0.010322494 0.99405605
1.2783203 -0.88054687 0.010750961 0.99381012
1.2784765 -0.92884761 0.010944633 0.99369872
1.2785351 -0.95368165 0.011047172 0.99364001
16.699432 -12.786161 0.14567108 0.91931069
16.532812 -14.030762 0.15018539 0.9169172
16.289999 -14.544473 0.15124969 0.91635191
15.856172 -14.519355 0.14890534 0.91759408
15.442305 -14.501288 0.14671883 0.9187538
17.351679 -16.70956 0.16684249 0.9081378
17.340351 -17.559629 0.17092125 0.90599966
17.334492 -18.000624 0.17307968 0.90487093
