# .PCD v0.7 - Point Cloud Data file format
VERSION 0.7
FIELDS x y z intensity
SIZE 4 4 4 4
TYPE F F F F
COUNT 1 1 1 1
WIDTH 1085
HEIGHT 1
VIEWPOINT 0 0 0 1 0 0 0
POINTS 1085
DATA ascii
1.9337499 0.70996094 -0.15724164 0.99177027
6.2899609 1.9567089 -0.5028218 0.97392035
6.3141012 1.8775293 -0.50282651 0.97392011
6.3372655 1.7980664 -0.5028311 0.97391981
6.3593946 1.7182909 -0.50283539 0.97391969
6.4549804 1.3156347 -0.50285429 0.97391874
6.4710546 1.2344433 -0.50285745 0.9739185
6.4860935 1.1530371 -0.50286043 0.97391838
6.5000782 1.0714356 -0.50286317 0.97391832
6.5130858 0.9896875 -0.50286579 0.97391808
6.5359373 0.82569337 -0.50287038 0.97391796
6.5458593 0.74351561 -0.50287235 0.97391772
6.5546875 0.66120118 -0.50287414 0.97391772
6.5692577 0.49626952 -0.50287712 0.9739176
6.5749998 0.4136914 -0.50287831 0.97391754
6.5797067 0.33103514 -0.50287926 0.97391742
6.5875192 -0.082753904 -0.50288123 0.97391737
6.5833592 -0.24827148 -0.50288063 0.97391737
6.5797067 -0.3309961 -0.50288004 0.97391742
6.5750389 -0.41364256 -0.50287914 0.97391737
6.5692968 -0.49624023 -0.50287819 0.97391748
6.5546875 -0.66117185 -0.50287557 0.97391772
6.535996 -0.82566404 -0.50287211 0.97391778
6.5001168 -1.0713965 -0.50286549 0.9739182
6.4710741 -1.2344043 -0.50286007 0.97391844
6.4198437 -1.4773926 -0.50285047 0.97391891
6.4007225 -1.5579394 -0.50284684 0.97391909
6.3805857 -1.6382324 -0.50284308 0.97391933
6.3141403 -1.8774999 -0.50283056 0.97391999
2.0235937 -0.65749019 -0.16241489 0.99150068
2.0235937 -0.68573242 -0.16309316 0.99146527
2.0235937 -0.71418941 -0.16380279 0.99142826
1.4608203 -0.70992184 -0.12397732 0.99350554
1.4153124 -0.70991212 -0.12086181 0.9936682
1.3719921 -0.70993161 -0.1179171 0.99382204
1.2914453 -0.70992184 -0.11248966 0.99410546
1.2533789 -0.75187498 -0.11156563 0.99415374
1.2526562 -0.83980465 -0.11511825 0.99396825
1.252461 -0.8626855 -0.11608768 0.99391758
1.2522851 -0.885957 -0.11709194 0.99386507
1.2518359 -0.93372071 -0.11920982 0.99375457
5.125742 -4.1329393 -0.50260431 0.97393155
5.0732813 -4.1969528 -0.50259429 0.97393209
5.0200391 -4.2602634 -0.5025841 0.97393268
4.911211 -4.384912 -0.5025633 0.97393364
4.7992578 -4.5067382 -0.5025419 0.97393477
4.5337305 -4.7079196 -0.49890974 0.97412074
4.1995311 -4.7034669 -0.4813126 0.97502208
4.0932422 -4.7020602 -0.47586557 0.97530121
3.6906641 -4.6967187 -0.45595774 0.97632217
3.5015233 -4.6941991 -0.44702739 0.97678047
3.3195312 -4.6917968 -0.43871215 0.97720742
3.2310545 -4.6906052 -0.434771 0.97740984
3.0586717 -4.6883006 -0.42729738 0.97779381
2.9746485 -4.6871872 -0.42375463 0.97797585
2.8112695 -4.6860547 -0.41713136 0.97831637
2.7323046 -4.6869726 -0.414123 0.97847104
2.654453 -4.6878223 -0.41121754 0.97862041
2.5775781 -4.6885056 -0.40840563 0.97876513
2.5016992 -4.6891112 -0.4056882 0.97890496
2.4267969 -4.6896777 -0.40306771 0.97903979
2.2253907 -4.7290916 -0.3989571 0.97925133
2.1657422 -4.7565622 -0.3989456 0.9792518
2.1057031 -4.7832618 -0.39893413 0.97925246
1.800957 -4.9053221 -0.39887562 0.97925544
1.6146483 -4.9692578 -0.39883983 0.97925735
1.5520312 -4.9890232 -0.39882782 0.97925788
1.3627734 -5.0434961 -0.39879146 0.97925985
1.2992578 -5.0600681 -0.39877924 0.97926044
1.2355077 -5.0758395 -0.39876699 0.9792611
1.1716015 -5.0908008 -0.39875472 0.97926176
1.1075 -5.1049609 -0.39874241 0.97926241
0.97878903 -5.1308789 -0.39871764 0.9792636
0.91421872 -5.1426072 -0.39870524 0.97926426
0.84949219 -5.1535254 -0.39869282 0.97926491
0.78464842 -5.1636229 -0.39868033 0.97926563
0.71968746 -5.1729198 -0.39866787 0.97926623
0.45876953 -5.2018943 -0.39861768 0.97926879
0.39337888 -5.2070899 -0.39860511 0.97926944
0.26240233 -5.2149901 -0.39857993 0.97927076
0.19683594 -5.2177048 -0.39856732 0.97927141
0.13124999 -5.2195997 -0.39855468 0.97927207
0.065624997 -5.2206836 -0.39854205 0.97927266
-0.065585934 -5.2203321 -0.3985168 0.97927409
-0.13117187 -5.218945 -0.39850417 0.97927469
-0.32777342 -5.2098045 -0.39846638 0.9792766
-0.52382809 -5.1932421 -0.39842859 0.97927856
-0.65416014 -5.1781249 -0.39840356 0.97927982
-0.71914059 -5.1693163 -0.39839104 0.97928053
-0.84875 -5.1493063 -0.39836609 0.97928178
-0.91335934 -5.1380663 -0.39835361 0.97928244
-1.0421289 -5.1131639 -0.39832881 0.97928375
-1.1062695 -5.0995016 -0.39831644 0.97928441
-1.1702343 -5.0850391 -0.39830413 0.979285
-1.2340039 -5.0697851 -0.39829186 0.9792856
-1.2975781 -5.0537305 -0.39827961 0.97928619
-1.3609375 -5.0368748 -0.39826739 0.97928685
-1.4869726 -5.0007715 -0.3982431 0.97928816
-1.5496484 -4.9815431 -0.39823103 0.97928876
-1.6742382 -4.9407129 -0.39820701 0.97929007
-1.7977734 -4.8967872 -0.3981832 0.97929126
-1.8591015 -4.8736715 -0.39817137 0.97929186
-2.0412891 -4.7997069 -0.39813626 0.9792937
-2.1014061 -4.7735548 -0.39812464 0.97929418
-2.2205467 -4.718955 -0.39810166 0.97929543
-2.3383398 -4.661406 -0.39807895 0.97929651
-2.5391405 -4.6186914 -0.40232515 0.97907811
-2.6137891 -4.6161423 -0.40493071 0.978944
-2.7660546 -4.6107812 -0.41043121 0.97866106
-2.8437109 -4.6079884 -0.41333148 0.97851193
-3.0031641 -4.6033692 -0.41955552 0.97819191
-3.0857031 -4.6024122 -0.42297029 0.97801638
-3.1695898 -4.6014647 -0.42650944 0.97783446
-3.2549024 -4.6004882 -0.43017524 0.97764605
-3.8980076 -4.5931153 -0.45984772 0.97612274
-3.9973826 -4.5919919 -0.46472621 0.97587246
-4.3088279 -4.588408 -0.48047057 0.97506529
-4.4174023 -4.5871873 -0.48611531 0.97477609
-4.7816014 -4.4902148 -0.50069845 0.97402924
-1.023086 -0.89060545 -0.1035405 0.9945733
-1.023496 -0.84671873 -0.10139728 0.99468535
-1.0236914 -0.8254199 -0.10038177 0.99473852
-1.0238867 -0.80456054 -0.099401474 0.99478978
-1.0240625 -0.78410155 -0.098455466 0.99483925
-1.0242578 -0.76400387 -0.097542077 0.99488699
-1.0246093 -0.72492188 -0.095809326 0.99497753
-1.0882031 -0.70994139 -0.099181704 0.99480122
-1.1186719 -0.70993161 -0.10113777 0.994699
-1.1503515 -0.70992184 -0.10318897 0.99459183
-1.2537891 -0.70992184 -0.10998467 0.99423659
-1.2913672 -0.70991212 -0.11248977 0.99410576
-1.3307031 -0.70993161 -0.11513054 0.99396777
-1.3719531 -0.70993161 -0.11791732 0.99382216
-1.4152343 -0.70992184 -0.12086166 0.99366844
-1.5592382 -0.70992184 -0.13078094 0.99315065
-1.6126952 -0.70992184 -0.13450371 0.99295628
-1.6692773 -0.70991212 -0.1384671 0.99274945
-1.7292968 -0.70993161 -0.14269485 0.99252892
-1.7948828 -0.71061522 -0.14735502 0.99228573
-1.7947265 -0.6846289 -0.14662766 0.99232376
-1.7946093 -0.65885741 -0.14593042 0.99236017
-6.1820898 -2.1818945 -0.50042653 0.97404319
-6.2089453 -2.1040332 -0.50042129 0.97404349
-6.2597265 -1.9472754 -0.50041139 0.97404408
-6.2836719 -1.8684374 -0.50040668 0.9740442
-6.3285155 -1.7099121 -0.50039786 0.97404468
-6.349453 -1.6302637 -0.50039381 0.97404486
-6.3693943 -1.5503125 -0.50038987 0.9740451
-6.40625 -1.3897558 -0.5003826 0.97404546
-6.4231443 -1.3091308 -0.50037926 0.97404569
-6.4390621 -1.2283008 -0.50037611 0.97404581
-6.4806638 -0.98472655 -0.50036782 0.97404629
-6.4925194 -0.90320313 -0.5003655 0.97404629
-6.5218749 -0.65785158 -0.50035954 0.97404659
-6.5362887 -0.49374023 -0.50035661 0.97404683
-6.5419726 -0.41154295 -0.50035542 0.97404683
-6.5466013 -0.32933593 -0.50035447 0.97404695
-6.5502343 -0.24702148 -0.50035363 0.97404689
-6.552793 -0.16469726 -0.5003531 0.97404701
-6.5543356 -0.082333982 -0.50035268 0.97404701
-6.3245115 1.953125e-05 -0.50039685 0.97494221
-6.3225389 0.15895507 -0.50039703 0.97494209
-6.3200388 0.2383789 -0.50039744 0.97494209
-6.3120704 0.39715821 -0.50039881 0.97494203
-6.3066015 0.47643554 -0.50039977 0.97494197
-6.300117 0.55565429 -0.5004009 0.97494197
-6.2841992 0.71378905 -0.50040382 0.97494179
-6.2643356 0.87150389 -0.50040746 0.97494155
-6.2529297 0.95015621 -0.5004096 0.97494143
-6.2271094 1.1070019 -0.50041437 0.97494131
-6.2127342 1.1851758 -0.50041711 0.97494119
-6.1637888 1.4185058 -0.50042623 0.97494066
-6.1455078 1.4958692 -0.50042969 0.97494048
-6.1060739 1.649873 -0.50043714 0.97494006
-6.0848827 1.7264745 -0.50044107 0.97494
-6.0156641 1.9546484 -0.50045419 0.97493929
-5.9907031 2.0300879 -0.5004589 0.97493899
-1.7954687 0.65921873 -0.15133192 0.99235481
-1.795625 0.685 -0.1520555 0.99231827
-1.7292773 0.70997071 -0.14790405 0.99252731
-1.6126562 0.70997071 -0.13941452 0.99295485
-1.4152343 0.70996094 -0.12527427 0.99366701
-1.3307031 0.70997071 -0.11933388 0.9939664
-1.2178515 0.70997071 -0.11153347 0.99435961
-1.1503711 0.70996094 -0.10695671 0.99459052
-1.1186719 0.70997071 -0.10483024 0.99469775
-1.0881835 0.70997071 -0.10280296 0.99480009
-1.0588672 0.70997071 -0.10086784 0.99489772
-1.0239258 0.72448242 -0.099241368 0.99497974
-1.0235547 0.76354492 -0.10103523 0.99488926
-1.0233788 0.78360349 -0.10198063 0.99484152
-1.0229688 0.8249023 -0.10397442 0.99474096
-1.022539 0.86785156 -0.10611466 0.99463296
-1.0223438 0.88999999 -0.10724376 0.99457598
-1.0221094 0.91262692 -0.10841385 0.99451697
-4.6133595 4.3322654 -0.50072145 0.97492605
-4.5586329 4.3899999 -0.50073189 0.97492558
-4.5032225 4.447041 -0.5007425 0.97492498
-4.390254 4.5590038 -0.50076413 0.97492385
-4.2155857 4.7215233 -0.50079757 0.97492224
-4.0957813 4.826211 -0.50082052 0.97492105
-4.0348825 4.8774023 -0.50083214 0.97492057
-3.9112303 4.9775095 -0.50085586 0.97491932
-3.7210937 5.1217575 -0.50089228 0.97491759
-3.6565623 5.1682224 -0.50090462 0.97491699
-3.5914061 5.2138963 -0.50091714 0.9749164
-3.4594531 5.302783 -0.50094247 0.97491503
-3.3925977 5.3459764 -0.50095522 0.97491443
-3.1889648 5.4704685 -0.50099427 0.97491246
-3.120039 5.5102634 -0.5010075 0.97491181
-3.0506248 5.5491796 -0.50102079 0.97491121
-2.4788475 5.8285937 -0.50113052 0.97490579
-2.2576172 5.9183984 -0.50117302 0.97490358
-2.0331249 5.9998045 -0.50121611 0.97490144
-1.9576172 6.0250583 -0.5012306 0.97490072
-1.8818359 6.0493455 -0.5012452 0.97490001
-1.7292968 6.0950875 -0.50127447 0.97489858
-1.575664 6.1369724 -0.50130403 0.97489715
-1.4210546 6.1749997 -0.50133365 0.97489566
-1.2655078 6.2091208 -0.50136358 0.97489423
-1.1091211 6.239336 -0.50139368 0.97489274
-0.95203125 6.2656345 -0.50142384 0.97489119
-0.87324214 6.2772751 -0.50143898 0.97489053
-0.79429686 6.2879491 -0.50145417 0.97488976
-0.71527344 6.297627 -0.50146937 0.97488898
-0.63609374 6.3063278 -0.50148457 0.97488815
-0.4774414 6.3206735 -0.50151509 0.97488678
-0.39800781 6.3263865 -0.50153035 0.97488594
-0.31847656 6.3310742 -0.50154567 0.97488523
-0.15929687 6.3374705 -0.5015763 0.97488368
1.953125e-05 6.3398633 -0.50160694 0.97488213
0.079707026 6.3395605 -0.50162226 0.97488135
0.2390039 6.3359275 -0.50165296 0.97487992
0.31861326 6.3326173 -0.50166821 0.97487915
0.55707031 6.316709 -0.50171417 0.97487682
0.71572262 6.3010936 -0.50174469 0.97487527
0.79484373 6.2917871 -0.50175995 0.97487456
0.87390625 6.2815037 -0.50177515 0.97487378
1.0315235 6.2579293 -0.50180548 0.97487229
1.2667577 6.2151561 -0.50185078 0.97487009
1.3448046 6.198945 -0.5018658 0.97486931
1.5002733 6.1635642 -0.50189579 0.97486782
1.6547656 6.1242676 -0.50192553 0.97486639
1.7316406 6.1031833 -0.50194037 0.97486562
1.8082812 6.0811329 -0.50195515 0.97486478
1.8845702 6.0580955 -0.50196981 0.97486418
1.9606249 6.034111 -0.50198454 0.97486341
2.1117578 5.9832616 -0.50201362 0.97486204
2.1868749 5.9564452 -0.50202811 0.9748612
2.3359766 5.8999414 -0.50205684 0.97485983
2.4099998 5.8703027 -0.50207114 0.97485912
2.7021875 5.7424316 -0.50212747 0.97485638
2.987617 5.600029 -0.50218254 0.97485369
3.0578516 5.5621872 -0.50219613 0.97485298
3.127578 5.5234571 -0.5022096 0.97485238
3.1968164 5.4838867 -0.50222296 0.97485167
3.2655859 5.443418 -0.50223619 0.97485101
3.333828 5.4021091 -0.50224936 0.9748503
3.4015234 5.3599219 -0.50226247 0.9748497
3.5353515 5.2730274 -0.50228828 0.97484833
3.6668944 5.1827731 -0.50231367 0.9748472
3.9230664 4.9924707 -0.5023632 0.97484475
4.047461 4.8925586 -0.50238723 0.97484356
4.1087499 4.8414259 -0.50239903 0.97484285
4.1693554 4.7895117 -0.50241083 0.97484237
4.2292967 4.7368455 -0.50242233 0.97484183
4.4623437 4.5187793 -0.50246745 0.97483957
4.842793 4.1098924 -0.50254107 0.97483593
4.8941407 4.048779 -0.50255102 0.97483546
4.9447656 3.9870508 -0.50256085 0.97483486
1.2510155 0.93313473 -0.12347828 0.99375725
1.2514453 0.88540035 -0.12128643 0.99386775
1.2516406 0.86216795 -0.12024685 0.99392015
1.2914453 0.70998043 -0.11659668 0.99410409
1.4608203 0.7099902 -0.12850341 0.99350405
1.6127343 0.70997071 -0.13941444 0.99295455
1.6692969 0.70996094 -0.14352262 0.99274772
1.793164 0.70997071 -0.15258668 0.99229133
1.9337499 0.70996094 -0.162983 0.99176848
2.023535 0.71417969 -0.16977775 0.99142665
6.0678515 1.8876269 -0.50277913 0.97482419
6.1135154 1.7345703 -0.50278813 0.97482359
6.1348438 1.6576171 -0.5027923 0.97482353
6.1552343 1.5804297 -0.50279629 0.97482336
6.1746483 1.5029687 -0.50280011 0.97482318
6.1930857 1.4252441 -0.50280374 0.97482306
6.2105856 1.3473339 -0.5028072 0.9748227
6.257031 1.1123145 -0.50281638 0.9748224
6.2705665 1.0336035 -0.50281906 0.97482222
6.2830858 0.95474607 -0.50282156 0.9748221
6.3146873 0.71725583 -0.50282788 0.97482181
6.330781 0.55833983 -0.50283116 0.97482151
6.3373046 0.47874999 -0.50283247 0.97482151
6.3473825 0.31935546 -0.50283462 0.97482133
6.3508592 0.23955077 -0.50283539 0.97482145
6.3533788 0.15973632 -0.50283593 0.97482139
6.3554296 1.953125e-05 -0.50283647 0.97482127
6.3534179 -0.15968749 -0.50283629 0.97482127
6.3508592 -0.23952147 -0.50283587 0.97482145
6.347363 -0.31929687 -0.50283527 0.97482139
6.3373046 -0.47870117 -0.50283349 0.97482151
6.3308005 -0.55830079 -0.50283235 0.97482145
6.3147264 -0.71721679 -0.50282943 0.97482163
6.2831054 -0.95468748 -0.50282359 0.97482204
6.270586 -1.0335742 -0.50282127 0.97482216
6.2106051 -1.3473047 -0.50281006 0.97482264
6.1931639 -1.4252343 -0.50280678 0.97482276
6.1746874 -1.5029297 -0.50280333 0.97482306
6.1349216 -1.6575977 -0.50279582 0.9748233
6.1135349 -1.7345409 -0.50279182 0.97482359
6.0912108 -1.8111913 -0.50278759 0.97482377
6.0679102 -1.8875879 -0.50278318 0.97482401
2.0235155 -0.65746093 -0.16833912 0.99149919
2.0235546 -0.68568361 -0.16904233 0.99146366
1.7293359 -0.70992184 -0.14790466 0.99252719
1.6693164 -0.70994139 -0.14352262 0.99274772
1.6127343 -0.70992184 -0.13941467 0.99295461
1.50875 -0.70993161 -0.13192527 0.99333179
1.4608203 -0.70992184 -0.1285039 0.99350417
1.3307812 -0.70992184 -0.11933418 0.99396622
1.2914453 -0.70992184 -0.11659702 0.99410421
1.2538671 -0.70991212 -0.11400016 0.9942351
1.2527343 -0.73023438 -0.11472553 0.99419862
1.2522266 -0.79463863 -0.11733939 0.99406683
1.2520312 -0.8167578 -0.11827461 0.99401975
1.2510155 -0.93310547 -0.12347846 0.99375731
4.9448047 -3.9870605 -0.50256932 0.97483468
4.8942184 -4.0488281 -0.50255966 0.97483516
4.8428907 -4.1099024 -0.50254983 0.97483557
4.7907419 -4.1703806 -0.50253987 0.97483605
4.7378712 -4.2301559 -0.5025298 0.97483659
4.684238 -4.2892675 -0.50251955 0.97483712
4.5748048 -4.4054589 -0.50249857 0.97483802
4.4624414 -4.5188184 -0.50247711 0.97483921
4.3473048 -4.6293359 -0.50245506 0.97484022
4.288672 -4.683496 -0.50244385 0.97484082
4.1995311 -4.7034669 -0.49888614 0.97501677
3.7881444 -4.6980176 -0.47748825 0.97607535
3.5951757 -4.6954393 -0.4678947 0.9765504
3.1441014 -4.6894531 -0.44670314 0.97760046
2.9746485 -4.6872067 -0.43922746 0.97797114
2.8919921 -4.6861134 -0.43568426 0.97814685
2.7305467 -4.6839452 -0.42896721 0.97848022
2.5738671 -4.6817579 -0.4227069 0.97879088
2.4971483 -4.6806054 -0.41973624 0.97893834
2.4220507 -4.6805468 -0.41696975 0.97907579
2.2753515 -4.6816602 -0.41184279 0.9793303
2.0615625 -4.6829686 -0.40483078 0.97967869
1.855957 -4.6874804 -0.39888594 0.97997409
1.4973047 -4.8131151 -0.39881709 0.97997761
1.3758203 -4.8489451 -0.39879376 0.97997874
1.2534375 -4.8816991 -0.39877024 0.97997993
1.1919531 -4.8969336 -0.39875841 0.97998047
1.1303124 -4.9113574 -0.39874661 0.97998112
0.88199216 -4.9613476 -0.39869887 0.97998351
0.69433594 -4.9906344 -0.39866278 0.97998524
0.63154298 -4.9988084 -0.39865071 0.97998583
0.56863278 -5.0062013 -0.39863861 0.97998643
0.4426367 -5.0186033 -0.39861438 0.97998762
0.31636718 -5.027822 -0.39859009 0.97998887
0.18990234 -5.0338864 -0.39856577 0.97999007
0.12660156 -5.0357127 -0.39855361 0.97999072
3.9062499e-05 -5.0370116 -0.39852923 0.97999185
-0.18980469 -5.0329685 -0.39849272 0.9799937
-0.31619141 -5.0262985 -0.39846841 0.97999489
-0.44240233 -5.0164647 -0.39844409 0.97999609
-0.50539058 -5.0103416 -0.39843199 0.97999674
-0.63109374 -4.9957418 -0.39840779 0.97999799
-0.69378906 -4.9872947 -0.39839569 0.97999853
-0.75640625 -4.9780273 -0.39838368 0.97999913
-0.88119137 -4.9571385 -0.3983596 0.98000038
-0.94339842 -4.9455371 -0.39834762 0.98000091
-1.0054296 -4.933125 -0.39833567 0.98000157
-1.0673046 -4.919961 -0.39832374 0.98000216
-1.1290039 -4.9060154 -0.39831188 0.98000276
-1.1905469 -4.8912988 -0.39830002 0.9800033
-1.2518749 -4.8757911 -0.39828819 0.98000395
-1.3130078 -4.8595309 -0.39827645 0.98000455
-1.3739452 -4.8425293 -0.39826468 0.98000503
-1.4375781 -4.8345213 -0.39906305 0.97996545
-1.4951172 -4.8061814 -0.39824131 0.98000622
-1.5553125 -4.7868748 -0.39822972 0.98000681
-1.615332 -4.7668066 -0.39821815 0.98000735
-1.7344922 -4.7244434 -0.39819518 0.98000854
-1.9694335 -4.6308007 -0.39814988 0.98001081
-2.3161132 -4.6171288 -0.40869474 0.97948682
-2.5341797 -4.6097069 -0.41620249 0.979114
-2.6091211 -4.6078806 -0.41896465 0.97897679
-2.6856248 -4.6069922 -0.42192063 0.9788301
-3.0032032 -4.6033888 -0.43487483 0.97818708
-3.520117 -4.5974607 -0.45813069 0.97703415
-3.6117969 -4.5963964 -0.46251234 0.97681719
-3.7053125 -4.5953321 -0.46705282 0.97659218
-3.8980076 -4.5931249 -0.47663656 0.97611761
-3.9973826 -4.5919824 -0.48169485 0.97586733
-4.3088279 -4.588408 -0.49801424 0.97505999
-4.3903317 -4.5590525 -0.50077385 0.97492349
-4.4471679 -4.5033984 -0.50076288 0.97492409
-4.5033007 -4.4470606 -0.50075197 0.97492468
-1.0221094 -0.91259766 -0.10841381 0.99451703
-1.0227734 -0.84611326 -0.1050256 0.99468797
-1.0237499 -0.74378902 -0.10012226 0.99493539
-1.030625 -0.70994139 -0.099020153 0.994991
-1.0589062 -0.70992184 -0.10086811 0.99489766
-1.1503711 -0.70991212 -0.10695675 0.99459064
-1.2178515 -0.70991212 -0.11153385 0.99435973
-1.2537891 -0.70992184 -0.11400016 0.9942354
-1.3307031 -0.70993161 -0.11933426 0.99396646
-1.3719531 -0.70993161 -0.12222282 0.99382085
-1.4152343 -0.70992184 -0.12527488 0.99366713
-1.5592382 -0.70992184 -0.1355561 0.99314916
-1.6126952 -0.70992184 -0.13941489 0.99295473
-1.7957226 -0.71097654 -0.15281032 0.99228042
-1.7954882 -0.65916014 -0.15133211 0.99235481
-5.9907422 -2.0300684 -0.50046319 0.97493887
-6.0157032 -1.9545996 -0.5004583 0.97493917
-6.0397458 -1.8788378 -0.50045365 0.97493935
-6.0628514 -1.8027831 -0.50044912 0.97493947
-6.1455469 -1.4958301 -0.50043285 0.97494036
-6.1638083 -1.4184862 -0.50042927 0.9749406
-6.1811132 -1.3408984 -0.50042588 0.97494072
-6.1974216 -1.2631249 -0.5004226 0.9749409
-6.2127733 -1.1851465 -0.50041962 0.97494107
-6.227129 -1.1069629 -0.50041676 0.97494125
-6.2842188 -0.71375972 -0.50040531 0.97494173
-6.2926559 -0.63472652 -0.50040364 0.97494191
-6.300117 -0.55558592 -0.50040215 0.97494197
-6.3066015 -0.47637695 -0.50040078 0.97494197
-6.3200583 -0.2383496 -0.50039792 0.97494203
-6.1092381 0.076787107 -0.50043815 0.97577745
-6.0861716 0.53677732 -0.50044209 0.97577715
-6.0616403 0.76580077 -0.50044656 0.97577709
-6.0156054 1.069414 -0.50045514 0.97577667
-5.9544334 1.3703418 -0.50046659 0.97577602
-5.9181833 1.5195508 -0.50047338 0.97577578
-5.8986716 1.5938281 -0.50047708 0.97577554
-5.8568358 1.741582 -0.50048494 0.97577524
-5.7871876 1.9611523 -0.50049812 0.97577459
-1.7964648 0.68531251 -0.15749069 0.99231297
-1.7966015 0.71135741 -0.15827303 0.99227488
-1.5592382 0.70998043 -0.14033252 0.99314755
-1.2913281 0.70998043 -0.12070579 0.99410319
-1.2537891 0.70998043 -0.11801742 0.99423397
-1.2178515 0.70997071 -0.11546413 0.99435836
-1.1503711 0.70996094 -0.11072593 0.99458933
-1.1186719 0.70997071 -0.1085247 0.99469656
-1.0882031 0.70997071 -0.10642578 0.9947989
-1.0588672 0.70997071 -0.10442268 0.99489659
-1.0228516 0.76303709 -0.10452503 0.99489158
-1.0226562 0.78307617 -0.10550217 0.99484396
-1.0224805 0.80349606 -0.10651477 0.99479455
-1.0220507 0.84555662 -0.10865024 0.99469048
-1.0213281 0.91197264 -0.11215297 0.99451977
-4.3501954 4.2958984 -0.50077212 0.97576135
-4.2410154 4.4040427 -0.50079304 0.97576046
-4.1854687 4.4570799 -0.50080365 0.97575986
-4.1291795 4.5094433 -0.50081444 0.97575939
-4.0722852 4.5610642 -0.50082529 0.97575885
-4.0147266 4.6119723 -0.50083631 0.97575837
-3.9565625 4.662168 -0.50084746 0.97575778
-3.8977344 4.7116113 -0.50085872 0.9757573
-3.7783008 4.8083005 -0.50088161 0.97575611
-3.7176561 4.8555079 -0.50089324 0.97575563
-3.6564453 4.9019728 -0.50090498 0.97575498
-3.5946093 4.9476271 -0.50091684 0.97575456
-3.3417969 5.1224999 -0.50096524 0.97575217
-3.2122264 5.2051072 -0.50099009 0.97575092
-3.146621 5.2451954 -0.50100267 0.97575039
-3.0805273 5.2844725 -0.50101537 0.97574973
-3.0139649 5.3229003 -0.50102812 0.97574908
-2.8794141 5.3972459 -0.50105393 0.97574782
-2.7430077 5.468164 -0.5010801 0.97574663
-2.6741405 5.5023632 -0.50109333 0.97574598
-2.5351562 5.5681152 -0.50111997 0.97574472
-2.2524219 5.6890817 -0.50117427 0.9757421
-2.1088672 5.7441993 -0.50120181 0.97574079
-1.6704687 5.8877244 -0.50128597 0.9757368
-1.5220703 5.9281735 -0.50131452 0.97573543
-1.4475 5.9470019 -0.50132883 0.97573477
-1.2976562 5.9818454 -0.50135761 0.9757334
-1.2224219 5.9978614 -0.5013721 0.97573262
-1.1469922 6.0129294 -0.50138658 0.97573191
-0.99558592 6.0401754 -0.50141567 0.97573066
-0.84353513 6.0636621 -0.50144494 0.97572917
-0.76726562 6.0739746 -0.5014596 0.97572845
-0.69093746 6.0833106 -0.50147432 0.97572774
-0.53785157 6.0990915 -0.50150371 0.97572643
0.15392578 6.1224704 -0.5016368 0.97571999
0.61480469 6.0945606 -0.50172549 0.9757157
0.69134766 6.0865426 -0.50174022 0.97571498
0.76779294 6.0775485 -0.50175494 0.97571427
0.92035156 6.0566893 -0.50178432 0.9757129
1.0723046 6.031992 -0.50181359 0.97571152
1.2236328 6.0034666 -0.50184274 0.97571021
1.3741796 5.9711814 -0.50187171 0.97570878
1.5239062 5.9351172 -0.50190061 0.97570729
1.5983984 5.9156737 -0.50191492 0.97570664
1.6726757 5.8952637 -0.50192922 0.97570604
1.8203906 5.8517089 -0.50195771 0.97570461
1.893828 5.8285351 -0.5019719 0.97570395
1.9669726 5.8044434 -0.50198597 0.9757033
2.1123438 5.7534962 -0.50201398 0.97570193
2.2564063 5.6989355 -0.50204176 0.9757005
2.3990233 5.6407228 -0.50206929 0.97569925
2.5401366 5.5789552 -0.50209647 0.97569799
2.6796875 5.5136619 -0.50212342 0.97569668
2.7488282 5.4797168 -0.50213677 0.97569597
2.817539 5.4448829 -0.50215 0.97569537
2.8858006 5.4091797 -0.50216317 0.97569478
2.9536328 5.3726268 -0.50217628 0.97569418
3.0878906 5.2970018 -0.50220215 0.97569281
3.1542578 5.2578907 -0.50221497 0.97569233
3.2201757 5.217988 -0.50222772 0.97569168
3.2855859 5.1772361 -0.5022403 0.97569102
3.541914 5.0061035 -0.50228983 0.9756887
3.6046288 4.961328 -0.50230193 0.9756881
3.6667774 4.9157519 -0.50231397 0.9756875
3.789336 4.8222852 -0.50233763 0.97568637
3.909492 4.7257419 -0.50236088 0.9756853
4.0851169 4.5753708 -0.5023948 0.97568357
4.1423826 4.5237598 -0.50240588 0.97568309
4.2549415 4.4184375 -0.50242764 0.97568202
4.3101954 4.364707 -0.50243837 0.9756816
4.4187107 4.2551856 -0.50245935 0.97568059
4.5762305 4.0858788 -0.50248981 0.9756791
4.6273046 4.0281248 -0.5024997 0.97567862
4.7760935 3.8510742 -0.50252855 0.97567731
4.8241992 3.7908201 -0.50253785 0.97567689
4.8715625 3.7299609 -0.50254703 0.97567642
1.2505859 0.88482422 -0.12547718 0.99387056
1.2508203 0.86160153 -0.12440216 0.99392277
1.2510155 0.8387695 -0.12336467 0.99397331
1.2512109 0.81628907 -0.12236335 0.99402219
1.3719921 0.70998043 -0.12652972 0.99381924
1.4608203 0.7099902 -0.13303246 0.99350256
1.50875 0.70998043 -0.13657425 0.99333018
1.793164 0.70997071 -0.15796417 0.99228966
1.9337499 0.70996094 -0.16872686 0.99176663
2.0234766 0.68569332 -0.17499338 0.99146205
2.0234766 0.6574707 -0.17426552 0.9914974
5.8608203 1.8232226 -0.50273937 0.97566724
5.904902 1.6753906 -0.50274801 0.97566682
5.9817967 1.3766406 -0.50276315 0.97566611
6.0145898 1.2258788 -0.50276959 0.97566575
6.0435739 1.074375 -0.50277531 0.97566545
6.0566015 0.99833006 -0.50277793 0.97566545
6.0687108 0.92215818 -0.50278032 0.97566527
6.0900192 0.76937497 -0.50278461 0.97566503
6.1074805 0.61610353 -0.50278813 0.97566485
6.1147265 0.53927732 -0.50278962 0.97566491
6.1307812 0.30844727 -0.50279295 0.97566462
6.1341796 0.23138671 -0.50279367 0.97566462
6.1365623 0.15427734 -0.50279421 0.97566473
6.1385546 2.9296874e-05 -0.50279474 0.97566456
6.1366014 -0.1542578 -0.50279456 0.97566462
6.1341796 -0.23134765 -0.50279421 0.97566462
6.1308007 -0.3084082 -0.50279361 0.97566456
6.1147265 -0.53924805 -0.50279075 0.97566491
6.0900583 -0.76932615 -0.50278622 0.97566491
6.0687304 -0.92210937 -0.50278229 0.97566521
6.0566406 -0.99831051 -0.50278008 0.97566527
6.0435934 -1.0743359 -0.50277764 0.97566539
6.0146093 -1.2258399 -0.50277227 0.97566569
5.9452734 -1.5264648 -0.50275922 0.97566628
5.9255466 -1.6010253 -0.50275552 0.97566664
5.9049411 -1.6753613 -0.50275159 0.9756667
5.883379 -1.7494237 -0.50274754 0.97566688
5.8608594 -1.8231933 -0.5027433 0.97566718
2.0234766 -0.65744138 -0.17426567 0.99149746
2.0234571 -0.68568361 -0.17499347 0.99146211
2.0234766 -0.71414059 -0.1757547 0.99142504
1.933789 -0.70995116 -0.16872722 0.99176651
1.6693164 -0.70994139 -0.14858083 0.99274611
1.5592968 -0.70992184 -0.14033303 0.99314743
1.50875 -0.70993161 -0.1365747 0.9933303
1.4153124 -0.70991212 -0.12968978 0.99366546
1.2538671 -0.70991212 -0.11801773 0.99423385
1.2519531 -0.72976559 -0.11869373 0.994201
1.2517968 -0.75089842 -0.11956268 0.99415863
1.2516016 -0.77236325 -0.1204631 0.99411476
1.2508203 -0.86153316 -0.12440227 0.99392295
4.5244923 -4.1429977 -0.50248861 0.97567934
4.471992 -4.1994433 -0.5024786 0.97567981
4.364902 -4.3103223 -0.5024581 0.97568071
4.1990623 -4.4714646 -0.50242639 0.97568232
3.8876562 -4.699326 -0.49955633 0.97581953
3.6906641 -4.6967087 -0.4892607 0.97631192
3.5951757 -4.6954393 -0.48438379 0.97654521
3.3195312 -4.6917872 -0.47075632 0.97719759
3.1441014 -4.6894531 -0.46244621 0.97759551
3.0586329 -4.6883202 -0.45850754 0.97778422
2.9746485 -4.6872067 -0.45470673 0.97796625
2.8919921 -4.6861134 -0.45103905 0.97814202
2.8106639 -4.6850195 -0.44749975 0.97831166
2.4971094 -4.6806054 -0.43452898 0.97893375
2.3468359 -4.6783204 -0.42870569 0.97921312
2.1285937 -4.6750193 -0.42074686 0.97959507
2.0576952 -4.6741114 -0.41830581 0.97971225
1.9881054 -4.6745019 -0.41607216 0.97981948
1.9192382 -4.6748633 -0.41392359 0.97992259
1.8510547 -4.6751757 -0.41185945 0.98002177
1.7166406 -4.675674 -0.40797156 0.9802084
1.5845703 -4.6759763 -0.40439659 0.98038024
1.519375 -4.6760645 -0.40272197 0.9804607
1.4546875 -4.6761327 -0.40112081 0.98053759
1.3905078 -4.6761622 -0.39959225 0.98061097
1.3289453 -4.6837888 -0.39878455 0.98064977
1.2699413 -4.6999707 -0.39877322 0.98065037
1.2107617 -4.7154002 -0.39876187 0.98065096
1.1513672 -4.7301464 -0.39875045 0.98065138
1.0320703 -4.7573047 -0.39872754 0.98065251
0.91214842 -4.781445 -0.39870447 0.9806537
0.79164058 -4.802588 -0.39868128 0.98065478
0.67066407 -4.820693 -0.39865801 0.98065585
0.61001951 -4.8285742 -0.39864638 0.9806565
0.49054685 -4.8628907 -0.4003343 0.98057538
0.30582032 -4.8610253 -0.39894602 0.98064202
0.12230469 -4.8642673 -0.39855257 0.98066103
3.9062499e-05 -4.8655176 -0.39852905 0.98066217
-0.061132811 -4.8650098 -0.39851728 0.98066264
-0.18335937 -4.8616505 -0.39849377 0.98066378
-0.36640623 -4.8508396 -0.39845854 0.98066556
-0.42773438 -4.8499413 -0.39879316 0.98064941
-0.6121875 -4.8462305 -0.40010282 0.98058653
-0.67019528 -4.8175683 -0.39840004 0.98066831
-0.73066407 -4.8086133 -0.39838839 0.9806689
-0.91128904 -4.777246 -0.39835361 0.98067057
-0.97123045 -4.7652731 -0.39834207 0.98067111
-1.0906055 -4.7391014 -0.3983191 0.98067218
-1.2092968 -4.7099218 -0.39829624 0.98067331
-1.2683203 -4.6942186 -0.39828482 0.98067391
-1.3271874 -4.677783 -0.3982735 0.98067439
-1.3858203 -4.6605954 -0.3982622 0.98067498
-1.5693164 -4.6310935 -0.40051609 0.98056674
-1.6988866 -4.62749 -0.40376854 0.9804104
-1.7644531 -4.6256056 -0.40550616 0.98032695
-1.8306249 -4.6236424 -0.40732002 0.98023981
-1.9646875 -4.6195703 -0.41118193 0.98005432
-2.2414844 -4.6120896 -0.42002147 0.97962993
-2.313164 -4.6112695 -0.42256129 0.97950804
-2.4591796 -4.6095996 -0.42793709 0.97925007
-2.533711 -4.6087499 -0.43078062 0.97911352
-2.9219921 -4.6043162 -0.44666475 0.97835177
-3.0857031 -4.6024318 -0.45386457 0.97800678
-3.1696093 -4.6014647 -0.45766163 0.97782481
-3.2549024 -4.6004882 -0.46159643 0.97763634
-3.3417382 -4.5994921 -0.46567386 0.97744101
-3.4300976 -4.5984764 -0.46989828 0.97723877
-3.5200975 -4.5974512 -0.47427645 0.97702914
-3.7053125 -4.5953321 -0.48351291 0.976587
-3.8006639 -4.5942383 -0.48838514 0.97635394
-3.8980076 -4.5931249 -0.49343544 0.97611237
-4.1292577 -4.5094824 -0.50082397 0.97575903
-4.2411327 -4.4040918 -0.5008024 0.97575998
-4.2960157 -4.3503418 -0.50079179 0.97576064
-4.4038281 -4.2408299 -0.50077093 0.97576153
-4.4566212 -4.1850781 -0.50076067 0.97576219
-1.0211133 -0.93500972 -0.11340667 0.99445873
-1.0213672 -0.91192383 -0.11215271 0.99451983
-1.0216016 -0.8893066 -0.11094306 0.99457878
-1.0218164 -0.86717772 -0.1097763 0.9946357
-1.0220703 -0.84549803 -0.10865001 0.99469054
-1.0222656 -0.82425779 -0.10756351 0.99474359
-1.0224609 -0.80343747 -0.10651454 0.99479473
-1.0226562 -0.78302735 -0.10550217 0.99484408
-1.022871 -0.76296872 -0.10452484 0.99489164
-1.0232227 -0.72396481 -0.10267033 0.99498206
-1.1833984 -0.70992184 -0.11303677 0.9944768
-1.2913281 -0.70991212 -0.1207061 0.99410331
-1.3307031 -0.70993161 -0.12353981 0.99396515
-1.3719531 -0.70993161 -0.12653007 0.99381948
-1.4152343 -0.70992184 -0.12968978 0.9936657
-1.5592382 -0.70992184 -0.14033347 0.99314767
-1.7292968 -0.70993161 -0.15311737 0.99252564
-1.7963672 -0.65949219 -0.15674134 0.99234939
-5.7872458 -1.961123 -0.50050229 0.97577441
-5.8345704 -1.8150195 -0.50049305 0.97577494
-5.8782811 -1.6677929 -0.50048447 0.97577518
-5.8987107 -1.593789 -0.50048047 0.97577548
-5.9544921 -1.3703027 -0.50046951 0.97577584
-5.9711719 -1.2953711 -0.50046617 0.97577614
-5.9869332 -1.2202051 -0.50046307 0.97577631
-6.0017576 -1.1448632 -0.50046015 0.97577643
-6.0285544 -0.99368161 -0.50045484 0.97577679
-6.0516014 -0.84186524 -0.50045025 0.97577685
-6.0707812 -0.68952149 -0.50044638 0.97577709
-6.0861521 -0.5367285 -0.50044328 0.97577727
-6.0923829 -0.46020508 -0.50044197 0.97577739
-6.1020312 -0.30696288 -0.50044 0.97577739
-6.1053905 -0.23026367 -0.50043923 0.97577745
-5.9089451 2.9296874e-05 -0.50047678 0.97655869
-5.9015036 0.29691404 -0.50047791 0.97655863
-5.8861327 0.5191406 -0.50048059 0.97655857
-5.8791795 0.59306639 -0.50048184 0.97655845
-5.842031 0.88772458 -0.5004887 0.97655815
-5.8304296 0.96107417 -0.50049084 0.97655809
-5.8179102 1.0342578 -0.50049317 0.97655797
-5.7587109 1.3252929 -0.50050431 0.97655755
-5.7048044 1.541455 -0.50051445 0.97655696
-5.6643748 1.6843554 -0.50052208 0.97655654
-5.5727735 1.9668945 -0.50053936 0.97655576
-1.7974805 0.71169919 -0.16374351 0.99226934
-1.7292773 0.70997071 -0.15833114 0.99252391
-1.6126952 0.70995116 -0.14924295 0.99295151
-1.4607617 0.70998043 -0.13756302 0.99350131
-1.2178124 0.7099902 -0.1193964 0.99435711
-1.1186719 0.70997071 -0.11222076 0.99469537
-1.0882031 0.70997071 -0.11005042 0.99479765
-1.030625 0.70996094 -0.10600051 0.99498868
-1.0225586 0.72351563 -0.10609642 0.99498415
-1.0223827 0.74285156 -0.10703716 0.99493968
-1.0221679 0.76250976 -0.10801136 0.99489385
-1.0219922 0.78254879 -0.10902076 0.99484617
-1.0217578 0.80295897 -0.11006622 0.99479693
-1.0213476 0.8449707 -0.11227138 0.99469286
-1.0208594 0.88872069 -0.11463909 0.99458134
-1.020625 0.91129881 -0.11588825 0.99452239
-1.0203515 0.93437499 -0.11718288 0.99446142
-4.310039 4.047451 -0.50078011 0.97654456
-4.2589064 4.1013865 -0.50078988 0.97654414
-4.2071486 4.1546288 -0.50079978 0.97654366
-4.1546679 4.2072754 -0.50080985 0.97654319
-4.1015625 4.2592282 -0.50081998 0.97654271
-3.8826952 4.4602833 -0.50086188 0.97654086
-3.7695312 4.5566697 -0.50088352 0.97653979
-3.7120898 4.6037793 -0.50089455 0.97653925
-3.6539843 4.650156 -0.50090569 0.97653884
-3.5361524 4.7407422 -0.50092828 0.9765377
-3.416074 4.82832 -0.50095129 0.97653663
-3.3551953 4.8709764 -0.50096291 0.97653615
-3.2937889 4.9128904 -0.50097471 0.97653556
-3.1694727 4.9943357 -0.50099856 0.97653443
-2.9791992 5.1106153 -0.50103503 0.9765327
-2.9148047 5.1477833 -0.50104737 0.97653216
-2.5861719 5.3213282 -0.50111043 0.97652912
-2.4517188 5.384912 -0.50113624 0.97652805
-2.3839061 5.4154196 -0.50114924 0.97652751
-2.2472265 5.4739256 -0.50117546 0.97652614
-2.1783006 5.5018554 -0.5011887 0.97652566
-1.8993359 5.6049609 -0.50124228 0.9765231
-1.8288085 5.6285253 -0.50125581 0.97652251
-1.6155077 5.6939354 -0.50129682 0.97652054
-1.4719726 5.733037 -0.50132436 0.97651935
-1.3998437 5.7512498 -0.50133824 0.97651869
-1.3275 5.7685251 -0.50135213 0.97651809
-1.2549609 5.7849216 -0.50136608 0.97651738
-1.1821679 5.8004003 -0.50138009 0.97651678
-1.1092578 5.8149705 -0.50139409 0.97651607
-0.88935542 5.8531442 -0.50143635 0.9765141
-0.52015626 5.8982716 -0.50150734 0.97651082
-0.44601563 5.9045115 -0.50152159 0.97651017
-0.29749998 5.9141698 -0.50155014 0.97650892
-0.22316405 5.9176168 -0.50156444 0.9765082
-0.074394532 5.9217091 -0.50159305 0.97650683
0.22326171 5.9186425 -0.50165033 0.97650421
0.44621092 5.9065332 -0.50169325 0.97650218
0.52042967 5.9006348 -0.50170749 0.97650146
0.59453124 5.8937988 -0.5017218 0.97650081
0.74250001 5.8773241 -0.50175029 0.97649956
0.81628907 5.8676853 -0.50176454 0.97649896
0.89001954 5.8571191 -0.50177872 0.97649831
1.0369922 5.8332419 -0.50180703 0.97649693
1.1102539 5.819912 -0.5018211 0.97649628
1.2562109 5.7904978 -0.50184917 0.97649503
1.617539 5.7009959 -0.50191885 0.97649175
1.8314062 5.6364355 -0.50196004 0.9764899
2.1125391 5.53791 -0.50201428 0.97648728
2.1820116 5.5110645 -0.50202763 0.97648674
2.3883593 5.4253712 -0.50206745 0.97648478
2.5913672 5.3318849 -0.50210661 0.97648305
2.7246485 5.2653613 -0.50213236 0.97648185
2.85625 5.195488 -0.50215769 0.97648066
2.9213672 5.1593065 -0.50217026 0.97648019
2.9860547 5.1223145 -0.50218278 0.97647959
3.0502734 5.0845213 -0.50219518 0.97647893
3.1772656 5.0065036 -0.50221968 0.97647774
3.2399805 4.9663086 -0.50223178 0.97647721
3.302207 4.9253125 -0.50224382 0.97647673
3.4250975 4.8410153 -0.50226754 0.9764756
3.4857421 4.7976952 -0.50227922 0.97647506
3.5458593 4.7536426 -0.50229084 0.9764744
3.605371 4.7088084 -0.50230235 0.97647399
3.7227147 4.6169138 -0.50232506 0.97647297
3.8943357 4.4736228 -0.5023582 0.97647148
3.9503515 4.4244337 -0.50236905 0.97647089
4.005703 4.3745213 -0.50237978 0.97647047
4.0604687 4.323945 -0.50239033 0.97646987
4.2208204 4.1681056 -0.50242132 0.97646838
4.2729492 4.1148143 -0.50243145 0.97646797
4.4252343 3.9510937 -0.5024609 0.9764666
4.4746289 3.8952343 -0.50247043 0.97646618
4.5233202 3.8387597 -0.50247991 0.9764657
4.6650391 3.6657422 -0.50250733 0.97646451
1.2499804 0.86102539 -0.12855427 0.99392545
1.2501953 0.83821285 -0.12748276 0.99397594
1.2504296 0.81577146 -0.12644848 0.99402452
1.250625 0.79366207 -0.12544994 0.9940716
1.2509766 0.75049806 -0.12355636 0.99416089
1.2538476 0.7099902 -0.12203697 0.99423242
1.2914453 0.70998043 -0.12481666 0.99410141
1.4153124 0.7099902 -0.13410603 0.99366385
1.4608203 0.7099902 -0.13756278 0.99350107
1.50875 0.70998043 -0.14122596 0.99332869
2.0233984 0.65746093 -0.18019459 0.99149579
5.6674023 1.7630371 -0.50270224 0.97645539
5.71 1.6200879 -0.50271058 0.97645509
5.7299218 1.5482129 -0.50271451 0.97645503
5.7671094 1.4037499 -0.50272179 0.97645468
5.8006444 1.2584082 -0.5027284 0.97645432
5.8305078 1.112246 -0.5027343 0.97645402
5.8440623 1.0388964 -0.50273699 0.9764539
5.8566794 0.96538085 -0.50273949 0.97645378
5.8791404 0.81790036 -0.50274396 0.9764536
5.8979297 0.66993165 -0.50274777 0.97645324
5.9189844 0.44714844 -0.50275207 0.97645324
5.9241405 0.37272459 -0.50275314 0.97645324
5.9283981 0.29827148 -0.50275403 0.97645307
5.9340429 0.14918944 -0.50275528 0.97645295
5.9358983 2.9296874e-05 -0.50275576 0.97645307
5.9316797 -0.2236914 -0.50275517 0.97645307
5.9283981 -0.29821289 -0.50275463 0.97645307
5.9241796 -0.3726953 -0.50275391 0.97645307
5.9129295 -0.52145505 -0.50275189 0.97645313
5.9058595 -0.5957129 -0.50275064 0.9764533
5.8791795 -0.81787109 -0.50274575 0.97645348
5.8683982 -0.89168942 -0.50274372 0.9764536
5.856699 -0.96535152 -0.50274158 0.97645372
5.8440819 -1.0388477 -0.50273919 0.97645384
5.8160739 -1.1853808 -0.50273401 0.97645408
5.800703 -1.2583691 -0.50273114 0.97645414
5.7490234 -1.476084 -0.50272137 0.97645462
5.73 -1.5481738 -0.50271779 0.97645473
5.689199 -1.6916602 -0.5027101 0.97645509
2.0233593 -0.71411133 -0.18173391 0.99142355
1.933789 -0.70995116 -0.17447369 0.99176461
1.8611327 -0.70994139 -0.16871257 0.99203557
1.793164 -0.70994139 -0.16334434 0.99228793
1.6693164 -0.70994139 -0.1536411 0.99274445
1.5592968 -0.70994139 -0.14511245 0.99314582
1.50875 -0.70993161 -0.14122596 0.99332875
1.4153124 -0.70991212 -0.13410659 0.99366397
1.3719921 -0.70993161 -0.13083923 0.99381793
1.3307812 -0.70992184 -0.12774719 0.99396348
1.2538671 -0.70991212 -0.12203728 0.99423254
1.2507812 -0.77186519 -0.12448646 0.99411726
1.2506055 -0.79360348 -0.12545002 0.99407178
1.2504296 -0.81570309 -0.12644839 0.99402469
1.25 -0.8609668 -0.12855427 0.99392551
1.2495313 -0.90778321 -0.13081379 0.99381918
4.7108984 -3.6069043 -0.5025239 0.97646379
4.6651173 -3.6657617 -0.5025152 0.97646421
4.6185937 -3.7240233 -0.50250626 0.97646463
4.5713477 -3.7816894 -0.50249726 0.97646511
4.4747267 -3.8952441 -0.50247878 0.97646588
4.3752341 -4.0063181 -0.50245976 0.97646677
4.3244529 -4.0609083 -0.50245005 0.97646725
4.2730274 -4.1148534 -0.50244021 0.97646761
4.2208786 -4.1681247 -0.50243026 0.97646821
4.1680861 -4.2207422 -0.50242013 0.97646868
3.9504297 -4.4244628 -0.50237846 0.97647059
3.7806053 -4.569922 -0.50234598 0.97647214
3.7228124 -4.6169724 -0.50233489 0.97647256
3.5951757 -4.6954393 -0.50088167 0.97653985
3.231035 -4.6906152 -0.48241577 0.97739488
3.1441014 -4.6894431 -0.47819659 0.97759044
3.0586329 -4.6883106 -0.47412315 0.97777921
2.9746289 -4.6871972 -0.47019276 0.9779613
2.8919725 -4.6861033 -0.46640047 0.97813714
2.7305467 -4.6839647 -0.45920998 0.9784705
2.6516407 -4.68291 -0.45580381 0.97862852
2.4214842 -4.6794629 -0.44626135 0.9790712
2.3468163 -4.6783299 -0.44330642 0.97920841
2.2004297 -4.6761036 -0.4377169 0.97946787
2.1285741 -4.6750388 -0.43507606 0.97959036
2.0575781 -4.673955 -0.43253604 0.97970831
1.6474609 -4.6677341 -0.41925079 0.98032546
1.5817187 -4.6674314 -0.41740584 0.98041117
1.5166405 -4.6675978 -0.41568047 0.98049128
1.4520702 -4.6676855 -0.41403076 0.98056793
1.3880078 -4.6677146 -0.41245535 0.98064125
1.3243945 -4.6677442 -0.41095406 0.98071098
1.2612305 -4.667695 -0.40952331 0.98077756
1.1984766 -4.6676364 -0.40816337 0.98084074
1.1361328 -4.6675391 -0.40687355 0.98090065
1.0741601 -4.6673732 -0.40565208 0.98095751
1.0124999 -4.6671972 -0.40449813 0.98101115
0.95123047 -4.6669726 -0.40341026 0.9810617
0.89027339 -4.6666894 -0.40238887 0.98110926
0.58992183 -4.6695118 -0.39864233 0.98128343
0.47238281 -4.6825876 -0.39861977 0.9812845
0.41345704 -4.6880078 -0.39860842 0.9812851
0.35453123 -4.6926951 -0.39859709 0.98128563
0.23644531 -4.699863 -0.39857435 0.9812867
0.17740233 -4.7023435 -0.398563 0.98128712
0.11828125 -4.7040625 -0.39855161 0.98128772
-0.059101563 -4.7047653 -0.39851752 0.98128933
-0.11820313 -4.7035251 -0.39850616 0.9812898
-0.17730469 -4.7015233 -0.39849475 0.9812904
-0.35433593 -4.6911035 -0.39846069 0.98129195
-0.41324219 -4.6861525 -0.39844936 0.98129249
-0.47208983 -4.6804686 -0.39843804 0.98129296
-0.53085935 -4.6740136 -0.39842668 0.98129356
-0.76542968 -4.6439061 -0.3986381 0.98128372
-0.82527339 -4.6425095 -0.3993772 0.98124933
-0.94562501 -4.6395702 -0.40104404 0.98117185
-1.0061328 -4.6380568 -0.40197307 0.98112863
-1.0669922 -4.6364841 -0.40296644 0.98108238
-1.3760937 -4.627861 -0.40893486 0.98080498
-1.4391016 -4.6262012 -0.41035283 0.98073906
-1.5025781 -4.6244922 -0.41184351 0.98066974
-1.6308984 -4.6209178 -0.41504496 0.9805209
-1.7614062 -4.617578 -0.41859114 0.98035622
-1.8279101 -4.6168261 -0.42057127 0.98026419
-1.8950585 -4.616045 -0.42263687 0.98016822
-1.9628515 -4.6152735 -0.42479092 0.98006815
-2.0313671 -4.6144824 -0.42703411 0.97996396
-2.100625 -4.6137109 -0.42937073 0.97985542
-2.1706445 -4.6129003 -0.43180031 0.97974259
-2.241504 -4.6121092 -0.43432674 0.97962517
-2.313164 -4.611289 -0.43695295 0.97950333
-2.4592187 -4.6095996 -0.44251263 0.97924531
-2.5336719 -4.6087499 -0.44545233 0.97910887
-2.6091211 -4.6078806 -0.4485015 0.97896737
-2.6856639 -4.6070118 -0.45166644 0.97882044
-3.1696093 -4.6014552 -0.47324812 0.9778198
-3.4300976 -4.5984764 -0.48590142 0.97723353
-3.5200975 -4.5974512 -0.490428 0.9770239
-3.6117969 -4.5963864 -0.4951193 0.97680682
-3.8827929 -4.4603515 -0.50087136 0.97654039
-4.1547461 -4.2073145 -0.50081879 0.97654289
-4.2589841 -4.101367 -0.50079858 0.97654396
-4.3101172 -4.0474806 -0.50078869 0.97654426
-1.0203515 -0.93430662 -0.11718277 0.9944616
-1.0208594 -0.88867188 -0.11463905 0.99458146
-1.0211133 -0.86657226 -0.11343429 0.9946382
-1.0213281 -0.84491211 -0.11227135 0.9946931
-1.0215625 -0.82370114 -0.11114933 0.99474597
-1.0217578 -0.80290037 -0.11006603 0.99479705
-1.0219922 -0.7824707 -0.10902072 0.99484634
-1.0223827 -0.74277341 -0.1070372 0.99493986
-1.0225781 -0.72347653 -0.10609638 0.99498415
-1.030625 -0.70994139 -0.1060009 0.99498874
-1.1186719 -0.70992184 -0.11222114 0.99469548
-1.1503711 -0.70991212 -0.11449718 0.9945882
-1.1833984 -0.70992184 -0.11688648 0.99447554
-1.2178515 -0.70991212 -0.11939708 0.99435717
-1.2537891 -0.70992184 -0.12203735 0.99423277
-1.2913281 -0.70991212 -0.12481727 0.99410194
-1.3719531 -0.70993161 -0.13083938 0.99381804
-1.4607617 -0.70992184 -0.13756356 0.99350142
-1.5086719 -0.70991212 -0.14122623 0.99332905
-1.6126952 -0.70994139 -0.14924362 0.99295151
-1.6692773 -0.70993161 -0.15364137 0.99274457
-1.7292968 -0.70993161 -0.15833229 0.99252391
-1.7973633 -0.68562496 -0.16293402 0.99230742
-1.7972265 -0.65981442 -0.16215818 0.99234396
-5.5728321 -1.9668652 -0.50054353 0.97655559
-5.7048435 -1.5414063 -0.50051767 0.9765569
-5.7237306 -1.4695898 -0.50051397 0.97655702
-5.7416797 -1.397539 -0.50051045 0.97655725
-5.774961 -1.252793 -0.5005039 0.97655737
-5.7901754 -1.1801074 -0.50050092 0.97655767
-5.8045311 -1.1072558 -0.50049806 0.97655773
-5.8304491 -0.96101558 -0.50049293 0.97655803
-5.8527341 -0.81418943 -0.50048846 0.97655815
-5.8624606 -0.74058592 -0.50048649 0.97655827
-5.8791795 -0.59301758 -0.50048316 0.97655845
-5.9015231 -0.29686522 -0.50047857 0.97655857
-5.9070897 -0.1484668 -0.50047725 0.97655869
-5.9084959 -0.07421875 -0.50047696 0.97655863
-5.7208591 1.953125e-05 -0.50051302 0.97729099
-5.7203903 0.071914062 -0.50051302 0.97729105
-5.7190428 0.14378905 -0.5005132 0.97729099
-5.7168164 0.21563476 -0.50051349 0.97729087
-5.7136717 0.28746092 -0.50051403 0.97729081
-5.7046485 0.43096679 -0.50051564 0.97729081
-5.6758204 0.71704102 -0.50052088 0.97729069
-5.6664062 0.78833008 -0.50052261 0.97729051
-5.6327343 1.0013379 -0.50052887 0.97729021
-5.6058202 1.1425879 -0.50053388 0.97729009
-5.5754294 1.2831151 -0.5005396 0.97728974
-5.5589061 1.3530859 -0.5005427 0.97728956
-5.5415039 1.4228516 -0.50054592 0.97728944
-5.4840426 1.6307226 -0.50055677 0.97728902
-5.4631639 1.6995312 -0.50056076 0.97728878
-5.418828 1.8363184 -0.50056916 0.97728837
-5.395371 1.9042871 -0.50057358 0.97728819
-1.7982421 0.68598634 -0.16838504 0.99230182
-1.7983594 0.71205074 -0.16922216 0.99226373
-1.7292773 0.70997071 -0.16354835 0.99252212
-1.6126952 0.70995116 -0.15416056 0.99294984
-1.5086914 0.70997071 -0.1458793 0.99332732
-1.371914 0.70997071 -0.13515037 0.99381667
-1.2913281 0.70998043 -0.12892951 0.99410039
-1.2178124 0.7099902 -0.12333103 0.9943558
-1.1503711 0.70996094 -0.1182698 0.99458683
-1.0216992 0.74234372 -0.11048985 0.99494189
-1.021289 0.78202146 -0.11253604 0.99484843
-1.0210546 0.80240232 -0.11361443 0.99479926
-1.0205859 0.84438473 -0.11588916 0.99469543
-1.0198828 0.91064453 -0.11961952 0.99452507
-1.0196093 0.93370116 -0.12095512 0.9944641
-4.123281 3.970742 -0.50081617 0.97727728
-3.9188671 4.1732326 -0.50085527 0.97727549
-3.8128905 4.2705564 -0.50087553 0.97727466
-3.7045703 4.3651953 -0.50089628 0.97727364
-3.593828 4.4571385 -0.50091743 0.97727263
-3.4808202 4.5462108 -0.50093913 0.9772718
-3.4235156 4.5897169 -0.5009501 0.9772712
-3.3656445 4.6324801 -0.50096118 0.97727066
-3.307246 4.6744919 -0.50097239 0.97727025
-3.1289062 4.7961521 -0.50100654 0.9772687
-3.0684569 4.8352146 -0.50101817 0.97726816
-2.8842578 4.9477634 -0.50105345 0.97726661
-2.821914 4.9837403 -0.50106543 0.97726607
-2.7591405 5.0189161 -0.50107747 0.97726554
-2.6959374 5.05334 -0.50108963 0.97726488
-2.6322656 5.0869236 -0.50110185 0.97726446
-2.5681834 5.1197362 -0.50111413 0.97726387
-2.503711 5.1517286 -0.50112647 0.97726333
-2.3079686 5.2428417 -0.50116402 0.97726154
-2.0418358 5.3527145 -0.5012151 0.97725928
-1.9744531 5.3780761 -0.50122803 0.9772588
-1.9067577 5.4026074 -0.50124109 0.97725821
-1.8387694 5.4262891 -0.50125408 0.97725755
-1.6330858 5.4921775 -0.5012936 0.97725576
-1.5639844 5.5123925 -0.50130689 0.97725523
-1.4946289 5.5317674 -0.50132024 0.97725463
-1.4250391 5.5502634 -0.50133359 0.97725397
-1.3552148 5.5678906 -0.50134701 0.97725338
-1.2851952 5.584619 -0.50136048 0.97725278
-1.2149414 5.6004686 -0.50137395 0.97725224
-1.0738672 5.6295505 -0.50140107 0.97725093
-1.003086 5.6427536 -0.50141466 0.97725034
-0.93210936 5.6550584 -0.50142831 0.97724974
-0.7897656 5.6770115 -0.50145566 0.97724849
-0.64683592 5.6953807 -0.50148314 0.9772473
-0.57523435 5.7032228 -0.50149697 0.97724664
-0.50357419 5.710156 -0.50151074 0.97724599
-0.43175781 5.7161913 -0.50152451 0.97724539
-0.21605468 5.7288671 -0.50156599 0.97724354
-0.14404297 5.7312794 -0.50157988 0.97724301
0.14410156 5.731914 -0.50163531 0.9772405
0.36005858 5.7228904 -0.50167686 0.9772386
0.64722657 5.6982126 -0.50173217 0.97723609
0.71878904 5.6897755 -0.50174594 0.9772355
0.79027343 5.6804686 -0.50175971 0.97723478
1.2864844 5.5901365 -0.50185525 0.97723055
1.7041992 5.4782224 -0.50193578 0.97722691
1.9096093 5.4105177 -0.50197536 0.97722518
1.9775 5.38624 -0.50198841 0.97722459
2.1123438 5.3351169 -0.5020144 0.97722346
2.1792967 5.308291 -0.50202733 0.9772228
2.2458789 5.2806349 -0.50204015 0.9772222
2.3120897 5.2521191 -0.50205296 0.97722173
2.3779688 5.2228122 -0.50206566 0.97722101
2.4434764 5.1926074 -0.50207829 0.97722059
2.5085938 5.1616406 -0.50209087 0.97722
2.5733202 5.1298532 -0.50210333 0.97721934
2.6376562 5.0972266 -0.50211573 0.97721881
2.765039 5.0295897 -0.50214034 0.97721773
2.9528515 4.9221387 -0.50217658 0.97721612
3.0145311 4.8847556 -0.5021885 0.97721565
3.0757811 4.8466306 -0.50220031 0.97721493
3.1365235 4.8076954 -0.50221205 0.97721446
3.2564843 4.7275586 -0.50223523 0.9772135
3.3157032 4.686377 -0.50224668 0.97721297
3.4325781 4.6017771 -0.50226921 0.97721201
3.6038475 4.4694433 -0.50230229 0.9772104
3.6598046 4.4239159 -0.50231314 0.97720987
3.8777537 4.2347751 -0.50235528 0.97720814
4.0348434 4.0858593 -0.50238568 0.97720677
4.0859571 4.0349317 -0.50239557 0.97720623
4.1862106 3.931123 -0.50241494 0.97720546
4.2838669 3.8248339 -0.50243384 0.9772045
4.4252148 3.6608496 -0.50246125 0.97720331
4.4709373 3.6050098 -0.50247008 0.97720295
4.5602732 3.4916503 -0.50248742 0.97720218
1.2502735 0.93259764 -0.13645791 0.99375659
1.2497656 0.88422847 -0.13393471 0.99387169
1.2493945 0.83765626 -0.13159744 0.99397838
1.2498046 0.7931543 -0.12950024 0.99407405
1.2501953 0.75 -0.12754673 0.99416322
1.2538476 0.7099902 -0.12605812 0.99423105
1.4153124 0.7099902 -0.13852504 0.9936623
