# .PCD v0.7 - Point Cloud Data file format
VERSION 0.7
FIELDS x y z intensity
SIZE 4 4 4 4
TYPE F F F F
COUNT 1 1 1 1
WIDTH 1084
HEIGHT 1
VIEWPOINT 0 0 0 1 0 0 0
POINTS 1084
DATA ascii
-1.0588672 0.70995116 -0.037095223 0.99491143
-1.0364063 0.71392578 -0.036618613 0.99497652
-1.0363281 0.73325193 -0.036939047 0.99493271
-1.03625 0.75291014 -0.037270736 0.99488735
-1.0362109 0.77293944 -0.037614785 0.9948402
-1.0361328 0.79333985 -0.037971228 0.99479151
-1.0360546 0.81414062 -0.038340453 0.99474102
-1.0358984 0.85699219 -0.039119605 0.99463439
-1.0358008 0.87906247 -0.039530601 0.9945783
-1.0357031 0.90163082 -0.039956741 0.99452001
-8.2791204 8.5972853 -0.34728846 0.95336032
-8.0294924 8.7688179 -0.34595546 0.9535352
-8.5991011 9.6311131 -0.37568054 0.9496448
-8.8564062 10.435742 -0.39825633 0.94670081
-8.5914059 10.655087 -0.39826071 0.94670051
-8.4569139 10.762304 -0.39826292 0.94670004
-7.6224413 11.36913 -0.39827681 0.94669831
-7.3343945 11.557178 -0.39828163 0.94669789
-7.1886716 11.648574 -0.39828408 0.94669729
-7.0417576 11.738037 -0.39828655 0.94669706
-6.5944529 11.995302 -0.39829406 0.94669622
-6.4432421 12.077324 -0.39829656 0.9466958
-6.2910156 12.157432 -0.39829916 0.94669539
-5.8899412 11.741543 -0.38221925 0.94879138
-5.9835935 12.311835 -0.39830437 0.94669473
-5.5256834 12.992568 -0.41081291 0.94506741
-5.5167189 13.43791 -0.42266986 0.9435277
-5.5072265 13.909775 -0.43530166 0.94189012
-5.4723825 16.149014 -0.49613461 0.93404281
-5.1202731 16.459658 -0.50156587 0.93334544
-4.7051172 16.583408 -0.50157297 0.93334436
-4.286953 16.69668 -0.50158012 0.93334335
-4.0768356 16.749306 -0.5015837 0.93334305
-3.8660545 16.799355 -0.50158733 0.93334252
-3.6546874 16.846727 -0.50159097 0.93334204
-3.2302344 16.933535 -0.50159824 0.93334097
-3.0171874 16.972851 -0.50160187 0.93334073
-2.8036718 17.009569 -0.50160557 0.93334019
-2.3753514 17.074883 -0.50161296 0.93333936
-2.1606641 17.103584 -0.50161666 0.93333858
-1.9455858 17.129511 -0.50162041 0.93333811
-1.7301953 17.152617 -0.50162411 0.93333805
-1.5145313 17.173193 -0.50162786 0.93333733
-1.0825 17.206133 -0.50163531 0.9333362
-0.86621094 17.218515 -0.50163907 0.93333566
-0.21660155 17.239277 -0.50165039 0.93333441
0.21667968 17.23954 -0.5016579 0.9333334
0.43330076 17.235546 -0.50166166 0.93333304
0.64984375 17.228973 -0.50166547 0.9333322
1.298789 17.192577 -0.5016768 0.93333095
1.5147656 17.174971 -0.50168055 0.93333066
1.7304296 17.154785 -0.50168431 0.93332988
2.1610546 17.106083 -0.50169188 0.93332911
2.3758593 17.077744 -0.50169563 0.93332851
2.5824022 16.994892 -0.50017744 0.93352365
2.7359765 13.423573 -0.39861584 0.9466542
2.9044139 13.387998 -0.39861169 0.94665468
3.0723631 13.350283 -0.39860755 0.94665533
3.5732422 13.224628 -0.39859527 0.94665682
3.9043748 13.130351 -0.39858711 0.94665802
4.0690622 13.080166 -0.39858305 0.94665831
3.3048046 10.171094 -0.31117728 0.95810664
3.49 9.8883104 -0.30511427 0.95890599
4.8820505 12.798203 -0.39856315 0.946661
5.2020311 12.671182 -0.39855528 0.94666219
5.5187106 12.536299 -0.39854756 0.9466629
5.6757421 12.465752 -0.39854369 0.94666368
5.8319139 12.393389 -0.39853987 0.94666392
5.9871092 12.318974 -0.39853606 0.94666457
6.4469724 12.084229 -0.39852485 0.94666606
6.9701562 12.309668 -0.41160735 0.94496423
7.2773829 12.130772 -0.41161287 0.94496357
7.729609 11.848115 -0.41162109 0.94496244
7.8778906 11.750068 -0.41162381 0.94496232
4.5169139 6.5574217 -0.23168604 0.9686386
4.5841403 6.4791598 -0.23093839 0.9687382
4.7156248 6.4904685 -0.23343517 0.9684056
4.5269923 6.0690136 -0.22030608 0.97015584
4.6385741 5.9030371 -0.21844466 0.97040415
5.0197067 6.22541 -0.23269014 0.96850479
9.4224606 10.553232 -0.41165191 0.94495857
9.9409761 10.066699 -0.41166145 0.94495749
10.066796 9.9410839 -0.4116638 0.94495696
10.313516 9.6850195 -0.41166836 0.9449566
10.553828 9.4229488 -0.4116728 0.94495565
10.787344 9.1547756 -0.41167721 0.94495547
10.90166 9.0186129 -0.4116793 0.94495481
11.01416 8.8809566 -0.41168138 0.94495463
11.124883 8.7418451 -0.4116835 0.94495463
1.2664062 0.94462889 -0.045969468 0.99369764
1.2664844 0.92013669 -0.04554924 0.9937551
1.2666405 0.87249023 -0.044752233 0.99386406
1.2668164 0.82642579 -0.04400932 0.99396551
1.266875 0.80396485 -0.043657377 0.99401367
1.2670116 0.76006836 -0.042989995 0.99410492
1.2670703 0.73861325 -0.042673569 0.99414819
1.6127539 0.70997071 -0.051270902 0.99297339
1.7293359 0.70995116 -0.054393347 0.99254715
1.7931445 0.70995116 -0.05611534 0.99231213
1.8611327 0.70994139 -0.057959251 0.99206054
2.0081639 0.68048829 -0.061694603 0.99155098
13.086562 4.0710154 -0.39877856 0.94663298
13.231484 3.5750878 -0.39880255 0.94662994
13.3175 3.2415428 -0.39881098 0.94662851
14.697968 3.1885545 -0.43761459 0.94159043
16.985176 3.0194042 -0.50196493 0.93329394
17.021797 2.8057323 -0.50196576 0.93329388
17.055702 2.5916114 -0.5019666 0.93329394
17.087011 2.3771093 -0.50196737 0.93329358
17.115507 2.1621873 -0.50196809 0.93329364
17.18498 1.5155957 -0.50196999 0.9332931
17.202675 1.299541 -0.50197053 0.9332931
17.217655 1.0832617 -0.50197101 0.9332931
17.239433 0.6501953 -0.50197184 0.9332931
17.250351 0.21677734 -0.5019725 0.93329304
17.250313 -0.21677734 -0.50197297 0.93329316
17.246288 -0.43352538 -0.50197315 0.93329293
17.239492 -0.65021485 -0.50197327 0.93329287
17.164648 -1.731416 -0.50197309 0.93329287
17.115664 -2.1621873 -0.50197268 0.9332931
17.055918 -2.5916405 -0.50197214 0.9332931
16.90414 -3.4453321 -0.50197041 0.93329316
16.812246 -3.8690526 -0.50196922 0.93329304
16.596405 -4.708828 -0.50196636 0.93329388
16.355761 -4.8634276 -0.49649653 0.93399614
15.601699 -4.8534079 -0.47542116 0.93670738
1.7931445 -0.70995116 -0.05611534 0.99231213
1.6127343 -0.70994139 -0.051270865 0.99297351
1.5087695 -0.70994139 -0.048516538 0.99334955
1.4608203 -0.70995116 -0.047258146 0.99352151
1.4152734 -0.70995116 -0.046070594 0.99368393
1.3719921 -0.70994139 -0.044948462 0.9938373
1.2669336 -0.78184569 -0.043317758 0.99406016
1.266875 -0.80396485 -0.043657493 0.99401367
1.2667968 -0.82642579 -0.044009361 0.99396557
1.2667187 -0.84925777 -0.044374008 0.99391574
1.2665625 -0.8961035 -0.045143697 0.99381059
1.2664062 -0.94461912 -0.04596962 0.99369764
10.77623 -8.4678516 -0.39877924 0.94663292
10.668925 -8.6025486 -0.39877754 0.94663316
11.056152 -9.3829193 -0.4219335 0.94362319
10.694492 -9.7928123 -0.42192766 0.94362402
10.570527 -9.9263964 -0.42192566 0.94362426
10.444921 -10.058378 -0.42192358 0.9436245
9.3204689 -9.2040424 -0.38114414 0.94893169
10.058301 -10.444785 -0.42191729 0.94362509
9.9261522 -10.570253 -0.42191511 0.94362563
9.6573238 -10.816269 -0.4219107 0.94362605
9.5205469 -10.936699 -0.42190844 0.94362652
9.3823242 -11.05541 -0.42190614 0.94362676
9.1014452 -11.287578 -0.42190155 0.94362736
8.6693745 -11.622402 -0.42189437 0.94362831
8.3744726 -11.836426 -0.42188945 0.94362903
8.074297 -12.043047 -0.42188445 0.9436295
7.9222851 -12.143476 -0.42188194 0.9436298
7.6145115 -12.338554 -0.42187676 0.94363058
7.3019528 -12.525859 -0.42187151 0.94363123
6.9847851 -12.705254 -0.42186621 0.94363189
6.6632028 -12.876562 -0.42186081 0.94363278
6.3373828 -13.039784 -0.4218553 0.9436335
5.8413086 -13.269092 -0.42184693 0.94363463
5.6741014 -13.341387 -0.42184407 0.94363487
5.5059767 -13.411582 -0.4218412 0.94363505
5.1671286 -13.545488 -0.42183548 0.94363594
4.8249998 -13.670859 -0.42182964 0.94363683
4.652832 -13.730342 -0.42182669 0.94363707
3.7813671 -13.994863 -0.42181182 0.94363916
1.936914 -8.4163084 -0.25129315 0.96603048
2.7163086 -14.239375 -0.42179355 0.94364136
2.1776562 -14.331327 -0.42178428 0.9436425
1.6359375 -14.402881 -0.42177489 0.94364381
1.4548047 -14.422177 -0.42177176 0.94364429
0.91015625 -14.466415 -0.42176235 0.9436456
0.54632813 -14.48455 -0.42175606 0.94364625
-0.18210937 -14.493281 -0.42174339 0.94364786
-0.54628903 -14.483876 -0.42173702 0.94364876
-0.72822267 -14.47581 -0.42173386 0.94364899
-0.91005856 -14.465332 -0.42173067 0.94364971
-1.0917578 -14.452646 -0.42172748 0.94365013
-1.2732812 -14.437715 -0.42172432 0.94365036
-1.4546094 -14.420468 -0.42172113 0.94365078
-1.6356835 -14.400976 -0.42171797 0.94365108
-1.8165234 -14.379111 -0.42171481 0.94365174
-1.9969921 -14.355039 -0.42171165 0.94365215
-2.5366015 -14.269267 -0.42170215 0.94365329
-3.0725391 -14.163242 -0.42169273 0.94365442
-3.2502539 -14.12334 -0.42168957 0.94365507
-3.4274609 -14.081327 -0.42168644 0.94365525
-3.6041014 -14.037031 -0.42168334 0.94365573
-3.9556248 -13.941855 -0.42167708 0.94365644
-4.1304688 -13.890879 -0.42167398 0.9436571
-5.6713867 -13.335155 -0.4216466 0.9436605
-5.8384957 -13.262753 -0.42164358 0.9436608
-6.1698437 -13.111621 -0.42163768 0.94366175
-6.3340821 -13.032988 -0.42163473 0.94366205
-6.497324 -12.952246 -0.42163181 0.94366246
-6.659492 -12.869512 -0.42162889 0.94366282
-7.2975388 -12.518378 -0.42161745 0.94366407
-7.6097069 -12.330762 -0.42161179 0.94366515
-6.2043748 -9.0072069 -0.31824148 0.95717633
-8.5166016 -11.722109 -0.42159536 0.94366711
-8.6631832 -11.614101 -0.42159271 0.94366741
-8.9522066 -11.392597 -0.42158744 0.94366801
-9.235508 -11.163837 -0.42158225 0.94366902
-9.375 -11.046836 -0.42157969 0.94366932
-9.5130463 -10.928144 -0.42157719 0.94366944
-8.005703 -8.9665041 -0.34974131 0.95303673
-9.9180079 -10.561602 -0.42156973 0.94367051
-10.180156 -10.308896 -0.42156491 0.94367123
-9.0656252 -8.9524221 -0.37075046 0.95029265
-7.9633985 -7.6687012 -0.32166651 0.95672351
-10.56127 -9.9177151 -0.42155784 0.94367218
-1.0355663 -0.94826168 -0.040856399 0.99439687
-1.0357031 -0.90163082 -0.039956436 0.99452001
-1.0359765 -0.83534175 -0.038723066 0.99468869
-1.0362109 -0.77292967 -0.03761486 0.99484026
-1.0362695 -0.75291014 -0.037270889 0.99488729
-1.0363672 -0.71390623 -0.036618613 0.9949767
-1.1186719 -0.70994139 -0.038552359 0.99471205
-1.1833984 -0.70995116 -0.04015518 0.99449277
-1.2178515 -0.70994139 -0.041017454 0.99437481
-1.2537695 -0.70994139 -0.041924514 0.99425089
-1.2913672 -0.70995116 -0.042879447 0.99412024
-1.3307226 -0.70995116 -0.043886222 0.99398255
-1.4152343 -0.70995116 -0.04607071 0.99368405
-1.4607812 -0.70995116 -0.047258414 0.99352169
-1.7801172 -0.70481443 -0.055708349 0.99236774
-1.78 -0.65351564 -0.055174407 0.99244082
-12.910351 -4.556582 -0.39836285 0.94668716
-13.752617 -4.4685059 -0.42075434 0.94377649
-14.337226 -4.4600682 -0.4368906 0.94168437
-15.652812 -4.4411035 -0.47342819 0.93696427
-16.396914 -4.4303613 -0.49421093 0.93429005
-16.7925 -3.864502 -0.50138432 0.93336874
-16.92621 -3.2288475 -0.50138134 0.9333688
-16.965391 -3.0158789 -0.50138044 0.93336904
-17.035683 -2.5885546 -0.50137877 0.93336952
-17.09535 -2.1596386 -0.50137722 0.93336958
-17.14414 -1.7293261 -0.50137597 0.93336987
-17.164532 -1.5137695 -0.50137538 0.93336982
-17.19709 -1.0819434 -0.50137436 0.93337005
-17.225664 -0.43300781 -0.50137317 0.93336999
-17.229706 -0.2165039 -0.50137287 0.93337011
-15.727695 0.39536133 -0.50139832 0.93897861
-15.721445 0.59297848 -0.50139821 0.93897873
-15.712773 0.79048824 -0.50139821 0.93897867
-15.671797 1.3821484 -0.50139827 0.93897873
-15.653164 1.5789648 -0.50139838 0.93897885
-15.608554 1.9718359 -0.50139874 0.93897879
-15.523242 2.5587304 -0.50139958 0.93897843
-15.489863 2.7535839 -0.50139999 0.93897843
-15.415761 3.1419921 -0.50140089 0.93897843
-15.375117 3.3354979 -0.50140136 0.9389782
-13.852617 3.5567675 -0.45580134 0.94437039
-12.53789 3.5573339 -0.41535467 0.94917929
-11.930879 3.711494 -0.39820999 0.95122492
-11.88332 3.8611424 -0.39821067 0.9512248
-11.833847 4.0101657 -0.39821136 0.95122486
-11.782578 4.1585546 -0.39821208 0.95122468
-1.7808594 0.65381837 -0.060461234 0.99243653
-1.7292578 0.70996094 -0.059576988 0.9925468
-1.6692578 0.70995116 -0.05781208 0.99276674
-1.5592577 0.70994139 -0.054602776 0.99316686
-1.3719531 0.70996094 -0.049232177 0.99383688
-1.3307421 0.70993161 -0.048068732 0.99398202
-1.2913672 0.70995116 -0.046966016 0.99411976
-1.2537891 0.70995116 -0.045920029 0.9942503
-1.2178515 0.70994139 -0.044926375 0.99437433
-1.0588672 0.70995116 -0.040630303 0.99491102
-1.0357031 0.71342772 -0.04008171 0.9949795
-1.0355469 0.75239259 -0.040795211 0.99489039
-1.0355078 0.77240235 -0.041171379 0.9948433
-1.035332 0.81358397 -0.041965101 0.99474418
-1.0351562 0.85637695 -0.042817079 0.99463779
-1.0349609 0.90097654 -0.04373268 0.99452353
-8.8915625 8.7805662 -0.39825752 0.95121926
-8.7805853 8.8916597 -0.39825931 0.95121896
-8.2791014 8.5972948 -0.38038424 0.9533565
-8.1535549 8.682724 -0.37960222 0.95345038
-8.0294924 8.7688284 -0.37892944 0.95353132
-8.3228903 9.3217773 -0.39826682 0.95121807
-8.2050972 9.4256439 -0.39826873 0.95121801
-7.9657421 9.6289644 -0.39827269 0.95121747
-7.8441796 9.7283888 -0.39827472 0.95121706
-7.7213473 9.826211 -0.39827675 0.95121688
-7.5972652 9.9224997 -0.3982788 0.95121676
-7.3456054 10.1104 -0.398283 0.95121622
-7.2180467 10.201992 -0.39828509 0.9512158
-7.0892577 10.291933 -0.39828727 0.95121568
-6.5633593 10.635361 -0.39829603 0.95121461
-6.4292383 10.717021 -0.39829829 0.95121449
-6.1580076 10.875381 -0.39830282 0.95121366
-6.0208788 10.951933 -0.39830512 0.95121354
-5.7592187 11.129667 -0.39937714 0.95108545
-5.6039062 11.171309 -0.39831215 0.95121258
-5.5408592 11.77502 -0.41474044 0.94925237
-5.5331054 12.152558 -0.42555454 0.94796401
-5.5163279 12.970605 -0.4492037 0.94515318
-5.5030079 13.899101 -0.47641948 0.94192863
-5.4957032 14.407041 -0.49142253 0.94015557
-5.2378516 14.840683 -0.50156552 0.93895894
-4.6748829 15.027851 -0.50157511 0.93895781
-4.4857225 15.085546 -0.50157833 0.93895721
-4.2957811 15.140732 -0.50158161 0.93895721
-4.1052341 15.193701 -0.50158489 0.9389565
-3.9139843 15.24413 -0.50158811 0.93895638
-3.722168 15.292236 -0.50159144 0.93895584
-3.5297265 15.33793 -0.50159472 0.93895537
-3.143203 15.421953 -0.50160134 0.93895477
-2.9491992 15.460351 -0.50160474 0.93895429
-2.7546875 15.496249 -0.50160801 0.93895406
-2.5597656 15.529765 -0.50161141 0.93895358
-2.3644335 15.560801 -0.50161481 0.93895322
-2.16875 15.589414 -0.50161815 0.93895274
-1.7763281 15.639199 -0.50162494 0.93895191
-1.5796484 15.660429 -0.50162834 0.93895143
-1.1856445 15.695361 -0.50163513 0.93895072
-0.98832029 15.70913 -0.50163853 0.9389503
-0.7908203 15.720448 -0.50164199 0.93894976
-0.59324217 15.729248 -0.50164545 0.93894941
-0.39552733 15.735566 -0.50164884 0.93894899
-0.19777343 15.739365 -0.5016523 0.93894875
3.9062499e-05 15.740654 -0.5016557 0.93894857
0.39560547 15.735976 -0.50166261 0.93894744
0.79093748 15.721298 -0.50166953 0.9389466
1.7766016 15.641152 -0.50168675 0.93894452
1.9729687 15.617646 -0.50169021 0.93894434
2.5498438 14.343545 -0.4642939 0.94336379
2.541621 13.323466 -0.43227538 0.94716454
3.2624218 12.074199 -0.39860356 0.9511779
3.3039062 10.16831 -0.34073982 0.95811439
3.4889452 9.8853121 -0.33409065 0.95891476
4.4574022 11.68501 -0.39857426 0.95118123
4.6038671 11.627978 -0.39857063 0.95118159
4.7495704 11.569053 -0.39856708 0.95118225
4.8944921 11.508379 -0.39856353 0.9511826
5.0387301 11.445868 -0.39856002 0.95118296
5.3246484 11.315419 -0.39855301 0.95118386
5.7471871 11.106397 -0.3985427 0.95118517
6.024375 10.958261 -0.398536 0.951186
6.1616015 10.88166 -0.39853272 0.95118612
6.2978125 10.803262 -0.39852944 0.95118654
7.0568748 10.816923 -0.41161045 0.94962561
7.1923046 10.727519 -0.41161293 0.94962507
4.5123048 6.5507517 -0.25350848 0.96866745
4.5798435 6.4730954 -0.2527104 0.96876436
4.5341601 5.9218554 -0.23769715 0.9705925
4.6229296 5.8831444 -0.23845492 0.97049999
5.0153317 6.2199903 -0.25464442 0.96852916
5.1014843 6.1666112 -0.25506303 0.9684782
8.3574219 9.847744 -0.41163412 0.94962275
8.7228317 9.5259371 -0.41164085 0.9496218
8.841855 9.4156151 -0.41164303 0.94962162
8.9595308 9.3038082 -0.4116452 0.94962138
9.0757618 9.1905174 -0.41164732 0.9496212
9.4158592 8.842041 -0.41165364 0.94962049
9.526289 8.7231054 -0.41165569 0.94962007
9.6351557 8.6027441 -0.41165769 0.94962001
9.7425385 8.4810152 -0.41165969 0.94961983
9.8484373 8.3579683 -0.41166168 0.94961941
10.055469 8.1079102 -0.41166553 0.94961894
1.2656446 0.91952145 -0.049856413 0.99375874
1.2657226 0.89549804 -0.049412686 0.99381417
1.2658007 0.87190425 -0.048984412 0.99386764
1.2659765 0.82587886 -0.048171919 0.99396902
1.2661718 0.75958985 -0.047056884 0.99410826
1.2663281 0.71702147 -0.046377257 0.99419302
1.3307812 0.70994139 -0.048068658 0.9939819
1.3720117 0.70996094 -0.049231946 0.99383664
1.415293 0.70995116 -0.050461348 0.99368328
1.50875 0.70996094 -0.053140525 0.99334908
1.5592968 0.70995116 -0.054602776 0.99316674
1.6693358 0.70995116 -0.057811737 0.9927665
1.7293359 0.70995116 -0.059576757 0.99254656
1.7931445 0.70995116 -0.061462861 0.99231148
1.8611327 0.70994139 -0.063483007 0.99205989
2.0101953 0.65315425 -0.067360379 0.99157679
11.993789 3.5663867 -0.39878207 0.95115656
12.097929 3.4324901 -0.40077817 0.95091814
12.079844 3.2639258 -0.39878944 0.95115566
13.889453 3.1964257 -0.454225 0.94455725
15.432343 3.1453807 -0.50193775 0.93891484
15.470664 2.9511817 -0.50193864 0.93891484
15.539941 2.5614941 -0.50194019 0.93891484
15.570976 2.3660254 -0.50194097 0.93891454
15.599472 2.170166 -0.50194168 0.93891454
15.705117 1.1863965 -0.50194454 0.93891394
15.72996 0.79132813 -0.50194544 0.938914
15.744883 0.39580077 -0.50194609 0.938914
15.748711 0.19792968 -0.50194639 0.93891358
15.74498 -0.39580077 -0.50194699 0.93891358
15.718828 -0.98893553 -0.5019471 0.93891376
15.705175 -1.1863867 -0.5019471 0.93891376
15.67039 -1.5806738 -0.50194693 0.93891376
15.649316 -1.7774805 -0.50194675 0.93891364
15.625761 -1.9739844 -0.50194657 0.93891364
15.571152 -2.366035 -0.50194603 0.93891388
15.391719 -3.3390527 -0.50194395 0.93891442
15.254902 -3.9167869 -0.50194216 0.93891454
15.204492 -4.1081543 -0.5019415 0.93891454
15.096367 -4.4889355 -0.50194001 0.93891484
15.03875 -4.6782908 -0.50193924 0.9389149
2.0101953 -0.65313476 -0.067360498 0.99157685
2.0102735 -0.68123043 -0.067645341 0.99154139
2.0103905 -0.70954102 -0.067943759 0.99150425
1.933789 -0.70995116 -0.065650403 0.99178976
1.8611327 -0.70994139 -0.063482776 0.99205989
1.7931445 -0.70995116 -0.061462861 0.99231148
1.6693164 -0.70995116 -0.057812002 0.99276656
1.6127343 -0.70994139 -0.056157112 0.99297291
1.5087695 -0.70994139 -0.053140029 0.99334902
1.4608203 -0.70995116 -0.051761933 0.99352098
1.3307421 -0.70996094 -0.048068579 0.99398196
1.2914063 -0.70993161 -0.046965826 0.99411964
1.2661328 -0.78133786 -0.047415275 0.99406344
1.2660546 -0.8034277 -0.047786903 0.99401706
1.2657812 -0.87190425 -0.048984449 0.9938677
1.2657226 -0.89549804 -0.04941288 0.99381417
1.265625 -0.91951168 -0.049856298 0.99375886
9.9345894 -7.6065331 -0.39876369 0.95115882
9.8381252 -7.7307224 -0.39876217 0.95115918
9.6407423 -7.9754882 -0.39875895 0.95115924
9.5397263 -8.0959568 -0.39875737 0.95115948
9.0123825 -8.6788177 -0.39874879 0.95116037
8.9025393 -8.7913275 -0.39874703 0.95116073
9.3019142 -9.4195013 -0.42190301 0.94839889
9.1827345 -9.5356054 -0.42190108 0.94839919
9.0621681 -9.6502142 -0.42189911 0.94839936
8.9401169 -9.7632418 -0.42189711 0.94839978
8.8167181 -9.8747749 -0.42189506 0.9483999
8.5656643 -10.093105 -0.42189094 0.9484005
7.6236911 -9.2154102 -0.38116789 0.95326269
8.3092184 -10.305107 -0.42188671 0.94840091
8.1790619 -10.408691 -0.42188454 0.94840097
6.3198047 -9.1747456 -0.35505405 0.95639378
7.3715625 -10.994824 -0.4218711 0.9484027
7.2327733 -11.086553 -0.42186877 0.94840288
6.8096485 -11.351054 -0.42186171 0.94840389
6.6664257 -11.435664 -0.42185932 0.94840419
4.8789062 -9.1450195 -0.33033553 0.95936716
6.0833006 -11.755898 -0.42184952 0.94840533
5.6358008 -11.976641 -0.42184195 0.9484061
5.4847851 -12.046435 -0.42183939 0.94840652
5.3329687 -12.114316 -0.42183679 0.94840682
5.1802735 -12.180332 -0.42183426 0.94840705
4.24791 -12.535429 -0.42181838 0.94840908
3.9315038 -12.638085 -0.42181301 0.94840962
3.1300976 -12.85955 -0.42179927 0.94841135
1.936875 -8.4162893 -0.27523798 0.9660278
2.8058789 -12.933984 -0.4217937 0.94841206
2.6431251 -12.968144 -0.42179093 0.94841236
2.3163867 -13.030313 -0.4217853 0.94841295
1.4492773 -8.7922659 -0.28398991 0.96496665
1.9881641 -13.084238 -0.42177963 0.94841361
1.4935547 -13.149619 -0.42177108 0.94841456
0.80261719 -9.1004686 -0.29115713 0.96409857
0.99687499 -13.196289 -0.4217625 0.94841564
0.83097655 -13.207676 -0.42175964 0.94841599
0.49878904 -13.224179 -0.42175388 0.94841677
0.16628906 -13.232441 -0.42174807 0.94841719
1.953125e-05 -13.233339 -0.42174518 0.94841772
-0.16624999 -13.232226 -0.42174232 0.94841796
-1.1625 -13.181464 -0.42172492 0.94842041
-2.315918 -13.027782 -0.42170465 0.94842267
-2.479414 -12.997568 -0.42170179 0.94842303
-2.642539 -12.965342 -0.4216989 0.94842321
-2.8052342 -12.931005 -0.42169604 0.94842362
-2.9674804 -12.894638 -0.42169318 0.94842398
-3.2905469 -12.81584 -0.42168745 0.94842458
-3.6115234 -12.728906 -0.42168182 0.94842535
-3.7711327 -12.682422 -0.42167896 0.94842577
-4.0886326 -12.583525 -0.42167336 0.94842625
-4.246367 -12.530995 -0.42167053 0.94842684
-4.5599022 -12.420244 -0.42166495 0.9484272
-3.4462695 -9.0343943 -0.30816379 0.96204197
-4.8705077 -12.301542 -0.42165941 0.94842798
-5.0246482 -12.239267 -0.42165667 0.94842839
-5.1780272 -12.175077 -0.42165393 0.94842875
-5.330586 -12.108994 -0.42165121 0.94842899
-5.7830858 -11.899277 -0.42164314 0.94842982
-5.9320898 -11.825527 -0.42164046 0.94843042
-6.0802341 -11.750049 -0.4216378 0.94843042
-6.3734765 -11.59332 -0.42163253 0.94843137
-6.5186329 -11.512285 -0.42162994 0.94843149
-6.80582 -11.344697 -0.42162475 0.94843209
-7.0886717 -11.169961 -0.42161962 0.94843262
-7.2284374 -11.079912 -0.42161709 0.94843298
-7.3670311 -10.988125 -0.42161459 0.9484334
-6.2043748 -9.0072069 -0.34857041 0.95717281
-7.6407418 -10.799423 -0.42160961 0.94843388
-8.0422268 -10.503593 -0.42160231 0.94843471
-8.6856251 -9.9775972 -0.42159057 0.9484362
-8.005703 -8.9665232 -0.38306063 0.95303279
-9.0553122 -9.6429682 -0.42158377 0.94843721
-9.1757421 -9.5283785 -0.42158157 0.94843739
-9.4121876 -9.2946682 -0.42157722 0.94843799
-7.9633985 -7.6687012 -0.35233584 0.95671993
-1.0347656 -0.94754881 -0.044716757 0.99440062
-1.0348828 -0.92401367 -0.044215851 0.99446309
-1.0353906 -0.79280269 -0.041561279 0.99479473
-1.0354687 -0.77239257 -0.041171532 0.99484348
-1.0355663 -0.75239259 -0.040795211 0.99489033
-1.0356445 -0.7327441 -0.040432088 0.99493569
-1.0357031 -0.71342772 -0.04008171 0.9949795
-1.0588672 -0.70995116 -0.040630303 0.99491102
-1.1503515 -0.70995116 -0.043082923 0.99460471
-1.2178515 -0.70994139 -0.044926375 0.99437433
-1.2537695 -0.70994139 -0.045919877 0.99425042
-1.3307226 -0.70995116 -0.048068658 0.99398208
-1.5087109 -0.70995116 -0.053140599 0.99334919
-1.5592577 -0.70995116 -0.054602966 0.99316686
-1.6126952 -0.70994139 -0.056157224 0.99297303
-1.780957 -0.70511717 -0.061046865 0.99236357
-1.7809374 -0.67936522 -0.060748059 0.99240071
-13.752617 -4.4684863 -0.46085212 0.9437719
-14.337265 -4.4600682 -0.47852597 0.94167942
-15.23877 -3.9126463 -0.50141144 0.93897712
-15.286718 -3.7208397 -0.50141042 0.93897718
-15.375273 -3.3354883 -0.50140846 0.93897766
-15.415977 -3.1420116 -0.50140756 0.93897766
-15.454257 -2.9480565 -0.50140667 0.9389776
-15.490039 -2.7535937 -0.50140584 0.93897778
-15.554257 -2.3634667 -0.50140429 0.93897808
-15.60873 -1.9718261 -0.50140291 0.93897814
-15.671914 -1.3821191 -0.50140119 0.93897831
-15.70164 -0.98783201 -0.50140029 0.93897849
-15.712792 -0.79046875 -0.50139987 0.93897861
-15.721503 -0.59293944 -0.50139946 0.93897849
-15.727695 -0.39533201 -0.50139916 0.93897861
-15.731367 -0.19768554 -0.50139892 0.93897879
-14.473769 -0 -0.50142056 0.94371617
-14.472656 0.18188477 -0.50142044 0.94371605
-14.455449 0.72724611 -0.50142014 0.94371635
-14.445156 0.90881836 -0.50142014 0.94371641
-14.417753 1.2715331 -0.5014202 0.94371641
-14.359629 1.8140625 -0.50142068 0.94371623
-14.309531 2.174336 -0.50142109 0.94371611
-14.281094 2.3539941 -0.50142139 0.94371605
-14.21748 2.7121484 -0.50142217 0.94371587
-14.182246 2.8905859 -0.50142258 0.94371599
-14.144804 3.0685742 -0.50142306 0.94371599
-14.105117 3.2460742 -0.50142354 0.94371599
-14.063281 3.4230762 -0.50142407 0.94371575
-13.852656 3.5567675 -0.49546713 0.94436526
-11.955664 3.555078 -0.43210846 0.9513036
-11.442344 3.5595508 -0.41513932 0.95317036
-11.108788 3.6094823 -0.40465167 0.95432603
-10.886953 3.6892967 -0.39822817 0.95503443
-10.839766 3.8258104 -0.39822882 0.95503432
-1.7818359 0.70547849 -0.066391408 0.9923591
-1.6692578 0.70995116 -0.062842824 0.99276608
-1.3719531 0.70996094 -0.05351631 0.99383628
-1.3307421 0.70993161 -0.052251622 0.99398148
-1.2913672 0.70995116 -0.051053084 0.99411923
-1.1503711 0.70995116 -0.046832006 0.99460411
-1.1186719 0.70996094 -0.04590103 0.9947111
-1.0882031 0.70996094 -0.045013387 0.99481308
-1.0588672 0.70995116 -0.044166144 0.99491054
-1.035 0.71296871 -0.043540802 0.99498242
-1.0349414 0.73226559 -0.043921318 0.99493861
-1.0348828 0.75189453 -0.044315413 0.99489325
-1.0347852 0.77188474 -0.044723853 0.9948464
-1.0346875 0.7922461 -0.045146942 0.99479783
-1.0344921 0.83417964 -0.046039693 0.99469525
-1.0343945 0.85578126 -0.046510238 0.99464113
-1.0342969 0.87782222 -0.046998098 0.9945851
-1.0342187 0.90033203 -0.047504157 0.99452692
-8.380332 7.8697166 -0.39826736 0.95503014
-8.2808199 7.9744139 -0.39826897 0.95503002
-8.0778904 8.1800776 -0.39827231 0.95502955
-7.7639451 8.4788475 -0.39827743 0.95502895
-7.6567969 8.5757713 -0.39827919 0.95502883
-7.3282614 8.8583784 -0.39828458 0.95502818
-7.2164059 8.9498043 -0.39828646 0.955028
-6.9892774 9.1284275 -0.39829025 0.95502752
-6.6403513 9.385498 -0.39829603 0.95502692
-6.521914 9.4682617 -0.39829803 0.95502669
-6.4024606 9.5494919 -0.39830002 0.95502651
-6.281992 9.6292181 -0.39830199 0.95502639
-6.0380859 9.7841597 -0.39830607 0.95502585
-5.9146872 9.8593159 -0.39830813 0.95502561
-5.6651173 10.004961 -0.39831233 0.95502514
-5.5848827 10.158936 -0.40161735 0.95466065
-5.5746093 10.44915 -0.41028833 0.95370471
-5.5638671 10.752226 -0.41940901 0.9527002
-5.5408397 11.40081 -0.43913671 0.9505313
-5.5324607 11.757119 -0.4501479 0.94932294
-5.5211325 12.541826 -0.47472757 0.94663084
-5.4983592 13.393193 -0.50156254 0.94370061
-5.3296876 13.461299 -0.5015654 0.94370025
-5.1601171 13.527305 -0.50156826 0.9436999
-4.9897656 13.591123 -0.50157118 0.94369972
-3.9519529 13.928847 -0.50158888 0.94369781
-3.7766211 13.977529 -0.50159186 0.94369739
-3.4242187 14.068164 -0.50159794 0.9436968
-3.2472265 14.110225 -0.50160092 0.94369626
-3.0696094 14.149912 -0.50160402 0.94369626
-2.8916211 14.18751 -0.50160706 0.94369572
-2.3548827 14.286709 -0.5016163 0.94369459
-1.9951562 14.341523 -0.5016225 0.943694
-1.8147656 14.365507 -0.5016256 0.94369388
-1.0907031 14.438954 -0.50163811 0.94369233
-0.72749996 14.461953 -0.50164443 0.94369173
-0.54574215 14.470049 -0.50164759 0.94369137
-0.18191406 14.479404 -0.50165391 0.9436906
0.18199219 14.47955 -0.50166029 0.94369
0.36394531 14.476231 -0.50166345 0.94368958
0.5458203 14.470654 -0.50166661 0.94368911
0.72761714 14.462705 -0.50166976 0.94368887
1.4533983 14.408271 -0.50168246 0.94368738
1.6343554 14.388926 -0.50168562 0.9436872
1.8150781 14.367353 -0.50168878 0.94368678
2.1755664 14.317353 -0.5016951 0.94368625
2.5370312 13.299335 -0.46904147 0.94725293
2.5289843 12.408105 -0.4386957 0.95057976
2.5805664 11.213223 -0.39861563 0.9549914
2.7212501 11.179883 -0.39861748 0.95499152
2.8614843 11.144736 -0.39861405 0.95499182
3.001328 11.107832 -0.39861059 0.954992
3.140625 11.06912 -0.39860719 0.95499253
3.4177344 10.986485 -0.39860046 0.95499337
3.3030078 10.165518 -0.37029117 0.95812184
3.3424022 9.8632717 -0.36078241 0.95917493
3.4878709 9.8823147 -0.36305326 0.95892328
3.6186523 9.8563185 -0.36374912 0.95884717
4.6354685 10.529853 -0.39857087 0.95499647
4.7673631 10.470634 -0.39856765 0.954997
4.8985353 10.409863 -0.39856446 0.95499718
5.2872653 10.217597 -0.39855507 0.95499825
5.415195 10.150244 -0.39855197 0.95499867
5.5423045 10.081387 -0.39854893 0.95499873
5.6684961 10.01083 -0.39854586 0.95499921
5.7937889 9.9387112 -0.39854285 0.95499969
5.9181638 9.8650484 -0.39853987 0.95499998
6.1641016 9.7130661 -0.39853397 0.9550007
6.4061718 9.5549803 -0.39852813 0.95500118
4.5123048 6.5507517 -0.27556872 0.96866459
4.5798435 6.4730954 -0.2747018 0.96876156
4.7094922 6.4820409 -0.27757153 0.96844047
4.490078 6.0195117 -0.26015955 0.97039044
4.5324607 5.9196386 -0.25828421 0.97060072
5.0153122 6.2199903 -0.2768032 0.96852636
7.9134569 8.8631439 -0.41162744 0.95355719
8.0242577 8.7630568 -0.41162947 0.9535569
8.133769 8.661582 -0.41163149 0.95355672
8.5588284 8.2421093 -0.41163939 0.95355594
8.9623432 7.8018355 -0.41164687 0.95355493
1.2646874 0.94332027 -0.0546574 0.99370509
1.2647656 0.91889644 -0.054158401 0.99376243
1.2649609 0.87132812 -0.053211708 0.99387109
1.2651563 0.82534176 -0.052329864 0.99397236
1.2652344 0.80291992 -0.051911812 0.99402034
1.2652929 0.78084958 -0.051508445 0.99406672
1.2653711 0.75911129 -0.051119078 0.99411142
1.3307812 0.70994139 -0.052251622 0.9939813
1.3720117 0.70996094 -0.053516157 0.9938361
1.5593359 0.70995116 -0.059354588 0.99316597
1.6127539 0.70997071 -0.061044004 0.99297214
1.7293359 0.70995116 -0.064761467 0.99254584
1.7931445 0.70995116 -0.066812053 0.99231076
1.8611327 0.70994139 -0.069007605 0.99205917
2.0125196 0.71030271 -0.073934324 0.99149448
2.0124218 0.68194336 -0.073609352 0.99153167
2.0123045 0.65381837 -0.073299177 0.99156725
11.03332 3.2808008 -0.3987712 0.95497447
11.944765 3.2274218 -0.42864585 0.95168412
12.521054 3.2148535 -0.4478381 0.94957596
13.171406 3.2059765 -0.46962169 0.94718921
13.889453 3.1964257 -0.49375445 0.9445523
14.15875 3.0715821 -0.50191563 0.94366211
14.196269 2.8934276 -0.50191647 0.94366193
14.231524 2.7148046 -0.5019173 0.94366187
14.264531 2.5357616 -0.50191808 0.94366181
14.32375 2.1765039 -0.50191945 0.94366181
14.350039 1.9963477 -0.5019201 0.94366151
14.373984 1.8158495 -0.5019207 0.94366157
14.395781 1.6351074 -0.5019213 0.94366115
14.415195 1.4540722 -0.50192183 0.94366115
14.432304 1.2728027 -0.50192231 0.94366121
14.447167 1.0913671 -0.50192279 0.94366121
14.478027 0.54607421 -0.50192392 0.94366121
14.483749 0.36408201 -0.50192422 0.94366121
14.487187 0.18208008 -0.50192446 0.94366115
14.488339 9.7656248e-06 -0.50192463 0.94366115
14.483828 -0.36408201 -0.50192493 0.94366091
14.447206 -1.0913671 -0.50192511 0.94366103
14.39582 -1.6350976 -0.50192481 0.94366097
14.374063 -1.8158691 -0.50192463 0.94366127
14.350117 -1.9963379 -0.5019244 0.94366127
14.295429 -2.356328 -0.5019238 0.94366121
14.231718 -2.714834 -0.50192308 0.94366115
14.196465 -2.8934667 -0.50192267 0.94366115
14.158984 -3.0716209 -0.50192219 0.94366121
14.119258 -3.2492871 -0.50192171 0.94366121
14.077305 -3.4264452 -0.50192112 0.94366127
13.986718 -3.7791307 -0.50191998 0.94366139
2.0123045 -0.65382808 -0.073299333 0.99156725
2.0125 -0.71030271 -0.073934704 0.9914946
1.933789 -0.70995116 -0.071363598 0.99178898
1.8611327 -0.70994139 -0.069007151 0.99205917
1.6127343 -0.70994139 -0.061043967 0.99297225
1.5592968 -0.70995116 -0.059354436 0.99316609
1.5087695 -0.70994139 -0.057764586 0.99334842
1.4608203 -0.70995116 -0.056266479 0.99352038
1.4152734 -0.70995116 -0.054852486 0.9936828
1.3307421 -0.70996094 -0.052251775 0.99398142
1.2914063 -0.70993161 -0.051053274 0.99411911
1.2655078 -0.71656251 -0.050381508 0.99419624
1.2654492 -0.73767579 -0.05074352 0.99415457
1.2653906 -0.75909179 -0.051119041 0.99411142
1.2653124 -0.7808398 -0.05150852 0.99406672
1.2650781 -0.84814453 -0.052763022 0.99392259
1.2649609 -0.87130857 -0.053211823 0.99387115
1.2648633 -0.89490235 -0.053676911 0.99381775
1.2646874 -0.9433105 -0.054657478 0.99370515
9.1389647 -6.997334 -0.3987492 0.95497686
8.9601173 -7.2247167 -0.39874634 0.95497733
8.8686323 -7.3367577 -0.39874488 0.95497727
8.681406 -7.5572362 -0.39874184 0.95497763
8.5857029 -7.6656833 -0.39874029 0.95497787
8.3903122 -7.878994 -0.3987371 0.95497811
8.2905855 -7.9837399 -0.39873549 0.95497841
8.1895704 -8.0872459 -0.39873382 0.95497864
7.7727537 -8.488369 -0.398727 0.95497936
7.6654687 -8.5853224 -0.39872524 0.95497954
7.5569139 -8.6809568 -0.39872345 0.95497972
7.4472265 -8.7751951 -0.39872164 0.95497984
7.7623434 -9.3830662 -0.42187622 0.95242876
7.4030857 -9.6688185 -0.42187026 0.95242941
7.2809763 -9.7610645 -0.42186821 0.95242953
7.1577344 -9.851738 -0.42186618 0.95242971
6.3198047 -9.1747456 -0.38595125 0.95638984
6.6535544 -10.198721 -0.42185774 0.95243067
6.3950977 -10.362577 -0.42185342 0.9524312
6.2643552 -10.44209 -0.42185128 0.95243138
6.1325779 -10.519921 -0.42184904 0.95243168
5.9998827 -10.596093 -0.42184681 0.95243192
4.8789062 -9.1450195 -0.3590818 0.95936352
5.3225389 -10.951601 -0.42183539 0.95243329
5.1844726 -11.017549 -0.42183307 0.95243359
4.7654881 -11.204961 -0.42182598 0.95243424
4.4823046 -11.321034 -0.42182118 0.9524349
4.3396873 -11.376426 -0.42181876 0.95243502
4.1963673 -11.430038 -0.42181632 0.95243514
4.0523829 -11.481729 -0.42181385 0.95243567
3.9077733 -11.531699 -0.4218114 0.95243585
3.4703124 -11.670586 -0.42180392 0.95243663
3.3233593 -11.713183 -0.42180142 0.95243698
3.0279295 -11.792851 -0.42179638 0.95243758
2.879492 -11.829922 -0.42179382 0.95243776
1.936875 -8.4162893 -0.29918313 0.9660247
2.2813866 -11.959385 -0.42178357 0.95243883
2.1309373 -11.987031 -0.42178094 0.95243913
1.8289844 -12.036621 -0.42177573 0.95243979
1.6775585 -12.058613 -0.42177314 0.95243996
1.2218359 -12.113027 -0.42176527 0.95244092
0.80261719 -9.1004486 -0.31649464 0.96409541
0.91705078 -12.139785 -0.42176002 0.95244139
0.45886716 -12.165507 -0.42175204 0.95244223
0.30597657 -12.170185 -0.42174938 0.95244271
1.953125e-05 -12.173857 -0.42174408 0.95244336
-0.30591795 -12.169892 -0.42173874 0.95244384
-0.61162108 -12.158232 -0.42173338 0.95244431
-0.91699219 -12.138838 -0.42172804 0.95244503
-1.3738086 -12.09541 -0.42172009 0.95244592
-1.6773242 -12.056894 -0.42171472 0.95244658
-1.8286718 -12.034804 -0.4217121 0.95244682
-1.9797461 -12.01082 -0.42170942 0.95244706
-2.4309959 -11.927422 -0.42170149 0.95244801
-2.7299414 -11.862441 -0.42169625 0.95244849
-3.3224218 -11.70998 -0.42168576 0.95244974
-3.4692774 -11.667285 -0.42168316 0.95244986
-3.6155858 -11.622607 -0.42168057 0.95245045
-3.761328 -11.57623 -0.42167795 0.95245057
-3.9065039 -11.527968 -0.42167541 0.95245087
-4.0509958 -11.477901 -0.42167285 0.95245117
-3.4462695 -9.0343943 -0.33498186 0.96203858
-4.4806442 -11.316855 -0.42166519 0.952452
-4.763535 -11.200546 -0.4216601 0.95245266
-4.9039063 -11.139755 -0.42165762 0.95245278
-5.1822267 -11.012852 -0.42165264 0.95245343
-5.5935545 -10.809561 -0.42164528 0.95245403
-5.9968748 -10.590839 -0.42163801 0.95245498
-6.2610936 -10.43666 -0.42163324 0.95245552
-6.3916798 -10.357148 -0.42163089 0.9524557
-6.5213084 -10.275937 -0.42162853 0.95245594
-7.0292187 -9.9350777 -0.42161933 0.95245701
-7.1534567 -9.8459082 -0.42161709 0.95245731
-7.2766013 -9.7552147 -0.42161483 0.95245737
-7.3985348 -9.6629095 -0.42161262 0.95245785
-7.5193357 -9.5691404 -0.42161041 0.95245808
-7.6389451 -9.4738569 -0.42160824 0.95245826
-7.990449 -9.1790524 -0.42160177 0.9524591
-7.6602926 -8.5796385 -0.39845851 0.95500892
-8.0815039 -8.1837111 -0.39845076 0.95501
-8.183672 -8.0814838 -0.39844885 0.95501012
-7.9633985 -7.6687012 -0.38301331 0.95671606
-8.3841009 -7.8732128 -0.39844516 0.95501053
-1.0341406 -0.92333984 -0.048028409 0.9944666
-1.034336 -0.8778125 -0.046998177 0.99458498
-1.0344141 -0.85576171 -0.046510354 0.99464113
-1.0345117 -0.83417964 -0.046039466 0.99469519
-1.0346093 -0.81301755 -0.045585174 0.99474734
-1.0346875 -0.7922461 -0.045146942 0.99479783
-1.0348632 -0.75189453 -0.044315413 0.99489331
-1.0588672 -0.70995116 -0.044166144 0.99491054
-1.1186719 -0.70994139 -0.045900915 0.9947111
-1.2537695 -0.70994139 -0.049916077 0.99424988
-1.2913672 -0.70995116 -0.051053122 0.99411923
-1.3307226 -0.70995116 -0.0522517 0.99398154
-1.5087109 -0.70995116 -0.057764929 0.9933486
-1.6126952 -0.70994139 -0.061044235 0.99297237
-1.6692578 -0.70995116 -0.062842861 0.99276608
-1.7818164 -0.70547849 -0.066391602 0.99235916
-1.7817773 -0.6796875 -0.06606628 0.99239641
-12.703632 -4.483613 -0.46670336 0.94750893
-13.752617 -4.4685059 -0.5009557 0.94376683
-13.873808 -4.1254101 -0.5014354 0.94371468
-13.973046 -3.775449 -0.50143331 0.94371486
-14.105331 -3.2461035 -0.50143045 0.94371521
-14.217617 -2.7121484 -0.50142795 0.94371533
-14.250527 -2.5332618 -0.50142717 0.94371551
-14.335878 -1.9943554 -0.50142515 0.94371557
-14.359804 -1.8140625 -0.50142449 0.94371557
-14.381406 -1.6334472 -0.50142395 0.94371581
-14.400762 -1.4526074 -0.50142342 0.94371593
-14.417891 -1.2715429 -0.50142288 0.94371587
-14.432695 -1.0902636 -0.50142246 0.94371599
-14.445253 -0.90879881 -0.50142205 0.94371599
-14.455507 -0.72721678 -0.50142169 0.94371611
-14.463476 -0.54550779 -0.50142133 0.94371623
-14.469218 -0.36370116 -0.50142103 0.94371611
-13.400214 0.16839844 -0.50143909 0.94777077
-13.391758 0.50509763 -0.50143892 0.94777077
-13.384336 0.67333984 -0.5014388 0.94777083
-13.363203 1.0094922 -0.50143886 0.94777077
-13.273438 1.8465625 -0.50143951 0.94777077
-13.24918 2.0132325 -0.50143975 0.94777083
-13.194414 2.3455663 -0.50144035 0.94777077
-13.09668 2.8411913 -0.50144154 0.9477706
-11.43086 3.5559666 -0.44793063 0.95321167
-10.737266 3.6385741 -0.42420202 0.95563442
-1.7825586 0.65446287 -0.071053311 0.99242789
-1.7826171 0.6800195 -0.071390383 0.99239206
-1.7292578 0.70996094 -0.069946937 0.99254537
-1.5087109 0.70995116 -0.062390212 0.99334794
-1.4607812 0.70995116 -0.060772017 0.9935199
-1.4152343 0.70995116 -0.059244841 0.99368232
-1.2913672 0.70995116 -0.055141218 0.99411863
-1.2537891 0.70995116 -0.053912964 0.99424922
-1.2178515 0.70994139 -0.052746505 0.99437326
-1.1833984 0.70993161 -0.05163765 0.99449134
-1.1186719 0.70996094 -0.049576417 0.99471056
-1.0882031 0.70996094 -0.04861759 0.99481261
-1.0340821 0.77136719 -0.04827198 0.99484932
-1.0339843 0.79168946 -0.048728254 0.99480087
-1.033789 0.83358395 -0.049691048 0.99469841
-1.0336914 0.85516602 -0.05019886 0.99464434
-1.0335938 0.87718749 -0.05072483 0.99458832
-1.0333594 0.92264646 -0.051836167 0.99447018
-1.0332421 0.94614255 -0.052422635 0.99440783
-7.5737891 7.479248 -0.39828181 0.95828789
-7.2866015 7.7594919 -0.39828649 0.95828736
-7.1885548 7.8504586 -0.3982881 0.95828724
-6.8876367 8.1158791 -0.39829308 0.95828688
-6.7851367 8.2018652 -0.39829478 0.95828658
-6.6815233 8.2865038 -0.39829651 0.95828652
-6.2568555 8.6119137 -0.39830351 0.95828575
-5.9279294 8.8417187 -0.39830902 0.95828521
-5.8164062 8.9155664 -0.39831084 0.95828491
-5.6167579 9.3627148 -0.40853316 0.95723766
-5.5910544 9.5910158 -0.41539484 0.95653504
-5.5702538 10.132334 -0.43263862 0.95477223
-5.5591407 10.420185 -0.44191086 0.95382559
-5.5494919 10.724404 -0.4518204 0.95281506
-5.5433006 11.050528 -0.46258751 0.95171815
-5.5256248 12.136132 -0.49895376 0.94802278
-5.2461915 12.33541 -0.50156808 0.94775796
-5.0908203 12.400478 -0.5015707 0.94775742
-4.9346485 12.463506 -0.50157332 0.94775724
-4.777617 12.52458 -0.50157601 0.94775712
-4.4614453 12.64084 -0.50158137 0.94775647
-3.981914 12.800215 -0.5015896 0.94775563
-3.333828 12.984453 -0.50160062 0.94775432
-3.0064843 13.064258 -0.50160623 0.94775385
-2.8421092 13.101054 -0.50160909 0.94775361
-2.1803124 13.227617 -0.50162047 0.94775248
-2.0139453 13.254043 -0.50162333 0.94775218
-1.847207 13.278388 -0.50162619 0.94775188
-1.1777344 13.354677 -0.50163782 0.94775093
-0.67359376 13.389893 -0.50164652 0.94774973
-0.33689451 13.402715 -0.50165236 0.94774926
0.16847655 13.406123 -0.50166112 0.94774836
0.50535154 13.397793 -0.50166702 0.94774783
0.67367184 13.390527 -0.50166994 0.94774729
1.0099804 13.369482 -0.50167584 0.94774687
1.345664 13.34001 -0.50168169 0.94774634
1.5132031 13.322178 -0.50168461 0.94774586
1.6804687 13.302187 -0.50168759 0.94774556
1.8475391 13.280087 -0.50169051 0.94774532
2.3467968 13.20126 -0.50169927 0.94774437
2.5125 13.1708 -0.50170219 0.94774407
2.5179296 11.606563 -0.44438785 0.95357287
2.6493945 10.318613 -0.39861777 0.95825338
2.7788281 10.284502 -0.39861721 0.95825338
3.0363672 10.21124 -0.39861092 0.9582541
3.2919922 10.131572 -0.39860469 0.95825464
3.6176171 9.8535738 -0.39275444 0.95885438
3.9214647 9.9044724 -0.39858934 0.95825636
4.0456247 9.8543653 -0.39858633 0.95825648
4.1690626 9.8026266 -0.39858332 0.95825702
4.2918749 9.749404 -0.39858034 0.95825732
4.4140429 9.6946583 -0.39857742 0.9582575
4.6562109 9.5805368 -0.39857155 0.95825803
4.7761717 9.5211716 -0.39856863 0.95825851
4.8954296 9.4603415 -0.39856574 0.95825875
5.013906 9.398056 -0.39856288 0.95825881
5.2483983 9.2689161 -0.39855725 0.95825958
5.3644137 9.202178 -0.39855459 0.95825982
5.4796095 9.133955 -0.398552 0.95826018
5.5939059 9.0643358 -0.39854941 0.95826042
5.707324 8.9932814 -0.3985469 0.95826066
5.8198633 8.9207811 -0.39854434 0.95826089
5.9314647 8.8468943 -0.39854205 0.95826113
4.5798435 6.4730954 -0.29669815 0.96875846
4.490078 6.0195117 -0.28099141 0.97038758
4.6215234 5.8813672 -0.27987742 0.97050321
5.0153122 6.2199903 -0.29896712 0.96852326
6.8918357 8.1207905 -0.3985329 0.95826209
7.3266406 8.2059078 -0.41161796 0.95692158
7.4291797 8.113203 -0.41161981 0.95692158
7.5305858 8.019228 -0.41162169 0.9569214
7.38832 7.672246 -0.39854294 0.95826101
7.4842186 7.5788574 -0.3985458 0.95826066
7.5789061 7.4842477 -0.39854869 0.95826042
7.8558593 7.1935058 -0.39856151 0.95825911
7.945703 7.0942674 -0.39856613 0.95825881
8.2077341 6.7900095 -0.39858073 0.95825732
1.2639453 0.91825193 -0.058455467 0.99376601
1.2641406 0.87074214 -0.057434388 0.99387449
1.2643163 0.82479489 -0.056483191 0.99397576
1.2645702 0.758623 -0.055177115 0.99411458
1.264668 0.73721677 -0.054772072 0.99415761
1.2647265 0.71612304 -0.054381371 0.99419922
1.2914453 0.70994139 -0.055141028 0.99411839
1.415293 0.70995116 -0.059245069 0.99368209
1.5592968 0.70995116 -0.064107172 0.99316543
1.6127539 0.70997071 -0.065932006 0.99297142
1.6693358 0.70995116 -0.067874834 0.99276507
1.933789 0.70994139 -0.077078171 0.99178815
2.0145311 0.68264645 -0.079587705 0.99152201
10.902988 3.2420409 -0.42561442 0.95548993
11.926562 3.2224998 -0.46226233 0.95175123
12.520117 3.2146289 -0.48366269 0.94957471
13.033008 3.1722949 -0.50189596 0.94772428
13.108632 2.8437891 -0.50189763 0.94772416
13.143339 2.6788182 -0.50189841 0.94772416
13.30789 1.6811816 -0.50190234 0.94772375
13.361835 1.1784179 -0.50190377 0.94772363
13.375586 1.0104198 -0.50190419 0.94772363
13.396757 0.67395508 -0.5019049 0.94772363
13.40418 0.50556642 -0.50190526 0.94772357
13.412656 0.16855468 -0.5019058 0.94772357
13.41375 9.7656248e-06 -0.50190598 0.94772345
13.412695 -0.16855468 -0.5019061 0.94772345
13.409512 -0.33707032 -0.50190622 0.94772345
13.404219 -0.50556642 -0.50190634 0.94772345
13.387304 -0.84224606 -0.50190639 0.94772333
13.361895 -1.1783984 -0.50190634 0.94772345
13.285781 -1.8482617 -0.50190568 0.94772351
13.235117 -2.1815526 -0.50190514 0.94772363
13.20664 -2.3476954 -0.50190485 0.94772369
13.108788 -2.8437891 -0.50190365 0.94772363
13.071992 -3.0083008 -0.50190324 0.94772369
13.033164 -3.1723144 -0.5019027 0.94772369
12.949316 -3.4988377 -0.50190163 0.94772375
12.904297 -3.6612792 -0.50190103 0.94772387
12.857226 -3.8231347 -0.50190037 0.94772398
12.808203 -3.9843946 -0.50189966 0.94772387
2.0144141 -0.65452147 -0.079251818 0.9915576
2.0145311 -0.682666 -0.079587631 0.99152195
1.933789 -0.70995116 -0.077077866 0.99178815
1.8611327 -0.70994139 -0.074532732 0.99205834
1.7931445 -0.70995116 -0.072161175 0.99231005
1.5592968 -0.70995116 -0.064107172 0.99316543
1.5087695 -0.70994139 -0.062390059 0.99334776
1.4152734 -0.70995116 -0.059244726 0.99368215
1.2914063 -0.70993161 -0.055141028 0.99411851
1.2647265 -0.71612304 -0.054381445 0.99419922
1.2645702 -0.75861329 -0.055177152 0.99411458
1.2644922 -0.7803418 -0.055597037 0.99406993
1.2642187 -0.84759766 -0.056950491 0.99392599
1.2641406 -0.87075192 -0.057434425 0.99387449
1.2640234 -0.89427733 -0.057936095 0.99382132
1.2639062 -0.91827148 -0.058455426 0.99376607
8.4611721 -6.4783788 -0.39873686 0.95824116
8.2956247 -6.6889157 -0.39873421 0.95824146
8.1248627 -6.8952341 -0.39873141 0.95824176
8.0375385 -6.996748 -0.39873004 0.95824194
7.6757421 -7.3916306 -0.39872414 0.95824254
7.5822263 -7.4874997 -0.39872259 0.9582426
7.068203 -7.3398337 -0.38127789 0.96003276
6.9964647 -8.037158 -0.39871299 0.95824373
6.7922654 -8.2104101 -0.39870963 0.95824391
6.263164 -8.6204786 -0.39870086 0.95824492
6.154336 -8.6984863 -0.39869907 0.95824498
6.395586 -9.2847261 -0.42185229 0.95587444
6.0409765 -9.5190334 -0.42184639 0.95587516
5.9208202 -9.5940914 -0.42184436 0.95587564
5.6778126 -9.7398043 -0.42184028 0.95587581
5.5549607 -9.8103514 -0.42183822 0.95587599
5.431211 -9.8793068 -0.42183617 0.95587629
4.8789258 -9.1450386 -0.38783363 0.95935941
5.1811914 -10.012597 -0.42183194 0.95587659
5.0549216 -10.076836 -0.42182982 0.95587695
4.4121094 -10.37413 -0.42181894 0.9558779
4.2813673 -10.428672 -0.42181671 0.9558782
3.8852148 -10.582421 -0.42181 0.95587903
3.4835546 -10.721171 -0.42180315 0.95587969
3.3485546 -10.764101 -0.42180082 0.95587969
2.3898437 -11.016171 -0.42178443 0.9558816
2.2512305 -11.045322 -0.42178208 0.95588166
2.1122265 -11.072637 -0.42177966 0.95588201
1.9729296 -11.098232 -0.42177725 0.95588231
1.6933594 -11.14416 -0.42177245 0.95588291
1.5531836 -11.164531 -0.42177001 0.95588303
1.4127734 -11.183105 -0.42176759 0.9558832
1.131289 -11.21498 -0.42176273 0.95588362
0.84908199 -11.239707 -0.42175785 0.95588422
0.70777345 -11.249413 -0.4217554 0.95588452
0.56632811 -11.257343 -0.42175296 0.95588481
0.42484373 -11.263525 -0.42175049 0.95588499
0.14164062 -11.270508 -0.42174557 0.95588547
-0.14160156 -11.270351 -0.42174065 0.95588613
-0.42480469 -11.263154 -0.4217357 0.95588642
-0.56630856 -11.256816 -0.42173323 0.95588684
-0.70769531 -11.248769 -0.42173076 0.95588702
-0.84898436 -11.238945 -0.42172828 0.95588714
-0.99017578 -11.227284 -0.42172584 0.95588756
-1.1311328 -11.213925 -0.42172337 0.95588768
-1.4125781 -11.181807 -0.42171845 0.95588827
-1.8329883 -11.120459 -0.42171103 0.95588887
-1.972578 -11.096445 -0.42170858 0.95588928
-2.1118751 -11.070723 -0.42170614 0.95588946
-2.2507617 -11.043252 -0.42170367 0.95588976
-2.3893359 -11.013984 -0.42170122 0.95589018
-2.5275586 -10.983056 -0.42169878 0.9558903
-2.6653514 -10.950371 -0.42169639 0.95589054
-2.9396679 -10.879824 -0.42169151 0.95589095
-3.0761132 -10.841924 -0.42168909 0.95589137
-3.2121289 -10.802382 -0.42168671 0.95589149
-3.4824998 -10.718144 -0.42168188 0.95589197
-3.7507226 -10.62711 -0.42167711 0.95589244
-3.4462695 -9.0343943 -0.36180389 0.96203482
-4.54041 -10.314023 -0.42166308 0.95589399
-4.6696091 -10.256074 -0.42166075 0.95589435
-4.9258399 -10.13539 -0.42165619 0.95589471
-5.1789451 -10.00834 -0.42165169 0.95589501
-6.2750583 -9.3594332 -0.42163184 0.95589721
-6.3921289 -9.2798243 -0.42162979 0.95589739
-6.5082226 -9.1987009 -0.42162761 0.95589763
-6.623281 -9.1161718 -0.42162555 0.95589769
-6.3674216 -8.536396 -0.39848095 0.95826757
-6.4741993 -8.4556637 -0.39847898 0.95826769
-6.5798826 -8.3736029 -0.39847708 0.95826793
-6.9921875 -8.0322561 -0.39846954 0.9582687
-7.0925388 -7.9437399 -0.39846769 0.95826882
-7.1917186 -7.8539453 -0.39846587 0.95826918
-7.3867774 -7.6706543 -0.3984623 0.95826948
-7.4825387 -7.5771875 -0.39846054 0.95826972
-7.5771484 -7.4825487 -0.39845878 0.95826977
-7.6705465 -7.3866992 -0.39845705 0.95827001
-7.7627149 -7.2896872 -0.39845535 0.95827025
-1.0333594 -0.92265624 -0.051835936 0.99447018
-1.033496 -0.89967769 -0.051270485 0.99453026
-1.0338086 -0.83357418 -0.049691122 0.99469835
-1.0338867 -0.81244141 -0.049201239 0.9947505
-1.0339843 -0.79170895 -0.048728179 0.99480081
-1.0340625 -0.77134764 -0.048271865 0.99484944
-1.0342969 -0.71246094 -0.046995927 0.99498534
-1.0882031 -0.70995116 -0.048617516 0.99481261
-1.2178515 -0.70994139 -0.052746505 0.99437326
-1.2537695 -0.70994139 -0.053912964 0.99424928
-1.2913672 -0.70995116 -0.055141181 0.99411863
