# .PCD v0.7 - Point Cloud Data file format
VERSION 0.7
FIELDS x y z intensity
SIZE 4 4 4 4
TYPE F F F F
COUNT 1 1 1 1
WIDTH 1083
HEIGHT 1
VIEWPOINT 0 0 0 1 0 0 0
POINTS 1083
DATA ascii
-5.725234 -8.092041 -0.39840579 0.96109468
-5.8264451 -8.0194235 -0.39840251 0.9610948
-5.9266992 -7.9454589 -0.39839926 0.96109533
-6.1243749 -7.7938962 -0.39839286 0.96109593
-6.3182225 -7.6374216 -0.39838657 0.96109647
-6.4136329 -7.557363 -0.39838347 0.96109682
-6.5080662 -7.4761329 -0.39838043 0.961097
-6.6014452 -7.3936815 -0.39837736 0.96109736
-6.7850389 -7.2253222 -0.39837137 0.96109802
-6.964375 -7.0524216 -0.39836556 0.96109861
-7.2251172 -6.7848144 -0.398357 0.96109921
-1.0325 -0.94545895 -0.056267165 0.99441123
-1.0326172 -0.92196286 -0.055638082 0.99447364
-1.0327538 -0.89901364 -0.055031735 0.99453366
-1.0329688 -0.854541 -0.053882025 0.99464756
-1.0332031 -0.81186521 -0.052811813 0.99475354
-1.0335742 -0.73126954 -0.050886497 0.99494427
-1.0336328 -0.71200192 -0.050446469 0.99498802
-1.0882226 -0.70993161 -0.052222252 0.99481201
-1.1503906 -0.70995116 -0.054332428 0.99460298
-1.1834375 -0.70996094 -0.055466231 0.9944905
-1.2914063 -0.70994139 -0.059229735 0.99411786
-1.3307421 -0.70995116 -0.060620002 0.99398023
-1.3720117 -0.70994139 -0.062087171 0.99383485
-1.4152734 -0.70995116 -0.063637696 0.99368149
-1.6692969 -0.70994139 -0.072907485 0.99276447
-1.7293359 -0.70995116 -0.075133286 0.99254429
-1.7835547 -0.70615232 -0.077098578 0.99235016
-1.7834765 -0.68034178 -0.076720275 0.99238759
-1.7834375 -0.65477538 -0.076357611 0.99242336
-11.812793 -4.0030079 -0.5012989 0.95129532
-11.909648 -3.7048826 -0.50129557 0.95129538
-11.955156 -3.5548828 -0.50129396 0.95129579
-12.279746 -2.18292 -0.50128227 0.95129663
-12.330625 -1.8736328 -0.50128031 0.95129704
-12.353203 -1.7185351 -0.50127941 0.95129699
-12.409141 -1.251709 -0.50127721 0.95129722
-12.423886 -1.0956738 -0.50127655 0.95129722
-12.43666 -0.93948239 -0.50127596 0.95129728
-12.456327 -0.62663084 -0.501275 0.95129734
-12.463183 -0.47005859 -0.50127465 0.95129746
-12.471054 -0.15670899 -0.50127405 0.95129752
-11.666133 0.14661132 -0.50129914 0.95436293
-11.658789 0.43974608 -0.50129908 0.95436281
-11.608125 1.1709278 -0.50129986 0.95436299
-11.575117 1.4622754 -0.50130063 0.95436269
-11.534746 1.7527148 -0.50130159 0.95436257
-11.511797 1.8975195 -0.50130218 0.95436257
-11.487012 2.0420215 -0.50130278 0.95436269
-11.336249 2.7592969 -0.50130677 0.95436221
-11.300683 2.9015527 -0.50130779 0.95436221
-11.224257 3.1846287 -0.50130987 0.95436198
-11.096367 3.6054492 -0.50131345 0.9543615
-10.489922 3.7023046 -0.47796896 0.95643979
-1.7842969 0.65507811 -0.081669122 0.99241889
-1.7843554 0.68066406 -0.082057036 0.992383
-1.784453 0.70651364 -0.082461774 0.99234545
-1.5592968 0.70996094 -0.073615 0.99316388
-1.5087304 0.70995116 -0.071643487 0.99334639
-1.4152734 0.70995116 -0.068031579 0.99368078
-1.3719921 0.70994139 -0.066374205 0.9938342
-1.3307421 0.70995116 -0.064805828 0.99397951
-1.2914063 0.70994139 -0.06331905 0.9941172
-1.1834375 0.70994139 -0.059295882 0.99448997
-1.0589257 0.70994139 -0.05477741 0.99490875
-1.0329688 0.71152341 -0.053893849 0.99499071
-1.0326953 0.77030271 -0.055355147 0.99485517
-1.0325781 0.79060543 -0.055877797 0.99480677
-1.0324609 0.81129879 -0.05641922 0.99475664
-1.0322655 0.85393554 -0.057561528 0.99465066
-1.0321094 0.87589842 -0.058164101 0.99459493
-1.0319922 0.89834958 -0.058788758 0.99453706
-6.8124609 6.3973436 -0.40154329 0.96327543
-6.7455859 6.495986 -0.40238106 0.96320015
-6.6783981 6.5950294 -0.40328571 0.96311897
-6.6108789 6.6945019 -0.40425548 0.96303189
-6.5430079 6.7944431 -0.40529478 0.96293873
-6.4747262 6.8949022 -0.40639865 0.96283942
-6.4060154 6.9958787 -0.40757471 0.96273416
-6.3555079 7.1182423 -0.41001669 0.96251488
-6.2654881 7.3827929 -0.41605282 0.96197385
-6.2194138 7.5179977 -0.41923502 0.9616887
-6.1725974 7.655293 -0.42253062 0.9613933
-6.1250391 7.7947264 -0.42594507 0.96108747
-6.0766015 7.9363961 -0.42948034 0.96077102
-5.9772067 8.226943 -0.43693423 0.96010393
-5.8428712 8.7147846 -0.45081949 0.95886248
-5.7655077 9.3424416 -0.47170386 0.95699841
-5.7369528 9.8412304 -0.48945108 0.95541704
-5.622695 10.227627 -0.50147933 0.95434672
-4.9695897 10.560898 -0.50149959 0.95434505
-4.8365235 10.622607 -0.50150377 0.95434463
-4.7026563 10.682627 -0.50150788 0.95434433
-4.2968163 10.852558 -0.50152057 0.9543432
-4.1601562 10.905781 -0.50152481 0.95434278
-4.0228124 10.957304 -0.5015291 0.95434237
-3.4673047 11.145996 -0.50154644 0.95434076
-3.326992 11.18876 -0.50155079 0.95434046
-2.6180077 11.376094 -0.50157303 0.95433843
-2.4748828 11.408174 -0.5015775 0.95433813
-2.1874218 11.467002 -0.5015865 0.95433724
-1.317539 11.599843 -0.50161386 0.95433474
-1.1716796 11.615527 -0.50161844 0.95433456
-1.025625 11.629482 -0.50162309 0.95433402
-0.73304683 11.651807 -0.50163227 0.95433313
-0.44003904 11.666728 -0.50164151 0.95433247
-0.29339844 11.671426 -0.50164616 0.95433211
1.953125e-05 11.675371 -0.5016554 0.9543311
1.0257617 11.630977 -0.50168788 0.95432824
2.0437305 11.496601 -0.50172019 0.9543255
2.1880469 11.470146 -0.50172478 0.95432496
2.3320508 11.441875 -0.50172937 0.95432448
2.3389258 10.781446 -0.4740214 0.95679164
2.3516405 9.6613178 -0.4272382 0.96097171
2.3614256 9.1971779 -0.40799254 0.96269655
2.5324805 8.925703 -0.39864853 0.96353513
2.6444139 8.8932228 -0.39864913 0.96353501
2.7559764 8.8592377 -0.39864817 0.96353519
2.9776952 8.7871389 -0.3986463 0.96353537
3.0878906 8.749033 -0.3986454 0.96353537
3.4153905 8.6263571 -0.39864269 0.96353573
3.6310937 8.5377636 -0.39864096 0.96353585
3.9502733 8.3947945 -0.39863852 0.96353608
4.0554686 8.344492 -0.39863831 0.96353602
4.2638669 8.2399311 -0.39863798 0.96353608
4.4696093 8.130146 -0.39863795 0.96353614
4.6725001 8.0152826 -0.39863798 0.96353608
4.7728515 7.9559274 -0.39863807 0.96353614
4.8724608 7.8953414 -0.39863816 0.96353602
4.9712892 7.8335056 -0.39863822 0.96353602
4.4498439 6.4600778 -0.33704773 0.96908176
5.3585157 7.5736814 -0.39863136 0.96353668
4.3366013 5.9688573 -0.3170065 0.9708932
4.4022264 5.9017477 -0.31635582 0.97095203
4.5253711 5.9103904 -0.31984273 0.97063667
5.9132419 7.1479101 -0.39859614 0.96353984
6.002656 7.0730858 -0.39859906 0.96353954
6.091074 6.997129 -0.39860192 0.96353942
6.1786718 6.9201951 -0.3986111 0.96353859
6.2653513 6.842236 -0.39862463 0.9635374
6.6835546 6.4362206 -0.39867932 0.96353239
6.469707 6.0754786 -0.3813403 0.96509051
6.5512109 5.9988961 -0.38167012 0.96506077
6.8445311 5.6623144 -0.38167971 0.96505982
6.9151754 5.5758786 -0.38168204 0.9650597
7.0531836 5.4003906 -0.3816866 0.96505934
1.2620703 0.94140625 -0.067651555 0.993716
1.2621875 0.917041 -0.06703537 0.9937731
1.262539 0.84648436 -0.065311506 0.99393266
1.2631445 0.71522456 -0.062369 0.99420518
1.2913867 0.70995116 -0.063319243 0.99411726
1.4152539 0.70994139 -0.068031803 0.99368083
1.4607812 0.70995116 -0.06978561 0.99351841
1.5087109 0.70994139 -0.071643293 0.99334645
1.6692773 0.70995116 -0.077941857 0.9927637
1.7931445 0.70994139 -0.082864188 0.99230832
2.0187891 0.68410152 -0.091585428 0.99150223
10.879863 3.2351561 -0.48770294 0.95557255
11.279414 3.0476465 -0.50202096 0.95429856
11.3525 2.7632518 -0.50202352 0.95429832
11.386328 2.6203809 -0.50202477 0.95429832
11.418398 2.4770997 -0.50202596 0.95429814
11.448632 2.3334374 -0.50202703 0.95429814
11.477109 2.1893847 -0.50202805 0.9542979
11.572656 1.6099511 -0.50203174 0.95429778
11.592011 1.464414 -0.50203252 0.9542976
11.625175 1.1726562 -0.50203383 0.95429748
11.661133 0.73367184 -0.50203544 0.95429742
11.68332 -0.14683594 -0.50203705 0.95429724
11.675977 -0.4403711 -0.50203717 0.95429707
11.669512 -0.58707029 -0.50203711 0.95429713
11.651035 -0.88013673 -0.50203687 0.95429724
11.639023 -1.026455 -0.50203663 0.95429742
11.59207 -1.464414 -0.50203562 0.95429736
11.572754 -1.6099805 -0.50203514 0.95429736
11.55162 -1.7552637 -0.5020346 0.9542973
11.528593 -1.9002637 -0.50203407 0.95429754
11.503828 -2.0449998 -0.50203347 0.95429748
11.477187 -2.1893847 -0.50203276 0.9542976
11.44873 -2.3334472 -0.50203198 0.95429772
11.418496 -2.4771094 -0.50203121 0.95429778
11.352636 -2.7632713 -0.50202942 0.95429778
11.279531 -3.0476658 -0.50202745 0.95429814
11.240313 -3.1891797 -0.50202638 0.9542982
11.156562 -3.4706054 -0.50202399 0.95429844
2.0186327 -0.65589845 -0.091197968 0.99153811
2.0187891 -0.68410152 -0.091585346 0.99150223
1.9337499 -0.70995116 -0.088509828 0.99178648
1.6692969 -0.70995116 -0.077941738 0.99276364
1.6127343 -0.70993161 -0.075710334 0.99296999
1.5087109 -0.70994139 -0.07164333 0.99334645
1.4152734 -0.70994139 -0.068031542 0.99368078
1.3719727 -0.70995116 -0.066374354 0.99383426
1.2914063 -0.70994139 -0.063319132 0.9941172
1.2631249 -0.71523434 -0.062369153 0.99420524
1.2630469 -0.73628902 -0.062816463 0.99416375
1.2629688 -0.75765622 -0.063280597 0.99412072
1.2627343 -0.80136716 -0.064259872 0.99403012
1.2626562 -0.82374024 -0.064776346 0.99398226
1.262539 -0.84646481 -0.065311544 0.99393272
1.2623047 -0.893125 -0.066440202 0.99382818
1.2621875 -0.91705078 -0.067035407 0.99377304
1.2620703 -0.94141597 -0.067651898 0.993716
7.3697653 -5.6427636 -0.39881685 0.96352005
7.2982616 -5.7348924 -0.39881468 0.96352017
7.2255664 -5.8261228 -0.39881247 0.96352041
7.1517186 -5.9164257 -0.39881027 0.96352071
6.9235153 -6.1816697 -0.39880332 0.9635213
6.8452735 -6.2681446 -0.39880097 0.96352148
6.7658982 -6.3536134 -0.39879856 0.96352178
6.296699 -6.5386715 -0.39003769 0.96430862
6.202539 -6.6050096 -0.38931456 0.96437359
6.1086717 -6.671113 -0.38865653 0.96443284
5.8255272 -7.2247849 -0.39876977 0.96352422
5.548945 -7.4390526 -0.39876124 0.963525
5.4549608 -7.5081444 -0.39875838 0.96352535
5.3601561 -7.576025 -0.39875546 0.96352559
5.264492 -7.6427441 -0.39875248 0.96352583
5.1680079 -7.7082324 -0.3987495 0.96352607
4.9726171 -7.8355856 -0.39874348 0.96352649
4.7740622 -7.9579 -0.39873734 0.9635272
4.3680077 -8.18748 -0.39872473 0.96352834
4.2647657 -8.2416401 -0.39872155 0.96352863
4.16082 -8.2945118 -0.39871833 0.96352899
3.9510155 -8.3963079 -0.3987118 0.96352953
3.8451562 -8.4452438 -0.39870849 0.96352977
3.7386913 -8.4928322 -0.39870521 0.96353006
3.6316404 -8.5390816 -0.39870185 0.96353036
3.4158592 -8.6275196 -0.39869514 0.96353084
3.267539 -9.2580566 -0.42183957 0.96145523
3.150918 -9.2982616 -0.4218359 0.9614557
3.0337889 -9.3370705 -0.42183223 0.96145594
2.9162109 -9.3743944 -0.42182857 0.96145618
2.7981639 -9.4102144 -0.42182487 0.96145654
2.6796679 -9.4445114 -0.42182118 0.96145701
2.4414258 -9.5087299 -0.4218137 0.96145755
2.3217187 -9.5385542 -0.42180994 0.96145797
2.0812695 -9.59373 -0.42180243 0.96145856
1.8394727 -9.6428413 -0.42179483 0.96145922
1.7181445 -9.6650972 -0.42179102 0.96145958
0.86234373 -9.7780466 -0.42176411 0.96146202
0.61634767 -9.7964649 -0.42175636 0.96146262
0.12333984 -9.8146772 -0.4217408 0.96146411
1.953125e-05 -9.8153906 -0.4217369 0.96146435
-0.24664062 -9.8120699 -0.42172912 0.96146518
-0.36994138 -9.8081245 -0.42172521 0.96146548
-0.49316406 -9.802597 -0.42172131 0.9614659
-0.61624998 -9.7955561 -0.42171741 0.96146613
-0.73933589 -9.7868938 -0.4217135 0.96146673
-1.2300781 -9.7370892 -0.42169794 0.96146786
-1.5961523 -9.6835155 -0.42168635 0.96146899
-2.2009375 -9.5637302 -0.4216671 0.96147078
-2.3209178 -9.5352535 -0.42166331 0.96147108
-2.7969725 -9.4062595 -0.42164809 0.96147239
-2.9149609 -9.3702927 -0.42164436 0.96147269
-3.0324414 -9.3328419 -0.4216406 0.96147305
-3.1494336 -9.2939253 -0.42163688 0.96147335
-3.2659178 -9.2534962 -0.42163312 0.96147388
-3.3819139 -9.2116699 -0.42162943 0.96147412
-3.5220897 -8.5791693 -0.39847594 0.96355063
-3.7364843 -8.4877834 -0.39846903 0.96355134
-3.9485545 -8.3910933 -0.39846224 0.96355182
-4.1580858 -8.2890816 -0.3984555 0.96355242
-4.2619138 -8.2360935 -0.39845219 0.96355271
-4.3650389 -8.1818066 -0.39844885 0.96355307
-4.4674606 -8.1262693 -0.39844558 0.96355325
-4.5691795 -8.069375 -0.3984423 0.96355373
-4.7704101 -7.9518847 -0.3984358 0.96355432
-5.1637888 -7.7019334 -0.39842311 0.96355534
-5.4502735 -7.5016599 -0.39841384 0.96355617
-5.7290235 -7.2907419 -0.39840484 0.963557
-5.9995704 -7.0694723 -0.39839607 0.9635579
-6.0879102 -6.9934669 -0.39839315 0.96355808
-6.3470311 -6.7588863 -0.39838472 0.96355891
-6.5971484 -6.5147457 -0.39837658 0.96355957
-6.6784372 -6.4312692 -0.39837393 0.96355987
-1.0319922 -0.89835936 -0.058788717 0.994537
-1.0321094 -0.8759082 -0.058164213 0.99459493
-1.0322266 -0.85394531 -0.057561528 0.99465072
-1.0323437 -0.83241206 -0.056980092 0.9947046
-1.0325781 -0.79059571 -0.055877723 0.99480677
-1.0326757 -0.77029294 -0.055355072 0.99485523
-1.0328906 -0.73077148 -0.054363899 0.99494708
-1.0329688 -0.71153319 -0.053893849 0.99499071
-1.0882226 -0.70995116 -0.055828284 0.99481142
-1.1187109 -0.70994139 -0.056929283 0.99470931
-1.1834375 -0.70996094 -0.059296034 0.99448991
-1.2178515 -0.70994139 -0.060569648 0.99437201
-1.2538086 -0.70995116 -0.061909027 0.99424785
-1.2914063 -0.70994139 -0.063319393 0.9941172
-1.3719727 -0.70994139 -0.066374205 0.99383432
-1.4607812 -0.70994139 -0.069785461 0.99351847
-1.5592968 -0.70995116 -0.073615111 0.99316388
-1.6127343 -0.70995116 -0.075710826 0.99296999
-1.7293359 -0.70995116 -0.080321118 0.99254346
-1.7844141 -0.70650387 -0.08246208 0.99234563
-11.0025 -3.8832226 -0.50132442 0.95436054
-11.05039 -3.7446582 -0.50132275 0.95436072
-11.096523 -3.6054785 -0.50132114 0.9543609
-11.140937 -3.4657519 -0.50131959 0.95436096
-11.336406 -2.759336 -0.50131267 0.95436162
-11.370156 -2.6166406 -0.50131142 0.95436174
-11.432265 -2.3300781 -0.50130922 0.95436198
-11.460586 -2.1862109 -0.50130814 0.95436221
-11.487187 -2.0420215 -0.50130713 0.95436203
-11.534804 -1.7527148 -0.50130534 0.95436233
-11.555898 -1.6076269 -0.50130451 0.95436239
-11.575156 -1.4622852 -0.50130373 0.95436251
-11.592636 -1.3166894 -0.50130308 0.95436245
-11.633945 -0.87883788 -0.50130123 0.95436275
-11.644082 -0.7325781 -0.50130081 0.95436269
-11.652383 -0.58619142 -0.50130039 0.95436263
-11.663398 -0.29318359 -0.50129974 0.95436281
-10.95957 1.953125e-05 -0.50132161 0.95706487
-10.956133 0.2754297 -0.50132143 0.95706475
-10.951797 0.41307616 -0.50132143 0.95706481
-10.945742 0.55065429 -0.50132149 0.95706481
-10.937968 0.68815428 -0.50132161 0.95706475
-10.904258 1.099912 -0.50132221 0.95706475
-10.873164 1.3735937 -0.50132287 0.95706481
-10.855039 1.5101172 -0.50132334 0.95706481
-10.813711 1.7824414 -0.50132436 0.95706463
-10.680527 2.4579394 -0.50132787 0.95706433
-10.648788 2.5919628 -0.50132871 0.95706439
-10.615391 2.7255762 -0.5013296 0.95706433
-10.505176 3.1237597 -0.50133264 0.95706409
-10.423437 3.3867967 -0.50133497 0.95706373
-10.380039 3.5175097 -0.50133622 0.95706379
-10.335097 3.6476953 -0.50133747 0.9570635
-1.7852343 0.68099606 -0.087400705 0.99237835
-1.785293 0.70683593 -0.087831803 0.99234092
-1.7292968 0.70995116 -0.085509874 0.99254268
-1.6127343 0.70994139 -0.080601916 0.99296916
-1.3719921 0.70994139 -0.070662305 0.99383348
-1.3307421 0.70995116 -0.068992309 0.9939788
-1.2914063 0.70994139 -0.067409858 0.99411649
-1.2538086 0.70993161 -0.065908507 0.9942472
-1.1186913 0.70996094 -0.060607146 0.99470866
-1.0882422 0.70995116 -0.059434928 0.9948107
-1.0589257 0.70994139 -0.058316305 0.99490809
-1.0322851 0.71105468 -0.057337608 0.99499339
-1.0321875 0.7302832 -0.057837255 0.99494988
-1.0320703 0.74984372 -0.058355138 0.99490488
-1.0319922 0.76976562 -0.058891144 0.99485803
-1.031875 0.7900781 -0.059446942 0.99480963
-1.0317383 0.81074214 -0.060022391 0.99475962
-1.0316211 0.8318066 -0.060618933 0.9947077
-1.0315039 0.85333985 -0.061237104 0.99465382
-1.0310937 0.9206152 -0.063229904 0.99448043
-1.0309765 0.94404292 -0.063943706 0.9944182
-6.4633594 6.8827929 -0.43189475 0.96289903
-6.3429685 7.1041989 -0.43564516 0.96258295
-6.1603904 7.6400976 -0.44893691 0.96146369
-6.0200782 8.070693 -0.4605664 0.96048522
-5.8419919 8.7135153 -0.47987244 0.9588635
-5.8169532 8.9164352 -0.48698416 0.95826685
-5.757441 9.3293943 -0.50147605 0.95705199
-5.6398044 9.4010839 -0.50147969 0.95705163
-5.5212889 9.4713087 -0.50148332 0.95705122
-5.4018555 9.5399799 -0.50148702 0.95705104
-5.2815819 9.6071777 -0.50149077 0.95705074
-5.0385938 9.7370214 -0.50149834 0.95705003
-4.9158397 9.7996483 -0.50150216 0.95704973
-4.4174218 10.03456 -0.50151765 0.95704848
-4.2910156 10.089384 -0.50152153 0.957048
-4.163867 10.142558 -0.50152552 0.95704788
-4.0361524 10.194189 -0.50152951 0.9570474
-3.5189648 10.384423 -0.50154561 0.95704609
-3.2569335 10.469746 -0.50155383 0.95704544
-3.1251562 10.509941 -0.50155795 0.95704508
-2.5932422 10.654023 -0.50157458 0.95704371
-2.4591796 10.685879 -0.50157875 0.95704329
-2.3247266 10.716035 -0.50158304 0.95704293
-2.1899219 10.744482 -0.50158727 0.95704257
-1.9192187 10.796279 -0.50159574 0.95704198
-1.5109766 10.861211 -0.50160855 0.95704097
-1.3743945 10.879482 -0.50161284 0.95704037
-0.82605469 10.935176 -0.50163013 0.95703894
-0.68857419 10.944756 -0.50163442 0.9570387
-0.4133203 10.958798 -0.50164312 0.95703793
-0.27558592 10.963213 -0.50164747 0.95703763
0.68863279 10.945713 -0.50167793 0.95703501
1.1007227 10.912275 -0.50169098 0.95703387
1.3746485 10.881348 -0.50169969 0.95703316
1.511289 10.86333 -0.50170404 0.95703274
2.1905077 10.747441 -0.50172561 0.95703101
2.3254297 10.719151 -0.50172991 0.95703065
2.3399413 10.167831 -0.47726312 0.9590826
2.3501952 9.1533499 -0.43228126 0.96286649
2.4839647 8.3535061 -0.39864761 0.96570539
2.5887499 8.3216896 -0.39865097 0.96570522
2.7970507 8.2540331 -0.39865184 0.9657051
2.9005468 8.2182226 -0.39865097 0.96570516
3.2082226 8.1030273 -0.39864966 0.96570528
3.3097656 8.0620699 -0.39864939 0.96570534
3.611289 7.9316015 -0.39864883 0.96570528
3.9076366 7.7898436 -0.39864844 0.96570539
4.0052342 7.7400975 -0.39864841 0.96570545
4.1984763 7.6370215 -0.39864832 0.96570539
4.2941012 7.5836425 -0.39864838 0.96570545
4.3890624 7.5291014 -0.39864838 0.96570539
4.5768943 7.4163961 -0.39864853 0.96570545
5.0332422 7.1139646 -0.39862326 0.96570742
4.5340624 5.9217672 -0.34116 0.97057748
4.8801951 6.210566 -0.36130363 0.9688676
5.5542579 6.7139454 -0.39858526 0.96571082
5.6382031 6.6436715 -0.39858797 0.96571064
5.7212892 6.5723438 -0.39859068 0.96571034
5.8035936 6.5000973 -0.39860031 0.96570945
5.8849998 6.4268456 -0.39861304 0.96570843
6.1236329 6.2010837 -0.39865103 0.96570516
6.2012501 6.1238279 -0.39866367 0.9657042
6.2779298 6.0456052 -0.39867622 0.96570307
6.3615818 5.3988476 -0.38166472 0.96714222
6.4289646 5.3185153 -0.38166693 0.96714205
6.6894336 5.1218848 -0.38538811 0.96682709
1.2613672 0.91641599 -0.071317941 0.99377644
1.2618164 0.82320309 -0.068916164 0.99398547
1.2619531 0.80084962 -0.06836693 0.99403316
1.2622266 0.73581052 -0.066832468 0.99416679
1.2623047 0.71477538 -0.066356696 0.99420828
1.2913867 0.70995116 -0.067409821 0.99411654
1.3307421 0.70996094 -0.068992615 0.99397874
1.3719921 0.70995116 -0.070662118 0.99383342
1.4607812 0.70995116 -0.074293897 0.99351764
1.5087109 0.70994139 -0.076271817 0.99334568
1.6692773 0.70995116 -0.082976796 0.9927628
1.7931445 0.70994139 -0.088217735 0.99230736
1.8611132 0.70994139 -0.091116711 0.99205571
2.0208983 0.68481445 -0.097605363 0.99149239
10.557656 2.9954784 -0.50199819 0.95700812
10.594492 2.8625879 -0.5019995 0.957008
10.629648 2.7292285 -0.50200075 0.95700788
10.753437 2.1917188 -0.50200522 0.95700759
10.780136 2.0564356 -0.50200623 0.95700753
10.805156 1.9208007 -0.50200713 0.95700741
10.828496 1.7848828 -0.50200802 0.95700723
10.850039 1.6486816 -0.50200886 0.95700735
10.888085 1.3754785 -0.50201035 0.95700717
10.904551 1.2385741 -0.502011 0.95700699
10.932246 0.96414059 -0.50201219 0.95700693
10.943496 0.8266992 -0.50201267 0.95700699
10.953027 0.68911129 -0.50201315 0.95700693
10.96082 0.55142576 -0.50201356 0.95700693
10.966875 0.41363281 -0.50201386 0.95700699
10.974727 -0 -0.50201458 0.95700675
10.971289 -0.27578124 -0.5020147 0.95700669
10.966914 -0.41364256 -0.50201476 0.95700681
10.960898 -0.55140626 -0.5020147 0.95700663
10.932304 -0.96415037 -0.50201422 0.95700675
10.919238 -1.1014453 -0.50201398 0.95700705
10.90457 -1.2385547 -0.50201362 0.95700693
10.888124 -1.3754785 -0.50201327 0.95700699
10.850117 -1.6486621 -0.50201237 0.95700705
10.753554 -2.1917188 -0.50200993 0.95700711
10.695039 -2.4612694 -0.50200838 0.95700729
10.663242 -2.595459 -0.50200748 0.95700741
10.594609 -2.8625977 -0.50200558 0.95700753
10.557774 -2.9955273 -0.50200456 0.95700765
10.519278 -3.1279395 -0.50200349 0.95700771
2.0207813 -0.65657222 -0.097192153 0.99152815
2.0208983 -0.68483394 -0.097605132 0.99149233
1.9337499 -0.70995116 -0.094227754 0.99178547
1.7931249 -0.70995116 -0.088217355 0.99230742
1.7293164 -0.70995116 -0.085510179 0.99254262
1.5592577 -0.70997071 -0.078370929 0.99316317
1.5087109 -0.70994139 -0.076271854 0.99334568
1.4607812 -0.70996094 -0.07429371 0.99351764
1.4152734 -0.70994139 -0.072426677 0.99368
1.3307031 -0.70994139 -0.068992458 0.99397892
1.2914063 -0.70994139 -0.067409702 0.99411649
1.2622266 -0.73583007 -0.066832423 0.99416679
1.2621484 -0.75716794 -0.067325704 0.99412382
1.261914 -0.80083984 -0.068367079 0.99403328
1.2618359 -0.82319331 -0.06891609 0.99398541
1.2616016 -0.86902344 -0.070074692 0.99388462
1.2614844 -0.89251953 -0.070685349 0.99383146
1.2613477 -0.91642576 -0.071317822 0.9937765
6.9223046 -5.3001366 -0.39880237 0.9656924
6.7868748 -5.472373 -0.39879829 0.9656927
6.7174997 -5.5572071 -0.39879614 0.96569294
6.6470895 -5.6411424 -0.39879403 0.96569318
6.575664 -5.7241893 -0.39879188 0.9656933
6.5031834 -5.8063378 -0.39878967 0.96569347
6.2795897 -6.0472069 -0.39878288 0.96569413
6.2030859 -6.1255956 -0.39878049 0.96569431
6.1256051 -6.2030468 -0.39877814 0.96569443
6.0471091 -6.2794824 -0.39877579 0.96569473
5.9676952 -6.3549414 -0.39877334 0.9656949
5.7238278 -6.5752048 -0.39876586 0.96569556
5.4718552 -6.7861524 -0.39875811 0.96569616
5.3860936 -6.8543553 -0.39875549 0.96569633
5.2994919 -6.9214354 -0.39875281 0.96569663
5.21207 -6.9874315 -0.39875016 0.96569681
4.3899217 -7.5305467 -0.39872473 0.9656989
3.908242 -7.7910352 -0.39870977 0.96570021
3.7111523 -7.8866305 -0.39870369 0.96570086
3.4111719 -8.0207224 -0.39869434 0.9657017
3.310117 -8.0628805 -0.39869118 0.96570194
3.2084961 -8.1038084 -0.39868805 0.96570212
3.0038085 -8.1817188 -0.39868164 0.96570271
2.9007616 -8.2187796 -0.39867842 0.96570283
2.7971873 -8.2545118 -0.39867523 0.96570319
2.6932421 -8.2889252 -0.39867195 0.96570349
2.5888281 -8.3220701 -0.39866868 0.96570373
2.4840429 -8.3538666 -0.39866543 0.96570402
2.2732811 -8.413496 -0.39865881 0.96570462
1.9545116 -8.4930077 -0.39864883 0.96570539
1.8476367 -8.5168066 -0.39864546 0.96570575
1.7404492 -8.5392971 -0.39864212 0.96570593
1.525293 -8.5801754 -0.39863536 0.96570659
1.4173437 -8.5986233 -0.39863196 0.96570677
1.2748047 -8.3895702 -0.38816616 0.96659184
1.2007617 -8.6313572 -0.39862517 0.96570742
1.092207 -8.6457033 -0.39862174 0.96570766
0.98349607 -8.6586428 -0.39861834 0.96570802
0.57892579 -9.2019234 -0.42175451 0.96375418
0.46324217 -9.2083979 -0.4217509 0.96375448
0.3475 -9.2134275 -0.42174724 0.96375471
-0.11585937 -9.218935 -0.42173263 0.96375591
-0.23167968 -9.2166204 -0.42172897 0.96375644
-0.34748045 -9.2129297 -0.4217253 0.96375662
-0.57890624 -9.2011328 -0.42171797 0.96375722
-0.69445312 -9.1930761 -0.42171431 0.96375746
-0.80988282 -9.1835155 -0.42171064 0.96375787
-0.92525387 -9.1725588 -0.421707 0.96375805
-0.98333985 -8.6573334 -0.3985562 0.96571314
-1.2005664 -8.6296778 -0.39854929 0.96571398
-1.4170117 -8.5966797 -0.39854243 0.9657144
-1.6325781 -8.5581732 -0.39853561 0.96571505
-2.0604491 -8.4650679 -0.39852196 0.96571612
-2.2725 -8.4104786 -0.39851519 0.96571666
-2.4830859 -8.3505564 -0.39850849 0.96571732
-2.7959764 -8.2508497 -0.39849848 0.96571809
-2.8994141 -8.2149801 -0.39849517 0.96571845
-3.1049023 -8.1394043 -0.39848861 0.96571892
-3.409375 -8.0163965 -0.3984789 0.96571976
-3.8077343 -7.8347459 -0.39846611 0.96572077
-3.9058201 -7.7861915 -0.39846292 0.96572119
-4.1002345 -7.6854587 -0.39845672 0.96572161
-4.1964259 -7.6332617 -0.39845359 0.96572196
-4.3868361 -7.5252733 -0.39844748 0.9657225
-4.7592578 -7.2951169 -0.39843547 0.96572357
-4.9410543 -7.1731348 -0.3984296 0.96572393
-5.2077928 -6.9816699 -0.39842093 0.96572459
-5.4670701 -6.7802734 -0.39841256 0.96572542
-5.551836 -6.7109962 -0.39840978 0.9657256
-5.800703 -6.4968653 -0.39840171 0.96572626
-5.8818359 -6.4233885 -0.39839908 0.96572655
-5.96207 -6.3489356 -0.39839649 0.96572667
-6.041328 -6.2734571 -0.39839384 0.96572703
-6.1196289 -6.1970215 -0.39839134 0.96572721
-1.030957 -0.94403321 -0.063943744 0.99441826
-1.0311328 -0.9206152 -0.063229829 0.99448031
-1.0313672 -0.87530273 -0.061877515 0.99459809
-1.0315235 -0.85333008 -0.061236877 0.99465382
-1.0317578 -0.81074214 -0.060022466 0.99475956
-1.031875 -0.79004884 -0.059446715 0.99480969
-1.0320703 -0.74985349 -0.058354795 0.99490482
-1.0882226 -0.70995116 -0.059434928 0.99481076
-1.1187109 -0.70994139 -0.060607031 0.99470866
-1.1503906 -0.70995116 -0.06183647 0.99460167
-1.2178515 -0.70994139 -0.064482838 0.99437129
-1.2538086 -0.70995116 -0.065908432 0.99424714
-1.2914063 -0.70994139 -0.067409895 0.99411649
-1.3719727 -0.70994139 -0.07066223 0.99383354
-1.4152734 -0.70995116 -0.072426908 0.99368
-1.5592968 -0.70995116 -0.078371122 0.99316305
-1.7293359 -0.70995116 -0.085510328 0.99254256
-1.7851562 -0.6554004 -0.086986922 0.9924143
-10.380234 -3.5175683 -0.50134367 0.95706302
-10.54375 -2.9915428 -0.50133795 0.9570635
-10.580468 -2.8587987 -0.50133663 0.95706367
-10.710664 -2.3235548 -0.50133198 0.95706397
-10.738984 -2.1887794 -0.50133091 0.95706409
-10.765586 -2.0536327 -0.50132996 0.95706433
-10.813769 -1.7824609 -0.50132817 0.95706439
-10.855156 -1.5101269 -0.50132656 0.95706439
-10.889609 -1.2368749 -0.50132519 0.95706463
-10.904297 -1.099912 -0.50132459 0.95706463
-10.928437 -0.82555664 -0.50132352 0.95706481
-10.945742 -0.55065429 -0.50132269 0.95706481
-10.951797 -0.41305664 -0.50132233 0.95706481
-10.956094 -0.27540037 -0.50132203 0.95706493
-10.958711 -0.13771485 -0.50132179 0.95706481
-10.332773 9.7656248e-06 -0.5013414 0.95946473
-10.332011 0.12984374 -0.50134128 0.95946455
-10.319765 0.51916993 -0.50134128 0.95946455
-10.280663 1.0370117 -0.50134194 0.95946449
-10.234277 1.4237695 -0.50134301 0.95946449
-10.173398 1.808496 -0.50134456 0.95946425
-10.149882 1.9361913 -0.50134516 0.95946425
-10.124726 2.0635839 -0.50134581 0.95946431
-10.069726 2.317373 -0.50134724 0.95946413
-9.9406052 2.8204198 -0.50135082 0.95946395
-9.9044142 2.9451268 -0.50135183 0.95946383
-9.8666792 3.0693555 -0.50135291 0.9594636
-9.8273439 3.1931055 -0.50135404 0.95946354
-9.7864838 3.3163574 -0.50135517 0.95946336
-9.7440233 3.4390721 -0.50135636 0.95946342
-1.7861718 0.70718747 -0.093208045 0.99233621
-1.7292968 0.70995116 -0.090700679 0.99254173
-1.5592968 0.70996094 -0.083127707 0.99316216
-1.4607812 0.70994139 -0.078803442 0.9935168
-1.4152734 0.70995116 -0.076822855 0.99367917
-1.3719921 0.70994139 -0.074951321 0.99383265
-1.2538086 0.70993161 -0.069909133 0.99424642
-1.1834375 0.70994139 -0.066958539 0.99448854
-1.0882422 0.70995116 -0.063042566 0.99480999
-1.0589257 0.70994139 -0.061855964 0.99490744
-1.0316015 0.71059567 -0.060777511 0.99499607
-1.0315039 0.72980469 -0.061306838 0.99495256
-1.0314063 0.74934566 -0.061855122 0.9949075
-1.0312696 0.76924801 -0.06242336 0.99486095
-1.0310352 0.81017578 -0.063621484 0.99476254
-1.0308985 0.83124024 -0.064253196 0.99471068
-1.0307813 0.85272461 -0.06490799 0.99465692
-1.0303906 0.91993159 -0.067018852 0.99448359
-1.0302343 0.9433496 -0.067774773 0.99442148
-6.7910547 6.3772264 -0.45200497 0.96337962
-6.5910349 6.6743946 -0.4551239 0.96313161
-6.5237107 6.7744336 -0.45631832 0.96303666
-6.3879685 6.9761229 -0.45894501 0.96282804
-6.2933202 7.2294626 -0.46505541 0.9623425
-6.2050195 7.5005565 -0.47231033 0.96176624
-6.1137891 7.7804198 -0.48010546 0.96114784
-6.019453 8.0698633 -0.48847389 0.96048421
-5.9217381 8.3697462 -0.49745822 0.95977211
-5.8630271 8.5116596 -0.50147355 0.95945412
-5.5381446 8.726758 -0.50148362 0.95945334
-5.2054296 8.9294825 -0.50149387 0.95945245
-4.8652735 9.1195307 -0.50150442 0.95945162
-4.6346092 9.2390232 -0.50151157 0.9594512
-4.4010348 9.3527145 -0.50151885 0.9594506
-4.1646876 9.4605274 -0.50152624 0.95944989
-4.0455079 9.5121679 -0.50152993 0.95944965
-3.8052537 9.6109667 -0.50153738 0.95944905
-3.562578 9.703701 -0.50154495 0.95944846
-3.194375 9.8313084 -0.50155646 0.95944756
-3.070586 9.8707228 -0.50156033 0.95944738
-2.6964452 9.9796972 -0.50157201 0.95944631
-2.4448829 10.044501 -0.50157994 0.95944554
-2.318496 10.074482 -0.50158387 0.95944536
-2.0646093 10.129736 -0.5015918 0.95944464
-1.9371485 10.154951 -0.50159585 0.9594444
-1.8094336 10.178574 -0.50159985 0.95944405
-1.1667578 10.2725 -0.50162005 0.95944256
-1.0375781 10.286426 -0.50162411 0.95944226
-0.90828121 10.298789 -0.50162816 0.95944172
-0.77878904 10.309423 -0.50163227 0.9594416
-0.6491797 10.318486 -0.50163633 0.95944124
-0.12992187 10.338428 -0.50165272 0.95943987
0 10.339296 -0.50165683 0.95943969
0.1299414 10.338603 -0.50166094 0.95943922
0.25984374 10.336221 -0.50166506 0.95943892
0.51953125 10.326591 -0.50167328 0.95943832
0.9083789 10.299922 -0.50168556 0.95943737
1.2959765 10.258642 -0.5016979 0.9594363
1.4248047 10.241621 -0.50170195 0.959436
1.5533984 10.222988 -0.50170606 0.9594357
1.6817383 10.202734 -0.50171012 0.9594354
1.9376562 10.157451 -0.50171822 0.95943463
2.3191602 10.077432 -0.50173038 0.95943373
2.3424022 9.1229982 -0.45699912 0.96298254
2.381875 8.8154297 -0.44305599 0.96409142
2.4243751 8.5447454 -0.43094906 0.96505529
2.4645507 8.2883301 -0.41954577 0.96596408
2.8317578 7.7131052 -0.39865932 0.9676308
3.1204491 7.6008692 -0.39865854 0.96763092
3.4984179 7.4345016 -0.39865786 0.96763086
3.6841404 7.3442283 -0.39865768 0.96763086
3.7761133 7.2973533 -0.39865759 0.96763092
4.0484767 7.1498437 -0.39865756 0.96763092
4.1379685 7.0983887 -0.39865759 0.96763104
4.2268553 7.0458202 -0.39865628 0.96763104
4.402422 6.9371386 -0.39864296 0.96763211
4.4891992 6.8811622 -0.39863628 0.96763259
4.3500781 5.9873729 -0.35908118 0.97079688
4.4137497 5.9171972 -0.358172 0.97086984
5.1564059 6.3950095 -0.39858213 0.967637
5.3154492 6.2633104 -0.39857817 0.96763736
5.3937693 6.1960936 -0.39858073 0.96763706
5.698945 5.9179587 -0.39862666 0.96763331
5.7730079 5.846035 -0.39863858 0.96763247
5.9897852 5.6247754 -0.39867416 0.96762967
6.0601563 5.5492382 -0.3986859 0.96762878
6.1980467 5.3955173 -0.39870933 0.96762693
6.2545505 5.3080173 -0.39801979 0.96768188
6.3319139 5.2382126 -0.39872101 0.9676258
6.4616795 5.077539 -0.39872923 0.9676252
6.5250583 4.995986 -0.39873385 0.96762484
1.260625 0.89192379 -0.074925423 0.99383479
1.2607422 0.86842769 -0.074278794 0.99388796
1.2608789 0.84536129 -0.073654212 0.9939391
1.2609766 0.82267576 -0.073051684 0.99398863
1.2611133 0.80032223 -0.072469942 0.99403632
1.26125 0.7783398 -0.071908608 0.99408227
1.2615429 0.71433592 -0.070340231 0.99421102
1.2913867 0.70995116 -0.071501613 0.99411577
1.3307421 0.70996094 -0.073180079 0.99397796
1.5087109 0.70994139 -0.080901489 0.99334478
1.6127343 0.70995116 -0.08549431 0.9929682
1.6692773 0.70995116 -0.088013567 0.99276185
1.7931445 0.70994139 -0.093572117 0.99230641
1.8611132 0.70994139 -0.096647263 0.99205464
1.9337499 0.70994139 -0.099947467 0.99178445
2.0232227 0.71407223 -0.10409935 0.99144459
2.0230467 0.68555665 -0.1036396 0.99148226
2.022871 0.65725583 -0.10319996 0.99151832
9.8789845 3.0731835 -0.50197667 0.95941406
9.953105 2.8239648 -0.50197929 0.95941401
9.987812 2.6986718 -0.50198048 0.95941401
10.137656 2.0662208 -0.50198591 0.95941359
10.16289 1.9386816 -0.50198686 0.95941335
10.208398 1.6826757 -0.50198853 0.95941335
10.22875 1.5542675 -0.50198931 0.95941329
10.264648 1.2967089 -0.50199074 0.95941305
10.306231 0.90892577 -0.50199246 0.95941299
10.325859 0.64964843 -0.50199336 0.95941287
10.338906 0.38995117 -0.50199407 0.95941293
10.345429 0.13 -0.50199455 0.95941299
10.345469 -0.13000976 -0.50199479 0.95941281
10.342988 -0.26000977 -0.50199491 0.95941293
10.325898 -0.64964843 -0.50199473 0.95941269
10.316875 -0.77934569 -0.50199461 0.95941287
10.306289 -0.90892577 -0.50199437 0.95941281
10.294043 -1.0383594 -0.50199413 0.95941281
10.228827 -1.5542773 -0.50199264 0.95941299
10.162949 -1.9386914 -0.50199097 0.95941311
10.137774 -2.0662305 -0.50199032 0.95941317
10.110976 -2.1934667 -0.5019896 0.95941329
10.082617 -2.3203418 -0.50198883 0.95941329
10.052656 -2.4468553 -0.50198799 0.95941329
9.916914 -2.9488378 -0.5019843 0.95941371
1.8611132 -0.70997071 -0.096647069 0.99205464
1.6127343 -0.70993161 -0.085493967 0.99296826
1.5592577 -0.70997071 -0.083127856 0.99316227
1.3307031 -0.70994139 -0.073180079 0.99397814
1.2914063 -0.70994139 -0.071501657 0.99411571
1.2614453 -0.73535156 -0.070844382 0.99416965
1.2608594 -0.84538084 -0.073654249 0.99393916
1.2607617 -0.86843747 -0.074278943 0.9938879
6.5259762 -4.9966798 -0.39878953 0.96762037
6.3982811 -5.1590528 -0.39878565 0.96762067
6.3328905 -5.2390037 -0.39878368 0.96762097
6.1991796 -5.3964548 -0.39877963 0.96762121
6.1308203 -5.4738865 -0.39877754 0.96762151
6.0615625 -5.550488 -0.39877543 0.96762145
5.9200778 -5.7010059 -0.39877114 0.96762186
5.8479295 -5.7748923 -0.3987689 0.9676221
5.7748828 -5.8479099 -0.3987667 0.96762222
5.6260157 -5.9911032 -0.39876217 0.9676227
5.5502734 -6.0613084 -0.39875984 0.96762276
5.3177733 -6.2660642 -0.39875269 0.96762341
4.7465234 -6.7087207 -0.39873511 0.96762478
4.5763669 -6.8257809 -0.39872989 0.96762526
4.4901953 -6.8826952 -0.39872721 0.9676255
4.4033594 -6.9385548 -0.3987245 0.96762556
4.3157811 -6.9933004 -0.39872184 0.9676258
4.2275391 -7.0469337 -0.3987191 0.96762598
4.1386132 -7.0994334 -0.39871636 0.96762627
4.0490623 -7.1508493 -0.39871356 0.96762639
3.958828 -7.2011032 -0.39871079 0.96762669
3.8680272 -7.2502441 -0.39870796 0.96762687
3.6845312 -7.3450294 -0.39870226 0.96762741
3.5919139 -7.3907323 -0.39869937 0.96762753
3.2159569 -7.5616207 -0.39868766 0.96762854
3.120625 -7.601367 -0.39868471 0.9676289
3.0248828 -7.6399317 -0.39868176 0.96762902
2.8318748 -7.713418 -0.39867571 0.96762949
2.7346873 -7.7483201 -0.3986727 0.96762985
2.6371093 -7.7820311 -0.39866966 0.96762997
2.5391016 -7.8144922 -0.39866656 0.96763021
2.4406641 -7.8457127 -0.39866346 0.96763051
2.2426953 -7.9044824 -0.39865729 0.96763086
2.1431639 -7.9319434 -0.39865419 0.96763128
2.0433202 -7.9582028 -0.39865103 0.96763146
1.9431444 -7.9832029 -0.3986479 0.96763164
1.8426563 -8.0069036 -0.39864478 0.967632
1.5395312 -8.070488 -0.39863524 0.96763265
1.4379492 -8.0891409 -0.39863208 0.96763295
1.1320508 -8.1373825 -0.39862245 0.96763372
1.029707 -8.1509085 -0.39861926 0.96763396
0.9271875 -8.1631155 -0.39861602 0.96763426
0.82453126 -8.1740627 -0.39861283 0.9676345
0.61882812 -8.1920605 -0.39860633 0.96763504
0.51585937 -8.1991205 -0.39860305 0.96763533
0.41277343 -8.2049122 -0.39859983 0.96763551
0.3096289 -8.2093744 -0.39859655 0.96763581
0.20644531 -8.2125292 -0.39859334 0.96763617
0 -8.2150192 -0.39858681 0.96763653
-0.10322265 -8.2142773 -0.39858353 0.96763688
-0.20644531 -8.212285 -0.39858028 0.96763706
-0.41273436 -8.2043552 -0.39857376 0.96763766
-0.82441401 -8.1729879 -0.3985607 0.96763873
-0.92705077 -8.1619139 -0.39855742 0.96763897
-1.0295508 -8.14956 -0.39855418 0.96763921
-1.1318359 -8.1359081 -0.39855093 0.96763951
-1.2339648 -8.1209764 -0.39854771 0.96763974
-1.3359375 -8.104785 -0.39854446 0.96763992
-1.8421289 -8.0045795 -0.39852837 0.96764123
-1.9425585 -7.9807224 -0.39852515 0.96764153
-2.0426562 -7.9555955 -0.39852199 0.96764189
-2.4397266 -7.8426952 -0.39850932 0.96764278
-2.6360157 -7.7787695 -0.39850307 0.96764332
-2.7335351 -7.7449899 -0.39849994 0.9676435
-3.1191015 -7.5976267 -0.39848763 0.96764451
-3.3090038 -7.5167284 -0.39848152 0.96764499
-3.4031639 -7.4744821 -0.39847851 0.96764529
-3.4968164 -7.4310641 -0.3984755 0.96764553
-3.7742968 -7.2938476 -0.39846656 0.96764624
-3.9563475 -7.1965919 -0.39846072 0.96764666
-4.0464649 -7.1462498 -0.39845783 0.9676469
-4.3128319 -6.9885154 -0.39844924 0.96764755
-4.6583786 -6.7627926 -0.3984381 0.96764851
-4.8267965 -6.6435056 -0.39843261 0.96764892
-4.9098434 -6.5822754 -0.39842993 0.96764922
-4.9921484 -6.5200486 -0.39842728 0.96764928
-5.1543555 -6.3924413 -0.398422 0.9676497
-5.2342186 -6.3270993 -0.39841941 0.96765006
-5.3132811 -6.2607713 -0.39841685 0.96765029
-5.3915234 -6.1934958 -0.39841428 0.96765035
-5.5453906 -6.0559764 -0.39840931 0.96765077
-5.6210351 -5.9857812 -0.39840686 0.96765089
-5.6957617 -5.914629 -0.39840442 0.96765119
-5.769629 -5.8425684 -0.39840201 0.96765125
-5.9855857 -5.6208496 -0.39839491 0.96765196
-1.0307813 -0.85273433 -0.064907908 0.99465692
-1.0308985 -0.83124995 -0.064253308 0.99471068
-1.0311524 -0.78951168 -0.06301178 0.99481261
-1.0314844 -0.72979492 -0.061306838 0.99495262
-1.031582 -0.71058589 -0.060777739 0.99499613
-1.0589257 -0.70996094 -0.061856117 0.99490744
-1.1834375 -0.70996094 -0.066958696 0.99448848
-1.2538086 -0.70995116 -0.069909282 0.99424642
-1.3719727 -0.70994139 -0.074951395 0.99383271
-1.5087109 -0.70995116 -0.080901489 0.99334478
-1.5592968 -0.70995116 -0.083127901 0.99316216
-1.6127343 -0.70995116 -0.085494459 0.9929682
-1.6692969 -0.70994139 -0.088013686 0.99276179
-1.7860351 -0.65570313 -0.092311248 0.99240965
-9.7441797 -3.4391112 -0.50136369 0.95946282
-9.8274803 -3.193125 -0.50136083 0.959463
-9.9045315 -2.9451463 -0.50135809 0.95946336
-10.008437 -2.5697265 -0.50135446 0.9594636
-10.124804 -2.0635839 -0.50135022 0.95946401
-10.149961 -1.9362011 -0.50134927 0.95946395
-10.173437 -1.808496 -0.50134844 0.95946413
-10.266874 -1.1661133 -0.50134474 0.95946431
-10.280663 -1.0370215 -0.50134414 0.95946449
-10.312461 -0.64879882 -0.50134277 0.95946443
-10.325488 -0.38944334 -0.50134206 0.95946449
-10.331992 -0.12983398 -0.50134164 0.95946461
-9.7729292 0.12281249 -0.50135899 0.96161008
-9.766758 0.36836913 -0.50135893 0.96161008
-9.7613869 0.49108398 -0.50135899 0.96160996
-9.735898 0.8586328 -0.5013594 0.96161014
-9.7112885 1.1030469 -0.50135988 0.96160996
-9.6805077 1.3467284 -0.5013606 0.96160996
-9.6229095 1.7106543 -0.50136203 0.96160984
-9.5769138 1.9519433 -0.50136322 0.96160966
-9.5516405 2.0721092 -0.50136387 0.96160966
-9.5248241 2.1920018 -0.50136465 0.96160972
-9.496582 2.3115234 -0.50136536 0.96160954
-9.4667969 2.4306836 -0.5013662 0.96160948
-9.4027538 2.6678026 -0.50136799 0.96160936
-9.3327932 2.9032714 -0.50136989 0.96160918
-9.2955856 3.0203221 -0.50137097 0.96160913
-1.7868944 0.65602535 -0.097642131 0.99240494
-1.7869531 0.6816504 -0.098106652 0.992369
-1.4607812 0.70994139 -0.083314016 0.99351591
-1.4152734 0.70995116 -0.08122059 0.99367827
-1.2914063 0.70994139 -0.075594366 0.99411488
-1.2538086 0.70993161 -0.073910594 0.99424565
-1.2178515 0.70996094 -0.072311632 0.99436975
-1.1503906 0.70995116 -0.06934429 0.99460024
-1.0589257 0.70994139 -0.065396458 0.99490678
-1.0308203 0.72930664 -0.064772874 0.99495524
-1.0306835 0.74882811 -0.065351717 0.99491036
-1.0305859 0.76872069 -0.065951422 0.99486363
-1.0299219 0.87404293 -0.06929104 0.99460429
-1.0297656 0.89640623 -0.070033491 0.99454665
-6.7242184 6.4753709 -0.47886348 0.96330059
-6.6575389 6.5744333 -0.4799616 0.96321791
-6.5905662 6.6739159 -0.48114273 0.96312922
-6.3358984 7.0962696 -0.48799467 0.962614
-6.2489061 7.3632226 -0.49539363 0.96205807
-5.9430857 7.7620115 -0.50147188 0.96160144
-5.6464062 7.9806247 -0.501481 0.96160084
-5.3416991 8.1879196 -0.50149041 0.96160012
-5.2383986 8.2544622 -0.50149357 0.96159989
-5.0294142 8.3835745 -0.50150007 0.96159947
-4.7099414 8.5673532 -0.5015099 0.96159869
-4.601953 8.6259279 -0.5015133 0.9615984
-4.3837891 8.738965 -0.5015201 0.96159792
-4.2736325 8.7933979 -0.50152344 0.9615978
-3.8265233 8.9973145 -0.50153738 0.96159655
-3.7131834 9.0447559 -0.50154096 0.96159631
-3.5992773 9.0907516 -0.50154448 0.96159607
-3.2541797 9.2201462 -0.50155526 0.96159524
-3.1380467 9.2603712 -0.50155884 0.961595
-2.786875 9.3722849 -0.50156981 0.9615941
-2.6689062 9.4066305 -0.5015735 0.96159387
-2.5504687 9.4394922 -0.5015772 0.96159363
-2.3125196 9.5007229 -0.50158471 0.96159309
-2.1929686 9.5291309 -0.5015884 0.96159273
-2.0730858 9.5559864 -0.50159216 0.9615925
-1.9528124 9.581377 -0.50159591 0.9615922
-1.8323046 9.6052246 -0.50159973 0.9615919
-1.7114453 9.6275387 -0.50160354 0.96159172
-1.5903516 9.6483688 -0.50160736 0.96159136
-1.4690233 9.6676655 -0.50161117 0.96159106
-1.2256055 9.7017088 -0.5016188 0.96159041
-1.1036133 9.7163868 -0.50162262 0.96159023
-0.98144531 9.7295895 -0.50162649 0.96158981
-0.85908198 9.7412109 -0.50163037 0.96158963
-0.73664063 9.7513084 -0.50163418 0.96158934
-0.12289062 9.7787209 -0.50165355 0.96158779
0 9.7795601 -0.50165743 0.96158755
0.12289062 9.7788572 -0.5016613 0.96158725
0.24578124 9.7766018 -0.50166523 0.96158701
0.36859375 9.7728319 -0.50166905 0.96158671
0.61410153 9.7606153 -0.50167686 0.96158618
0.85919923 9.7422552 -0.50168461 0.96158558
1.1037695 9.7177439 -0.50169235 0.96158499
1.7118163 9.6296186 -0.50171167 0.96158361
1.8327343 9.6074314 -0.50171554 0.96158326
1.9533203 9.5837307 -0.50171936 0.9615829
2.1935546 9.5317383 -0.50172698 0.96158242
2.3132031 9.5034761 -0.5017308 0.96158218
2.3416796 9.1203222 -0.48301458 0.9629882
2.4166796 8.5176849 -0.45417479 0.9651593
2.4999804 8.0363283 -0.43172115 0.96685272
2.5614452 7.8833494 -0.42519987 0.9673453
2.6211329 7.7348728 -0.4189339 0.96781856
2.6790233 7.5906248 -0.41291279 0.96827376
2.79 7.3139157 -0.4015494 0.96913326
2.8609374 7.2259083 -0.39866072 0.96935195
2.9515624 7.1894531 -0.39866364 0.96935165
3.1313086 7.1130567 -0.39866638 0.96935147
3.3090625 7.0321188 -0.39866605 0.96935147
3.3971484 6.9899802 -0.39866596 0.96935153
3.4847069 6.9467187 -0.39866585 0.96935159
3.5717187 6.9023829 -0.39866582 0.96935159
4.2460546 6.5084667 -0.3986288 0.96935433
4.4881444 6.3435154 -0.39860973 0.9693557
4.3600388 6.001123 -0.38050795 0.97072691
4.4225388 5.9289746 -0.37942657 0.97080874
4.7238083 6.1695409 -0.39859051 0.96935725
4.8771873 6.0487008 -0.39857757 0.96935821
5.1016212 5.8604784 -0.39857185 0.96935868
5.1750388 5.7960839 -0.39858219 0.96935773
5.3902345 5.5973926 -0.39861616 0.96935529
5.5978513 5.3906932 -0.3986499 0.96935278
5.6653123 5.3200974 -0.39866108 0.96935183
5.7975192 5.1763282 -0.39868331 0.96935022
5.8623047 5.1032128 -0.39869437 0.96934927
6.1119142 4.8027048 -0.39873543 0.96934628
1.2598046 0.89130855 -0.079161413 0.99383807
1.2600585 0.84479493 -0.077819139 0.99394226
1.2604101 0.77785152 -0.075976066 0.99408531
1.260664 0.73489255 -0.074852213 0.99417245
1.2607422 0.71388668 -0.074319839 0.99421388
1.4152539 0.70994139 -0.081220433 0.99367839
1.4607812 0.70995116 -0.083314128 0.99351591
1.5087109 0.70994139 -0.085532531 0.99334389
1.5592968 0.70994139 -0.087886274 0.99316126
1.6127343 0.70995116 -0.09038803 0.99296725
1.7293359 0.70993161 -0.095892295 0.9925406
2.0241797 0.71441406 -0.1101123 0.99143934
2.0241992 0.68594724 -0.10963505 0.99147624
2.0242188 0.65770507 -0.10917907 0.99151146
9.3437891 2.9066894 -0.50195992 0.96156484
9.3796091 2.7890527 -0.50196117 0.96156466
9.4139061 2.6709666 -0.50196236 0.96156472
9.4780855 2.4335644 -0.50196469 0.9615646
9.5631638 2.0746191 -0.50196779 0.96156424
9.5884762 1.9542968 -0.50196868 0.96156424
9.6553516 1.5915039 -0.50197119 0.96156412
9.6746483 1.4700781 -0.5019719 0.96156389
9.6923828 1.3483691 -0.50197262 0.96156383
9.7363081 0.98212886 -0.5019744 0.96156383
9.7579298 0.73711914 -0.5019753 0.96156377
9.7664452 0.61445314 -0.50197572 0.96156371
9.7787886 0.36882812 -0.50197637 0.96156371
9.7857809 -0 -0.50197697 0.96156359
9.7734375 -0.49167967 -0.50197709 0.96156353
9.7479687 -0.85969722 -0.50197673 0.96156347
9.7363472 -0.98210937 -0.50197643 0.96156371
9.7232418 -1.1043946 -0.50197619 0.96156365
9.6746874 -1.4700683 -0.50197506 0.96156377
9.6123829 -1.8336523 -0.50197351 0.96156383
9.5364056 -2.1946387 -0.50197148 0.961564
9.5080471 -2.3142869 -0.50197071 0.96156412
9.4468355 -2.5524805 -0.50196904 0.9615643
9.4140034 -2.6710057 -0.50196809 0.9615643
9.3797264 -2.7890821 -0.50196713 0.96156424
9.3438673 -2.906709 -0.50196612 0.96156448
1.9337499 -0.70995116 -0.10566834 0.99178326
1.7293164 -0.70995116 -0.095892258 0.9925406
1.6692969 -0.70995116 -0.093051225 0.99276078
1.5592577 -0.70997071 -0.087886237 0.99316132
1.4607812 -0.70996094 -0.083313942 0.99351591
1.4152734 -0.70994139 -0.08122047 0.99367833
1.3719727 -0.70995116 -0.079241559 0.99383187
1.2605078 -0.75621092 -0.075404011 0.99412978
1.2603124 -0.79980469 -0.076568529 0.9940393
1.2601757 -0.82213867 -0.077182956 0.99399161
1.2599218 -0.86787105 -0.078478508 0.99389106
1.2597852 -0.8913281 -0.079161525 0.99383807
1.2594922 -0.93949217 -0.080601916 0.99372631
6.201777 -4.7484665 -0.4006725 0.96919966
5.9271288 -5.0300975 -0.39877063 0.96934348
5.8633595 -5.1041503 -0.39876869 0.96934378
5.6667771 -5.3214355 -0.39876273 0.96934414
5.5993943 -5.3921876 -0.39876068 0.96934444
5.5311913 -5.4620996 -0.39875862 0.9693445
5.4620895 -5.5311522 -0.39875647 0.96934462
5.3921289 -5.5993261 -0.39875433 0.96934474
5.3212891 -5.6666017 -0.39875221 0.96934503
5.1771483 -5.7984667 -0.39874777 0.96934539
5.103828 -5.8630371 -0.39874548 0.96934557
5.0297656 -5.9266796 -0.39874324 0.96934563
4.9548435 -5.9893746 -0.39874095 0.96934587
4.8791795 -6.0511327 -0.39873862 0.96934599
4.8027148 -6.1119432 -0.39873627 0.96934617
4.5688281 -6.288496 -0.39872909 0.96934682
4.4093356 -6.4012203 -0.39872414 0.96934718
4.2470508 -6.5099511 -0.39871916 0.96934742
3.9985936 -6.6652832 -0.39871147 0.96934795
3.9144921 -6.7149315 -0.39870888 0.96934825
3.7444334 -6.8111134 -0.39870358 0.96934861
3.3092577 -7.0325584 -0.39869007 0.96934962
2.9516406 -7.1897068 -0.39867896 0.96935064
2.8610351 -7.2262011 -0.3986761 0.96935076
2.6785157 -7.2957029 -0.39867041 0.96935123
2.4942968 -7.3606052 -0.39866465 0.96935165
2.3085155 -7.4208593 -0.3986589 0.96935201
2.215039 -7.4492087 -0.39865595 0.96935236
2.1212304 -7.4763961 -0.39865303 0.9693526
1.8379296 -7.550859 -0.39864412 0.96935326
1.5519922 -7.6146188 -0.39863518 0.96935385
1.3601172 -7.6510935 -0.39862913 0.96935433
1.2638476 -7.6675291 -0.39862612 0.96935457
1.1673828 -7.6827636 -0.39862311 0.96935475
1.0707421 -7.6967578 -0.39862007 0.96935499
0.97394532 -7.7095118 -0.398617 0.96935534
0.58535153 -7.7485056 -0.39860481 0.96935612
0.48792967 -7.7551856 -0.39860171 0.96935636
0.29287109 -7.7649021 -0.39859557 0.96935678
0.097636715 -7.7696676 -0.3985894 0.96935731
-0.097617187 -7.7695312 -0.3985832 0.96935785
-0.29285157 -7.7645311 -0.39857706 0.96935821
-0.3903906 -7.7601657 -0.39857399 0.9693585
-0.48787108 -7.7545896 -0.3985709 0.96935868
-0.58527344 -7.7477927 -0.3985678 0.96935892
-0.68257809 -7.7397656 -0.39856473 0.96935916
-0.77980465 -7.7305174 -0.39856163 0.9693594
-0.87687498 -7.7200484 -0.39855856 0.96935964
-1.1671875 -7.6813278 -0.39854935 0.96936035
-1.2636328 -7.6660252 -0.39854628 0.96936047
-1.3598046 -7.6494532 -0.39854324 0.96936083
-1.7424023 -7.5712304 -0.39853108 0.96936178
-1.9321094 -7.524951 -0.398525 0.96936214
-2.0264647 -7.5000196 -0.39852202 0.96936244
-2.1205468 -7.473906 -0.39851901 0.96936262
-2.2142773 -7.4466014 -0.398516 0.96936291
-2.4006641 -7.3885155 -0.39851004 0.96936327
-2.4932811 -7.3577147 -0.39850712 0.96936351
-2.7687891 -7.2583594 -0.3984983 0.96936411
-3.0403321 -7.1486621 -0.39848959 0.96936488
-3.1298828 -7.1098533 -0.39848673 0.96936506
-3.2189648 -7.0699024 -0.39848387 0.9693653
-3.307539 -7.0288572 -0.39848104 0.96936548
-3.4830663 -6.943408 -0.39847541 0.96936595
-3.5700195 -6.8990331 -0.39847258 0.96936619
-3.8274608 -6.7594433 -0.39846435 0.96936673
-3.9120312 -6.7107615 -0.39846161 0.96936703
-3.9960351 -6.6610351 -0.3984589 0.96936721
-4.0794139 -6.6102538 -0.39845622 0.96936738
-4.2441797 -6.5055761 -0.39845088 0.96936774
-4.40625 -6.3967772 -0.39844567 0.96936816
-4.4862499 -6.3408399 -0.39844307 0.96936846
