# .PCD v0.7 - Point Cloud Data file format
VERSION 0.7
FIELDS x y z intensity
SIZE 4 4 4 4
TYPE F F F F
COUNT 1 1 1 1
WIDTH 1063
HEIGHT 1
VIEWPOINT 0 0 0 1 0 0 0
POINTS 1063
DATA ascii
-8.9115133 -18.937969 0.14495979 0.91968715
-9.2020798 -18.934111 0.14580463 0.91923887
-7.6766992 -13.963867 0.11036552 0.9382478
-7.6711817 -13.547709 0.10782852 0.93962288
-11.023525 -18.909897 0.15159801 0.9161678
-9.4337006 -14.07061 0.11733025 0.93448174
-9.4286423 -13.687998 0.1151192 0.93567604
-9.4237204 -13.319453 0.11300629 0.93681836
-13.7129 -18.874165 0.16158172 0.91090077
-14.075029 -18.86935 0.16304114 0.91013294
-3.5382714 -4.06459 0.037323378 0.97867453
-3.5341895 -3.8596094 0.036265943 0.97928399
-3.5662205 -3.7976561 0.036082115 0.97937667
-3.6670408 -3.8079588 0.036614683 0.97907525
-15.939443 -15.349545 0.15325852 0.91528803
-15.930966 -14.587812 0.1496059 0.91722196
-1.045791 -0.93374997 0.0097103501 0.99440759
-1.0457226 -0.91033202 0.0096026994 0.9944694
-1.0455859 -0.86500001 0.0093987267 0.99458653
-1.0455469 -0.84304684 0.0093024438 0.9946419
-1.0455371 -0.82159179 0.0092095947 0.99469513
-1.0455078 -0.77987301 0.0090338513 0.9947961
-1.0454882 -0.75959957 0.0089504626 0.99484402
-1.1834472 -0.70996094 0.0095582576 0.9944948
-1.2914063 -0.70997071 0.010206909 0.99412239
-1.3719823 -0.70997071 0.010699463 0.99383974
-1.4152832 -0.70997071 0.010966416 0.99368638
-1.50875 -0.70996094 0.011548423 0.99335223
-1.6127441 -0.70997071 0.012204513 0.99297619
-1.6693066 -0.70996094 0.012564086 0.99277008
-1.7690234 -0.72625977 0.013244591 0.99237978
-1.7690625 -0.64948243 0.013052368 0.99249011
-1.7699023 0.67513669 0.0078720851 0.99245137
-1.7698828 0.72657228 0.0079505919 0.99237627
-1.6692871 0.70993161 0.0075384136 0.99277025
-1.6127148 0.70992184 0.0073225019 0.99297649
-1.5592675 0.70992184 0.0071199797 0.99317026
-1.5087304 0.70992184 0.0069292067 0.99335247
-1.4607812 0.70993161 0.0067495345 0.99352437
-1.4152637 0.70993161 0.006579895 0.99368662
-1.3307226 0.70992184 0.0062678144 0.99398512
-1.2538086 0.70993161 0.0059875487 0.99425316
-1.2178613 0.70993161 0.0058581159 0.99437714
-1.1834179 0.70991212 0.0057350919 0.99449509
-1.1187011 0.70993161 0.0055062864 0.99471414
-1.0882226 0.70993161 0.0053994749 0.99481618
-1.0447656 0.71962887 0.0052718734 0.99493831
-1.0447656 0.75904298 0.0053665922 0.99484771
-1.0447754 0.77929688 0.0054164506 0.99479991
-1.0447949 0.82096678 0.0055217743 0.99469906
-1.0448145 0.84242183 0.005577507 0.99464583
-1.044834 0.86432618 0.0056350706 0.99459064
-1.044834 0.88668942 0.0056945798 0.99453348
-1.0448632 0.90952146 0.0057568359 0.99447417
-1.0448534 0.93288082 0.0058208467 0.99441278
-11.441504 11.298603 0.066826895 0.93770438
-10.599589 11.287421 0.064341389 0.93994218
-10.110303 11.323652 0.06308414 0.94108486
-9.9402637 11.418838 0.062913626 0.94123942
-9.6027832 11.607744 0.062603608 0.94151932
-9.2683887 11.794941 0.062335432 0.94176108
-8.7715816 12.073027 0.062013432 0.94205379
-8.6070309 12.165136 0.061927527 0.94213307
-8.4429293 12.256992 0.061849058 0.94220322
-8.2791891 12.348652 0.06178131 0.94226438
-7.7898045 12.622607 0.06163967 0.9423942
-6.5589938 11.583525 0.055316389 0.94814599
-6.2670407 11.746963 0.055327263 0.94813621
-6.1209569 11.828731 0.055345688 0.9481194
-5.9747753 11.910557 0.055373762 0.94809461
-4.9441504 12.48748 0.055812225 0.9476946
-4.7952833 12.570801 0.055909041 0.94760466
-4.6459079 12.654433 0.056019362 0.94750625
-4.4958887 12.738399 0.05613533 0.94739944
-4.0417871 12.992598 0.056543693 0.94702721
-3.8888574 13.078203 0.056699406 0.94688553
-3.7350488 13.164296 0.056864507 0.94673496
-2.9510546 13.603154 0.05784294 0.94584292
-2.6292968 13.783261 0.058309782 0.94541842
-2.4664257 13.874443 0.058558729 0.94519091
-2.1363084 14.059218 0.059093818 0.94470471
-1.9689159 14.15292 0.059378888 0.94444543
-1.6291211 14.343124 0.059987258 0.94389355
-1.4565527 14.439726 0.060309295 0.94360042
-1.2820898 14.537393 0.060646132 0.94329542
-1.1056445 14.636152 0.060992658 0.94297838
-0.92712891 14.736094 0.061358336 0.94264883
-0.74643552 14.837246 0.061734464 0.94230664
-0.56346679 14.939648 0.06212673 0.94195139
-0.37816405 15.043379 0.062532194 0.94158274
0.19307616 15.363134 0.063845865 0.94039249
0.58780271 15.584091 0.064807855 0.93952465
1.2032812 15.928622 0.066382214 0.93810201
1.6308789 16.167988 0.067529254 0.93706679
3.5616796 23.439775 0.098525964 0.90952194
3.4990234 21.227774 0.08940582 0.91754138
3.491621 18.303701 0.077434003 0.92817438
3.7409961 18.354717 0.077854306 0.92780942
3.992666 17.349394 0.073982082 0.93126428
1.2768164 0.95240229 0.0066197966 0.99364859
1.2768066 0.90334958 0.0064996718 0.99376327
1.2768164 0.87948239 0.0064429473 0.99381751
1.2767481 0.7442773 0.0061414717 0.99410599
1.2913769 0.70993161 0.006124191 0.99412268
1.3307323 0.70993161 0.006267929 0.99398506
1.3719531 0.70992184 0.0064197537 0.99383998
1.4152539 0.70993161 0.0065797041 0.99368662
1.4607714 0.70993161 0.0067494963 0.99352443
1.5087206 0.70994139 0.0069290921 0.99335247
1.5592871 0.70994139 0.0071198652 0.9931702
1.612705 0.70993161 0.0073225019 0.99297655
1.7293066 0.70994139 0.0077685928 0.99255037
1.8610938 0.70993161 0.008277664 0.992064
1.9831835 0.672041 0.0087018199 0.9916591
22.275917 -4.2493749 0.09423881 0.91328144
13.94248 -3.955869 0.060225904 0.94367659
1.9831641 -0.69995117 0.0087394333 0.99162298
1.9337499 -0.70996094 0.0085602952 0.99179393
1.5592871 -0.70996094 0.0071200561 0.99317014
1.3719727 -0.70997071 0.0064195632 0.99383986
1.3307421 -0.70996094 0.0062680435 0.993985
1.2914063 -0.70996094 0.0061242292 0.99412251
1.2767285 -0.72294921 0.0060971067 0.99414831
1.2767383 -0.74429685 0.0061415099 0.99410599
1.2767383 -0.765957 0.006187248 0.99406213
1.2767675 -0.83297849 0.0063351439 0.99392062
1.2767968 -0.85603511 0.0063881683 0.99386996
1.2768066 -0.87951171 0.0064430237 0.99381751
1.2768164 -0.9276855 0.0065588378 0.99370682
1.2768261 -0.95244139 0.0066194916 0.99364847
10.199629 -8.224184 0.054446943 0.94894016
9.9093552 -8.409687 0.054008748 0.9493404
9.9315033 -8.6455269 0.054718092 0.94869304
9.9006348 -9.065918 0.055785485 0.94771838
2.0549023 -3.9711523 0.018581275 0.98227358
2.010205 -4.0073242 0.0186306 0.98222667
9.9374218 -21.825922 0.099657401 0.90852964
9.6593752 -22.712055 0.10256252 0.90599275
-5.2220216 -24.071333 0.10235675 0.90617228
-5.2025681 -22.606684 0.096399613 0.91138375
-5.1852245 -21.302929 0.09111084 0.91603529
-5.1697168 -20.134619 0.086384505 0.92021167
-5.1557126 -19.081377 0.082136378 0.92398149
-5.2065625 -17.509722 0.075911291 0.92953545
-5.5620313 -17.879585 0.077811509 0.92783666
-6.056963 -17.87397 0.078424983 0.92728895
-8.0591011 -18.949306 0.08557117 0.92093277
-8.3401947 -18.945576 0.086019091 0.92053425
-9.2020798 -18.934116 0.087480351 0.91924006
-7.6767383 -13.963921 0.066217951 0.93824852
-7.6712012 -13.547773 0.064697266 0.93962353
-11.023525 -18.909912 0.090958022 0.91616899
-11.664639 -18.901386 0.092297286 0.9149878
-9.4337397 -14.070649 0.070396952 0.93448251
-13.71288 -18.874174 0.096949078 0.91090214
-14.075009 -18.86936 0.09782467 0.91013432
-15.978076 -18.827368 0.10261379 0.90594667
-3.5356739 -4.0616016 0.022376822 0.97869039
-3.5322657 -3.8575194 0.02171444 0.97929543
-3.6656542 -3.8065135 0.021960488 0.97908342
-3.7547557 -3.8022656 0.02220642 0.97885174
-15.943857 -15.744761 0.093115427 0.91426802
-15.935185 -14.964135 0.090839691 0.91627347
-15.931005 -14.587871 0.08976604 0.91722292
-1.0448632 -0.9095605 0.0057565686 0.99447411
-1.044834 -0.88671875 0.0056948471 0.99453342
-1.0448242 -0.864375 0.0056351088 0.99459052
-1.0448047 -0.82100582 0.0055218507 0.99469894
-1.0447851 -0.79997069 0.0054684067 0.99475026
-1.044746 -0.73919922 0.0053184507 0.99489379
-1.0589257 -0.70996094 0.0052980804 0.99491334
-1.0882422 -0.70997071 0.005399704 0.99481601
-1.1187109 -0.70997071 0.0055062864 0.99471408
-1.1504004 -0.70997071 0.0056178281 0.99460715
-1.2178711 -0.70997071 0.005858154 0.99437702
-1.2538086 -0.70997071 0.0059878156 0.99425304
-1.2914063 -0.70997071 0.0061241151 0.99412251
-1.3307519 -0.70997071 0.0062678526 0.99398494
-1.4608008 -0.70997071 0.006749725 0.99352425
-1.50875 -0.70997071 0.0069291303 0.99335235
-1.6693262 -0.70996094 0.0075382995 0.99277008
-1.7698828 -0.72662109 0.0079508591 0.99237621
-1.7698828 -0.70076168 0.0079103848 0.99241459
-1.7699218 -0.64980465 0.0078349682 0.99248654
-1.7707422 0.65008789 0.0026130294 0.9924832
-1.7707324 0.67545897 0.0026255036 0.99244791
-1.7707422 0.7269336 0.0026515196 0.99237263
-1.5592675 0.70992184 0.0023735047 0.99317032
-1.4607812 0.70993161 0.0022498702 0.99352443
-1.2538086 0.70993161 0.0019957733 0.99425316
-1.2178613 0.70993161 0.0019526291 0.99437714
-1.0882226 0.70993161 0.0017999267 0.99481618
-1.0589257 0.70992184 0.001766014 0.99491346
-1.0440527 0.71914059 0.0017562484 0.99494183
-1.0440625 0.84183592 0.0018580245 0.99464965
-1.044082 0.90885741 0.0019176482 0.99447834
-12.076738 11.3408 0.022959137 0.93588042
-9.9402437 11.418838 0.020970954 0.94123989
-9.6027832 11.607754 0.020868644 0.94151974
-9.2683687 11.794931 0.020778388 0.94176155
-9.1022072 11.887959 0.020737877 0.94186831
-8.9366112 11.980664 0.020703506 0.94196588
-8.7715721 12.073047 0.020669822 0.94205421
-7.9526954 12.531416 0.020558052 0.94236028
-7.7898145 12.622598 0.020546265 0.94239461
-6.5589938 11.583545 0.018437309 0.94814628
-6.1209764 11.82875 0.018448791 0.9481197
-5.9747753 11.910566 0.018457184 0.94809496
-2.0587499 4.8406835 0.0072858045 0.97917861
-4.4958887 12.738408 0.018710632 0.9473998
-4.1938868 12.907451 0.018799247 0.94716036
-3.8888671 13.078213 0.018900566 0.94688588
-3.4246385 13.338066 0.019076118 0.94640672
-3.26791 13.4258 0.019140167 0.9462285
-2.9510448 13.603164 0.019281119 0.94584328
-2.7908299 13.692851 0.019358214 0.94563603
-2.6293163 13.783261 0.019437026 0.94541878
-2.4664257 13.874443 0.019521065 0.94519132
-2.3021092 13.966415 0.019606896 0.9449535
-1.9689062 14.152929 0.019793089 0.94444579
-1.6291113 14.343144 0.019996528 0.94389391
-1.1056347 14.636191 0.0203302 0.94297868
-0.74641597 14.837246 0.020578461 0.94230705
-0.19038086 15.148516 0.020984992 0.94120067
0.19305664 15.363154 0.021283263 0.94039285
0.38896483 15.472812 0.021438712 0.93996668
0.58778322 15.584102 0.021602059 0.93952507
0.99479491 15.811943 0.021946907 0.93859345
1.6308984 16.168016 0.022507323 0.93706715
3.4990039 21.227753 0.029800186 0.91754204
5.1192188 8.7815523 0.01407093 0.96015644
5.1531639 8.5898733 0.013875122 0.96072394
5.4233494 8.5458298 0.014018898 0.96032274
1.275957 0.95175779 0.0022050475 0.99365294
1.2759472 0.90274411 0.0021651839 0.9937675
1.2759374 0.83240235 0.0021104813 0.99392474
1.2759374 0.74379879 0.0020458985 0.99410981
1.2759277 0.72246093 0.0020312499 0.99415207
1.2913769 0.70993161 0.002041626 0.99412274
1.3719531 0.70992184 0.0021398924 0.99384004
1.460791 0.70993161 0.0022500609 0.99352437
1.5087206 0.70993161 0.0023098753 0.99335259
1.6692969 0.70994139 0.00251297 0.99277025
1.7293066 0.70993161 0.0025895308 0.99255043
1.9337401 0.70993161 0.0028533172 0.99179411
18.454493 -4.0035253 0.026157759 0.92724717
15.451113 -3.967207 0.022096787 0.93818396
12.255547 -3.9820898 0.017849045 0.94976085
1.9852246 -0.67276365 0.0029037856 0.99165058
1.7293261 -0.70997071 0.0025896453 0.99255031
1.6692969 -0.70996094 0.0025129318 0.99277025
1.5592871 -0.70997071 0.0023735047 0.9931702
1.5087206 -0.70997071 0.002309761 0.99335247
1.460791 -0.70996094 0.0022501755 0.99352431
1.3719727 -0.70997071 0.0021398545 0.99383992
1.2759472 -0.76544923 0.0020611191 0.99406594
1.2759472 -0.7874316 0.0020770263 0.99402046
1.2759374 -0.80974609 0.0020932769 0.99397343
1.275957 -0.85546875 0.0021282195 0.99387407
1.275957 -0.90277344 0.0021651839 0.99376738
1.275957 -0.92706054 0.0021846772 0.99371111
10.199619 -8.2241793 0.01814785 0.94894058
9.9149904 -8.2024117 0.017823638 0.94983
9.9314842 -8.6454926 0.018240051 0.94869357
9.9005957 -9.0659027 0.018595619 0.94771892
17.566034 -16.4956 0.033380546 0.90811116
17.505077 -16.857281 0.033661421 0.90736651
2.0549414 -3.9711425 0.0061932751 0.9822737
2.010205 -4.0072947 0.0062101744 0.98222691
10.272558 -21.83037 0.033422165 0.90800416
9.6593256 -22.711918 0.034185562 0.90599394
-5.2220602 -24.071512 0.034120444 0.90617228
-5.1697655 -20.134804 0.028795546 0.92021155
-5.146904 -18.140347 0.026118621 0.92734873
-5.2065721 -17.509716 0.025302542 0.92953598
-5.5620213 -17.879589 0.025937881 0.92783719
-6.0569825 -17.873974 0.026142426 0.92728943
-6.3074608 -17.871122 0.026250076 0.92699581
-6.5600977 -17.868271 0.026366729 0.92668843
-6.9049902 -17.439985 0.025982209 0.92771673
-7.7809277 -18.953007 0.028382109 0.92131597
-8.6242867 -18.941797 0.028829116 0.92012012
-9.2020798 -18.934111 0.029159965 0.91924065
-10.709814 -18.914082 0.030108146 0.91672927
-11.023525 -18.909912 0.030317839 0.91616958
-11.341728 -18.905684 0.0305373 0.91558951
-11.664658 -18.901386 0.030765342 0.9149884
-13.007451 -18.883545 0.031764068 0.91236073
-15.978095 -18.827412 0.034204941 0.90594721
-3.5505273 -3.9766307 0.0073843002 0.97890162
-3.5633299 -3.7945409 0.0072099301 0.97939378
-3.6642284 -3.8050487 0.0073171994 0.97909158
-15.939521 -15.349628 0.030645903 0.91528946
-15.935234 -14.96417 0.030279312 0.91627389
-1.0440723 -0.93222654 0.0019389724 0.99441689
-1.044082 -0.90889645 0.0019176482 0.99447823
-1.0440723 -0.86374998 0.0018771744 0.99459445
-1.044082 -0.84187496 0.0018579101 0.99464947
-1.0440625 -0.77879882 0.0018044662 0.99480343
-1.0440527 -0.7585547 0.0017876052 0.99485117
-1.0882422 -0.70997071 0.0018000792 0.99481606
-1.1834472 -0.70997071 0.0019118499 0.99449492
-1.2178711 -0.70997071 0.0019526671 0.99437702
-1.3307519 -0.70997071 0.0020893097 0.993985
-1.3719823 -0.70997071 0.0021399688 0.99383986
-1.50875 -0.70997071 0.002309761 0.99335241
-1.5592968 -0.70998043 0.0023733138 0.99317014
-1.6693066 -0.70996094 0.0025128936 0.9927702
-1.770752 -0.67547852 0.0026254654 0.99244779
-1.770752 -0.65011716 0.0026129913 0.99248308
-17.58791 -3.5847168 0.024864463 0.93071878
-21.464785 -3.5380957 0.030134201 0.91666079
-1.7715918 0.67578125 -0.0026262284 0.99244428
-1.6692871 0.70993161 -0.0025126266 0.99277031
-1.6127148 0.70993161 -0.0024404526 0.99297655
-1.5592675 0.70992184 -0.0023729706 0.99317032
-1.5087304 0.70992184 -0.0023094558 0.99335253
-1.4607812 0.70993161 -0.0022497177 0.99352443
-1.4152637 0.70993161 -0.0021930693 0.99368662
-1.3719727 0.70993161 -0.0021396256 0.99383998
-1.3307226 0.70992184 -0.0020891952 0.99398518
-1.2178613 0.70994139 -0.0019524765 0.99437714
-1.1834179 0.70991212 -0.0019113158 0.99449515
-1.1504102 0.70992184 -0.0018724822 0.99460727
-1.1187011 0.70993161 -0.0018351745 0.9947142
-1.0882226 0.70993161 -0.0017996215 0.99481618
-1.0433594 0.71866208 -0.0017547988 0.99494517
-1.0433496 0.75801754 -0.0017861176 0.99485475
-1.0433301 0.79882812 -0.0018200302 0.99475765
-1.0433301 0.8630957 -0.0018753433 0.99459839
-1.0433203 0.88541013 -0.0018951797 0.99454141
-1.0433203 0.90819335 -0.0019159698 0.99448234
-1.0433203 0.93149412 -0.0019371795 0.99442106
-12.352109 11.310703 -0.023197403 0.93520141
-12.076757 11.34081 -0.022946358 0.93588036
-11.736875 11.302529 -0.022569504 0.93690169
-11.441484 11.298603 -0.022279205 0.93770486
-11.187529 11.328984 -0.02205555 0.93829805
-10.906162 11.325253 -0.021772232 0.93904567
-10.110303 11.323662 -0.021028366 0.94108528
-9.7711029 11.513525 -0.020917282 0.94138467
-8.9366302 11.980664 -0.020703087 0.94196582
-8.7715912 12.073047 -0.020671768 0.94205415
-8.6070509 12.165166 -0.020641211 0.94213337
-8.4429493 12.257002 -0.020614814 0.94220358
-8.2792091 12.348661 -0.020594215 0.94226474
-7.7898045 12.622617 -0.02054695 0.94239461
-7.6271091 12.713691 -0.020535469 0.94242013
-7.4645019 12.804707 -0.020530395 0.94243681
-6.1209764 11.82875 -0.018447913 0.9481197
-5.9747753 11.910566 -0.018457603 0.94809496
-5.8284278 11.992499 -0.018469276 0.94806206
-5.0925097 12.404453 -0.018574066 0.94777656
-4.4958982 12.738427 -0.018712157 0.94739968
-4.1938963 12.907471 -0.018800164 0.9471603
-3.8888476 13.078222 -0.018897934 0.94688588
-3.7350585 13.164326 -0.018954735 0.94673526
-3.5803418 13.250917 -0.019013634 0.94657558
-3.26791 13.42581 -0.019139366 0.94622844
-3.1100683 13.51417 -0.019207992 0.94604063
-2.6293066 13.783291 -0.019435424 0.94541872
-2.4664354 13.874462 -0.019519806 0.94519126
-1.6291406 14.343154 -0.019995689 0.94389385
-1.4565527 14.439755 -0.02010208 0.94360071
-0.92711914 14.736123 -0.020452308 0.94264919
-0.56348634 14.939677 -0.020709151 0.94195169
-0.37814453 15.043418 -0.02084423 0.94158304
0.1930664 15.363164 -0.021282615 0.94039285
0.38896483 15.472832 -0.021439057 0.93996662
0.78967774 15.697139 -0.021771355 0.93906742
1.6308886 16.168028 -0.022510147 0.93706715
3.5616992 23.439766 -0.032841187 0.90952265
3.4505956 19.410664 -0.027314033 0.9241693
3.491621 18.303701 -0.02581089 0.92817491
3.5512304 17.423731 -0.0246315 0.93134278
5.119287 8.7816896 -0.014061431 0.9601559
5.1532125 8.5899611 -0.013875312 0.96072352
5.2459764 8.5005951 -0.013836479 0.96083164
5.4237108 8.5463772 -0.014021644 0.96032023
1.2750878 0.92639649 -0.0021829223 0.99371547
1.2750976 0.90212888 -0.0021634675 0.99377161
1.2750976 0.87830079 -0.0021447372 0.99382585
1.2750878 0.85489255 -0.002126236 0.99387819
1.2751172 0.80919921 -0.0020918655 0.99397737
1.2751172 0.76495117 -0.002059517 0.99406976
1.2751074 0.72200191 -0.0020294951 0.99415582
1.2913965 0.70993161 -0.0020409392 0.99412262
1.3307323 0.70993161 -0.002088852 0.99398512
1.3719727 0.70993161 -0.0021395874 0.99383998
1.5592871 0.70994139 -0.0023730849 0.9931702
1.612705 0.70992184 -0.0024407196 0.99297661
1.6692969 0.70994139 -0.0025124359 0.99277025
1.7293066 0.70993161 -0.002589073 0.99255043
1.7931151 0.70994139 -0.002671089 0.99231547
1.9337401 0.70993161 -0.0028533172 0.99179411
1.9873047 0.67340821 -0.0029061507 0.99164194
22.262774 -4.2468653 -0.031393699 0.91333097
18.454472 -4.0035057 -0.026158333 0.92724723
15.451103 -3.9671874 -0.02209793 0.93818402
13.942441 -3.9558494 -0.020075073 0.94367719
12.432051 -4.0394435 -0.01810688 0.94905603
1.9873047 -0.70140624 -0.0029191589 0.99160564
1.7293261 -0.70997071 -0.002589264 0.99255031
1.6127148 -0.70996094 -0.0024405287 0.99297649
1.4608105 -0.70996094 -0.0022496795 0.99352425
1.3719727 -0.70997071 -0.0021397017 0.99383992
1.2914063 -0.70996094 -0.0020411301 0.99412256
1.2751172 -0.74334961 -0.0020441054 0.9941135
1.2751074 -0.78691405 -0.0020752714 0.9940244
1.2751074 -0.8092187 -0.0020919798 0.99397737
1.2750976 -0.90216798 -0.0021636582 0.99377155
1.2750878 -0.92642576 -0.0021829605 0.99371541
10.470654 -8.227788 -0.018447075 0.94812745
9.9150095 -8.2024069 -0.017826309 0.94983
9.9314547 -8.645483 -0.018239059 0.94869369
9.928545 -8.8647022 -0.0184383 0.94815195
17.505196 -16.857407 -0.033663176 0.90736592
2.0549023 -3.9711621 -0.0061936188 0.9822737
2.010205 -4.0073047 -0.0062098694 0.98222685
10.272568 -21.830379 -0.033421554 0.90800411
9.6692381 -21.964638 -0.033243407 0.90846848
9.6593065 -22.711826 -0.034187201 0.9059943
-5.2026658 -22.607021 -0.032133024 0.91138315
-5.1698046 -20.134932 -0.028795546 0.92021108
-5.2065721 -17.509722 -0.025303802 0.92953598
-5.8085251 -17.876797 -0.026038131 0.92756987
-6.0569725 -17.87398 -0.026142044 0.92728943
-6.5601072 -17.868256 -0.026366653 0.92668849
-8.0591116 -18.949297 -0.028523253 0.92093343
-8.6243067 -18.941786 -0.028828505 0.92012012
-9.2020798 -18.93412 -0.029159965 0.91924059
-7.7079196 -14.020644 -0.022161484 0.93800604
-11.023525 -18.909906 -0.030320168 0.91616964
-11.341748 -18.905678 -0.03054039 0.91558951
-11.992451 -18.897036 -0.030999297 0.91436559
-9.3836231 -13.995928 -0.023339119 0.9348194
-13.357148 -18.878901 -0.032034226 0.91164434
-13.712891 -18.874174 -0.032318 0.91090274
-14.075039 -18.86936 -0.032607842 0.91013491
-3.5308008 -4.0559959 -0.0074486923 0.97871959
-3.5284569 -3.8533201 -0.0072271726 0.97931784
-3.662832 -3.8035839 -0.0073142243 0.97909951
-15.943945 -15.744848 -0.031042479 0.9142682
-15.931103 -14.587939 -0.029920958 0.9172231
-1.0433203 -0.93154293 -0.0019374083 0.99442095
-1.0433301 -0.88542968 -0.0018953704 0.99454135
-1.0433301 -0.86313474 -0.0018756103 0.99459833
-1.0433301 -0.81985348 -0.0018378448 0.99470639
-1.0433203 -0.79885739 -0.001819992 0.99475765
-1.0433496 -0.75805664 -0.0017863464 0.99485463
-1.0433496 -0.73820311 -0.0017702102 0.99490064
-1.1187109 -0.70997071 -0.0018350983 0.99471408
-1.1504004 -0.70997071 -0.0018724822 0.99460721
-1.1834472 -0.70997071 -0.0019113922 0.99449492
-1.2538086 -0.70997071 -0.0019957351 0.9942531
-1.2914063 -0.70997071 -0.0020411683 0.99412256
-1.3307519 -0.70998043 -0.0020890045 0.99398494
-1.3719823 -0.70997071 -0.0021395874 0.99383986
-1.4152832 -0.70998043 -0.0021930693 0.9936865
-1.4607812 -0.70998043 -0.0022497559 0.99352431
-1.7293261 -0.70997071 -0.0025891494 0.99255031
-1.7715918 -0.67580074 -0.0026262284 0.99244422
-1.7715722 -0.65041989 -0.0026140974 0.99247962
-23.09664 -3.5095215 -0.032359846 0.91078621
-1.7724316 0.65070313 -0.007845764 0.99247599
-1.7724414 0.70173824 -0.0079214862 0.99240375
-1.6692871 0.70994139 -0.0075380323 0.99277025
-1.6127245 0.70994139 -0.0073221205 0.99297643
-1.5087304 0.70992184 -0.0069289017 0.99335247
-1.4607812 0.70993161 -0.0067492295 0.99352437
-1.4152637 0.70993161 -0.0065795132 0.99368662
-1.3719727 0.70993161 -0.0064191818 0.99383992
-1.3307226 0.70992184 -0.0062676617 0.99398512
-1.2178613 0.70994139 -0.0058578108 0.99437708
-1.1503906 0.70992184 -0.0056173704 0.99460733
-1.0426368 0.75749999 -0.0053555295 0.99485821
-1.0426172 0.7776953 -0.0054049301 0.99481058
-1.0426074 0.79828125 -0.0054567335 0.99476123
-1.0425977 0.84063476 -0.0055653378 0.99465716
-1.0425683 0.88475585 -0.0056821438 0.99454534
-1.042539 0.90753907 -0.0057438277 0.99448633
-12.076728 11.34081 -0.068822518 0.93587995
-11.736884 11.302539 -0.067711793 0.93690115
-11.441513 11.298603 -0.066818543 0.93770432
-11.187549 11.328984 -0.066157609 0.93829751
-10.906142 11.325244 -0.065333173 0.93904531
-10.363837 11.318047 -0.063782617 0.94046062
-10.110322 11.323671 -0.063083075 0.94108474
-9.7711229 11.513545 -0.06275177 0.94138408
-9.6028023 11.607773 -0.062602803 0.9415192
-9.2684174 11.79495 -0.062337417 0.94176096
-9.1022167 11.887979 -0.062219046 0.94186783
-8.7715912 12.073056 -0.062013779 0.94205368
-8.6070604 12.165156 -0.061926726 0.94213295
-8.4429388 12.257031 -0.061850507 0.9422031
-8.2792091 12.348672 -0.061781537 0.94226426
-8.1158199 12.440146 -0.061723363 0.94231641
-7.6270995 12.713711 -0.061610527 0.94241965
-6.5590234 11.583564 -0.055317648 0.94814575
-6.4130368 11.665273 -0.055318944 0.94814491
-6.2670603 11.746992 -0.055328064 0.94813609
-6.120986 11.828759 -0.055348091 0.94811922
-5.8284373 11.99251 -0.055410042 0.94806165
-5.6818652 12.07456 -0.055455055 0.94802076
-5.5350485 12.156757 -0.055507965 0.94797176
-2.0587499 4.840703 -0.021867104 0.97917843
-5.0925097 12.404463 -0.0557217 0.94777614
-4.4959178 12.738427 -0.056135215 0.94739926
-4.3452735 12.822754 -0.056261938 0.94728386
-4.0417967 12.992637 -0.056543425 0.94702703
-3.8888671 13.078242 -0.056698453 0.94688541
-3.5803709 13.250927 -0.057039525 0.94657516
-2.9510643 13.603184 -0.057845648 0.9458428
-2.7908494 13.692871 -0.058072202 0.94563556
-2.1363084 14.059267 -0.059095077 0.94470453
-1.6291308 14.343174 -0.059986494 0.94389337
-1.456582 14.439765 -0.060309753 0.94360024
-1.2820996 14.537441 -0.060646363 0.94329524
-1.1056445 14.636191 -0.060994796 0.9429782
-0.92712891 14.736142 -0.061358832 0.94264865
-0.74643552 14.837265 -0.061735418 0.94230658
-0.56347656 14.939697 -0.062128257 0.94195122
9.7656248e-06 15.255116 -0.063393399 0.94080347
0.19307616 15.363193 -0.063848913 0.94039232
0.58779293 15.58414 -0.064807124 0.93952447
0.78968745 15.697177 -0.065314524 0.93906683
1.4152343 16.047314 -0.06694565 0.93759334
1.6308984 16.168037 -0.067528494 0.93706661
3.4210155 17.933622 -0.075868756 0.92957419
5.1193457 8.7817965 -0.042223051 0.96015513
5.1532907 8.5900679 -0.041626588 0.96072274
5.4240918 8.5469627 -0.04206619 0.96031725
1.2741992 0.92574215 -0.0065447995 0.99371982
1.2742187 0.90152341 -0.0064862822 0.99377584
1.2742578 0.85430664 -0.0063751219 0.99388218
1.2742676 0.83129883 -0.0063223648 0.9939326
1.2742871 0.78637695 -0.0062223435 0.99402827
1.2743067 0.74283201 -0.0061293789 0.99411726
1.2913769 0.70992184 -0.0061236569 0.99412268
1.3307129 0.70992184 -0.0062674712 0.99398518
1.4152539 0.70992184 -0.0065794755 0.99368662
1.5592675 0.70991212 -0.0071194074 0.99317032
1.7293066 0.70991212 -0.0077682873 0.99255043
1.7931151 0.70992184 -0.008013878 0.99231547
1.989375 0.70210934 -0.0087666316 0.99159688
18.454453 -4.0034962 -0.078472361 0.92724681
16.593525 -4.0389647 -0.070969462 0.93396848
13.942431 -3.9558592 -0.060224686 0.94367677
1.9893652 -0.67416012 -0.0087283701 0.99163318
1.9337499 -0.70998043 -0.0085602952 0.99179393
1.7931347 -0.70997071 -0.0080142207 0.99231535
1.7293261 -0.70998043 -0.0077679441 0.99255025
1.5087206 -0.70998043 -0.0069289017 0.99335241
1.460791 -0.70997071 -0.0067491913 0.99352425
1.4152734 -0.70998043 -0.0065795896 0.99368644
1.3307421 -0.70997071 -0.0062675094 0.99398494
1.2743164 -0.721582 -0.0060850522 0.99415934
1.2743067 -0.74288082 -0.0061292648 0.9941172
1.2742578 -0.78642577 -0.006222229 0.99402827
1.2742578 -0.83134764 -0.0063222884 0.99393255
1.2742578 -0.85436523 -0.0063750073 0.99388206
1.2742382 -0.90156245 -0.0064861677 0.99377567
1.2742187 -0.92580074 -0.0065449141 0.99371958
1.2742089 -0.95047849 -0.0066055297 0.99366146
9.909277 -8.4096336 -0.054007147 0.94934076
9.928525 -8.864687 -0.055309907 0.94815171
9.9005661 -9.0658493 -0.055786513 0.94771874
17.56621 -16.495771 -0.10013641 0.90810961
9.9374123 -21.825937 -0.099656634 0.90852964
9.6592474 -22.711742 -0.10256294 0.905994
-5.222158 -24.071953 -0.10236111 0.90616995
-5.1853514 -21.303417 -0.091113739 0.91603345
-5.1468163 -18.140097 -0.078357577 0.92734921
-6.3074512 -17.871128 -0.078755721 0.92699522
-6.8149805 -17.865376 -0.079459377 0.92636687
-6.9049902 -17.439989 -0.077944331 0.9277162
-8.0591211 -18.94931 -0.085571863 0.92093277
-8.3402147 -18.94557 -0.086020775 0.92053425
-8.6242971 -18.941801 -0.086489029 0.92011952
-9.4960842 -18.93021 -0.08800678 0.91877437
-7.6955957 -14.424678 -0.06794636 0.93669552
-7.689775 -13.987651 -0.066331327 0.93814689
-10.709795 -18.914066 -0.09032356 0.91672873
-11.023544 -18.909897 -0.09095867 0.91616899
-11.664639 -18.901381 -0.092298925 0.9149878
-11.992451 -18.897036 -0.093007773 0.91436499
-9.3807325 -14.378994 -0.071344756 0.93363082
-13.357128 -18.878897 -0.096101604 0.91164374
-15.978212 -18.827499 -0.10261631 0.90594596
-3.6613965 -3.8021288 -0.021934357 0.97910738
-3.7525389 -3.8000097 -0.022192573 0.97886413
-15.943974 -15.744873 -0.093122326 0.91426742
-1.0425195 -0.95463866 -0.0058740615 0.99436164
-1.0425586 -0.88480467 -0.0056819916 0.99454522
-1.0425781 -0.86250973 -0.005622711 0.99460214
-1.0425781 -0.84068358 -0.005565376 0.9946571
-1.0426172 -0.79831052 -0.0054565049 0.99476117
-1.0426074 -0.77773434 -0.0054051587 0.99481052
-1.0426368 -0.73770505 -0.0053071976 0.9949041
-1.0589062 -0.70996094 -0.0052977372 0.9949134
-1.0882422 -0.70997071 -0.0053993226 0.99481601
-1.1187109 -0.70997071 -0.005505905 0.99471408
-1.1504004 -0.70997071 -0.0056174467 0.99460715
-1.1834472 -0.70997071 -0.0057347869 0.99449486
-1.2538086 -0.70997071 -0.0059872814 0.99425304
-1.4152832 -0.70998043 -0.0065795132 0.99368644
-1.4607812 -0.70998043 -0.0067491913 0.99352431
-1.5087304 -0.70998043 -0.006928978 0.99335241
-1.6127539 -0.70996094 -0.0073221587 0.99297631
-1.7724512 -0.70176756 -0.0079215998 0.99240363
-23.077265 -3.506582 -0.0970034 0.91085696
-1.7732714 0.65101564 -0.013082962 0.99247229
-1.7732812 0.67642576 -0.013144569 0.99243689
-1.7733008 0.7020703 -0.013208961 0.99239993
-1.6127245 0.70993161 -0.012203788 0.99297637
-1.5592773 0.70993161 -0.011866073 0.99317014
-1.5087109 0.70993161 -0.011548042 0.99335247
-1.4607714 0.70993161 -0.011248741 0.99352431
-1.3307323 0.70993161 -0.010446128 0.993985
-1.2913867 0.70994139 -0.010206565 0.99412251
-1.2537988 0.70994139 -0.009979248 0.99425304
-1.1186913 0.70992184 -0.0091765588 0.99471414
-1.0882324 0.70993161 -0.0089988708 0.99481606
-1.0419531 0.71771485 -0.0087627405 0.99495178
-1.0419238 0.75699216 -0.0089196777 0.9948616
-1.0419043 0.79771483 -0.0090882489 0.99476475
-1.041875 0.81869137 -0.009177017 0.99471366
-1.0418652 0.84005857 -0.0092691034 0.99466079
-1.0418359 0.861875 -0.0093645472 0.99460596
-1.0417578 0.95391601 -0.0097828293 0.99436569
-11.736875 11.302529 -0.11285509 0.93690026
-11.187519 11.328984 -0.11026128 0.93829668
-10.599609 11.287421 -0.10724089 0.93994123
-10.363828 11.318047 -0.10628555 0.94045973
-9.9402733 11.418867 -0.10485622 0.9412384
-9.7711325 11.513555 -0.10458907 0.94138318
-9.6028118 11.607773 -0.10434063 0.94151831
-9.2683983 11.794961 -0.10389564 0.94176012
-9.1022167 11.888007 -0.1036988 0.94186687
-8.4429588 12.257041 -0.10308193 0.94220215
-8.2792091 12.348691 -0.10297157 0.94226336
-8.1158495 12.440156 -0.10287494 0.94231546
-7.9527144 12.531455 -0.10279552 0.94235879
-7.789834 12.622637 -0.10273322 0.94239318
-7.6271191 12.713711 -0.10268627 0.94241875
-7.4645214 12.804736 -0.10265293 0.94243538
-6.4130664 11.665283 -0.092199743 0.94814408
-6.2670507 11.747011 -0.092213668 0.94813526
-5.6818652 12.07459 -0.092423476 0.94801986
-4.94417 12.487529 -0.093021013 0.94769365
-4.7953219 12.570849 -0.093185537 0.94760364
-4.4959083 12.738447 -0.093561016 0.94739842
-4.3452635 12.822783 -0.093771935 0.94728303
-4.0418067 12.992646 -0.094241291 0.94702619
-3.8888769 13.078242 -0.094499931 0.94688457
-3.4246287 13.338105 -0.095376164 0.94640541
-3.2679002 13.425839 -0.095701866 0.94622713
-2.9510741 13.603212 -0.096407048 0.94584185
-2.6293163 13.78332 -0.097183838 0.94541734
-2.3021288 13.966475 -0.098036803 0.94495201
-2.1363084 14.059297 -0.098491937 0.94470358
-1.7999121 14.247598 -0.09946312 0.94417405
-1.4565625 14.439785 -0.10051845 0.94359934
-1.2820898 14.537441 -0.10107895 0.94329441
-0.92711914 14.736152 -0.10226459 0.94264781
-0.74642575 14.837295 -0.10289253 0.94230556
-0.19039062 15.148555 -0.10492687 0.94119918
0.58779293 15.58416 -0.10801212 0.93952346
0.78970701 15.697177 -0.10885692 0.93906587
0.99482417 15.812001 -0.1097306 0.93859184
1.6308886 16.168056 -0.11254774 0.9370656
3.5616992 23.439775 -0.16421156 0.90952063
3.4989941 21.227743 -0.1490059 0.91754031
5.1194139 8.7819138 -0.070359267 0.960154
5.2460155 8.5006056 -0.069184147 0.96083063
1.2733301 0.94978511 -0.011002197 0.99366581
1.2733399 0.92512691 -0.010900993 0.99372393
1.2734082 0.85375977 -0.010618286 0.99388611
1.2734277 0.80813473 -0.010445861 0.99398518
1.2734473 0.78585935 -0.010364227 0.99403208
1.2734571 0.76394528 -0.010285263 0.99407738
1.2734668 0.7423535 -0.01020935 0.99412102
1.4152441 0.70993161 -0.010966034 0.99368656
1.5592577 0.70991212 -0.011865959 0.9931702
1.6692675 0.70992184 -0.012563476 0.99277025
1.7292968 0.70993161 -0.012946815 0.99255031
1.7931055 0.70993161 -0.013356819 0.99231535
1.8610938 0.70992184 -0.013796005 0.99206388
16.95413 -4.1267285 -0.12085239 0.93258196
13.942411 -3.9558592 -0.10037509 0.94367599
13.501279 -4.014668 -0.097555734 0.94521445
12.808935 -3.9846387 -0.09290874 0.94775534
1.9913964 -0.64707029 -0.01450222 0.99165922
1.991416 -0.67486328 -0.014562988 0.99162441
1.991416 -0.70288086 -0.01462635 0.99158812
1.9337499 -0.70997071 -0.014267006 0.99179381
1.861123 -0.70998043 -0.013795814 0.9920637
1.7931249 -0.70996094 -0.013356933 0.99231523
1.7293164 -0.70998043 -0.012947311 0.99255013
1.6692969 -0.70996094 -0.012563438 0.99277008
1.6127148 -0.70996094 -0.012203941 0.99297631
1.5592773 -0.70997071 -0.011866302 0.99317008
1.4152637 -0.70996094 -0.01096611 0.99368644
1.2913769 -0.70997071 -0.010206452 0.99412251
1.2734375 -0.80818355 -0.010445748 0.99398506
1.2733886 -0.85378903 -0.01061821 0.99388611
10.726865 -8.2131882 -0.093570329 0.9473927
10.199619 -8.2241745 -0.09074688 0.94893944
9.9149904 -8.2024069 -0.089124523 0.94982892
9.9092674 -8.4096041 -0.090016171 0.94934011
9.9314156 -8.6454344 -0.091196552 0.94869274
9.928525 -8.8646479 -0.0921854 0.94815099
9.9005365 -9.0658255 -0.092976794 0.94771808
17.566278 -16.495869 -0.16689926 0.90810782
17.5054 -16.857632 -0.16832061 0.90736276
10.272568 -21.830379 -0.16710001 0.90800214
9.9374123 -21.825928 -0.16609825 0.90852833
-5.18541 -21.303574 -0.15185651 0.9160316
-5.1698828 -20.13521 -0.14398043 0.92020822
-5.1468458 -18.140215 -0.13060093 0.92734766
-5.4816794 -17.621254 -0.12781462 0.92884022
-5.9694629 -17.615726 -0.12881979 0.92829978
-6.465322 -17.610111 -0.12992857 0.92770678
-7.7809372 -18.953003 -0.14190158 0.92131424
-8.0591402 -18.94931 -0.1426194 0.92093158
-8.6242971 -18.941801 -0.14415087 0.92011833
-9.4960842 -18.93021 -0.14668223 0.91877317
-9.7936811 -18.92625 -0.14759466 0.91828972
-7.6992674 -14.431567 -0.11328882 0.9366653
-10.709805 -18.914072 -0.15054187 0.91672748
-11.023516 -18.909912 -0.15160018 0.9161678
-11.664629 -18.901386 -0.1538353 0.91498655
-9.4052534 -14.416582 -0.11921894 0.93346226
-9.3755074 -13.983804 -0.1166058 0.93487251
-13.712891 -18.87417 -0.16158439 0.91090077
-15.978232 -18.827559 -0.17102809 0.90594441
-3.5458691 -3.9714062 -0.036874045 0.97892857
-3.5245996 -3.8491406 -0.036164854 0.97933966
-3.5589647 -3.7898924 -0.036007613 0.97941828
-3.8407714 -3.7928123 -0.037385978 0.97863948
-15.935342 -14.964292 -0.15139961 0.91627145
-1.041748 -0.9539355 -0.0097828675 0.99436569
-1.0418164 -0.88416988 -0.0094638439 0.99454904
-1.0418164 -0.86188477 -0.0093645472 0.99460602
-1.041914 -0.77717769 -0.0090024564 0.99481398
-1.0419335 -0.75701171 -0.0089197159 0.99486154
-1.0419531 -0.73719722 -0.0088399118 0.99490738
-1.1187207 -0.70996094 -0.0091766352 0.99471396
-1.2178613 -0.70996094 -0.0097633358 0.99437696
-1.2538183 -0.70996094 -0.0099792099 0.99425298
-1.2914159 -0.70996094 -0.01020668 0.99412239
-1.415293 -0.70996094 -0.010966263 0.99368632
-1.5087402 -0.70997071 -0.011548347 0.99335229
-1.5592968 -0.70997071 -0.011866111 0.99316996
-1.6693164 -0.70997071 -0.012563705 0.99277002
-1.7733008 -0.70210934 -0.013209381 0.99239987
-1.7732714 -0.67646486 -0.013144989 0.99243689
-1.7732714 -0.65103513 -0.013082962 0.99247229
-23.074619 -3.5061815 -0.1616492 0.91086537
-1.7741406 0.70242184 -0.018502196 0.99239618
-1.7293066 0.70992184 -0.018126069 0.99255013
-1.6692871 0.70993161 -0.017589301 0.99277002
-1.6127245 0.70993161 -0.017085534 0.99297619
-1.5592773 0.70992184 -0.016612777 0.99316996
-1.460791 0.70992184 -0.015748709 0.99352413
-1.4152734 0.70992184 -0.015352783 0.99368632
-1.3307323 0.70992184 -0.014624747 0.99398488
-1.2913867 0.70993161 -0.01428936 0.99412239
-1.2178613 0.70993161 -0.013669014 0.9943769
-1.15042 0.70992184 -0.013107833 0.99460703
-1.0412207 0.75645506 -0.012479362 0.994865
-1.0411621 0.81809568 -0.012839356 0.99471724
-1.0410156 0.92943358 -0.013531799 0.9944331
-11.441494 11.298603 -0.15592432 0.93770206
-11.187529 11.328984 -0.15438218 0.9382953
-10.5996 11.287421 -0.15014014 0.93993992
-10.110352 11.323691 -0.14719626 0.94108242
-9.6028318 11.607793 -0.14607841 0.94151694
-9.2684278 11.79499 -0.1454574 0.94175869
-9.1022463 11.887998 -0.14518185 0.9418655
-8.60707 12.165175 -0.14449798 0.94213068
-8.2792187 12.348691 -0.14416149 0.94226205
-7.6271091 12.71374 -0.14376016 0.94241738
-7.4645505 12.804746 -0.14371969 0.94243401
-6.4130468 11.665293 -0.12907876 0.94814289
-6.2670703 11.747002 -0.12910239 0.94813406
-5.9747949 11.910615 -0.12920961 0.9480924
-5.5350485 12.156787 -0.12952232 0.94796973
-2.0587695 4.8407226 -0.051009595 0.97917753
-5.0925097 12.404482 -0.13002212 0.94777417
-4.94417 12.487529 -0.13023072 0.94769245
-4.6459179 12.654482 -0.13071361 0.9475041
-4.4959178 12.738447 -0.13098656 0.94739723
-4.3452635 12.822773 -0.13128358 0.94728184
-4.1939063 12.907499 -0.13159989 0.9471578
-3.5803614 13.250957 -0.13309635 0.94657308
-3.4246483 13.338105 -0.13352813 0.94640416
-2.9510643 13.603203 -0.134973 0.94584072
-2.7908204 13.6929 -0.13550478 0.94563341
-2.6293066 13.78333 -0.13606094 0.94541609
-2.3021092 13.966475 -0.13725491 0.94495082
-2.1363182 14.059287 -0.13789211 0.94470239
-1.6291406 14.343203 -0.13997523 0.94389117
-1.2820898 14.537471 -0.14150976 0.94329298
-1.105664 14.63624 -0.14232554 0.94297594
-0.92712891 14.736162 -0.14317198 0.94264644
-0.56348634 14.939716 -0.14496671 0.94194895
-0.37815428 15.043457 -0.1459152 0.9415803
-9.7656248e-06 15.255136 -0.14792255 0.9408012
0.19307616 15.363213 -0.14898367 0.94038999
0.99482417 15.812001 -0.15362632 0.93859047
1.2032909 15.928711 -0.15489402 0.93809938
3.5616796 23.439766 -0.22988902 0.90951866
3.4990039 21.227753 -0.20861089 0.9175384
3.4505761 19.410664 -0.19116348 0.92416596
5.1194725 8.7820311 -0.098580778 0.96015257
1.2724707 0.94915038 -0.015392723 0.99366993
1.2725097 0.90030271 -0.015115012 0.99378395
1.2726171 0.80761719 -0.014615097 0.99398887
1.2726367 0.78536129 -0.014500808 0.99403572
1.2726464 0.76347655 -0.014390487 0.99408096
1.2726758 0.74188477 -0.014284248 0.99412453
1.2726953 0.72063476 -0.014181671 0.99416661
1.2913672 0.70992184 -0.014289474 0.99412251
1.4607812 0.70993161 -0.015748749 0.99352413
1.5087109 0.70992184 -0.016168136 0.99335229
1.6692675 0.70992184 -0.017589264 0.99277008
1.9934765 0.6476953 -0.020324478 0.9916504
18.454405 -4.0034962 -0.18310666 0.92724425
16.954102 -4.126709 -0.1691969 0.93258059
15.451055 -3.9671776 -0.15468216 0.93818146
13.942392 -3.9558301 -0.14052884 0.94367486
1.9935058 -0.6755566 -0.020409621 0.99161553
1.9337499 -0.70997071 -0.019974556 0.99179363
1.861123 -0.70998043 -0.019314842 0.99206352
1.7931249 -0.70997071 -0.018700331 0.99231505
1.7293164 -0.70998043 -0.018126069 0.99255002
1.5087304 -0.70997071 -0.016168099 0.99335217
1.4152637 -0.70996094 -0.015353012 0.99368632
1.3719629 -0.70997071 -0.014978942 0.99383962
1.2913769 -0.70997071 -0.014289474 0.99412239
1.2726464 -0.76350582 -0.014390525 0.9940809
1.2725977 -0.83024412 -0.014733391 0.99394023
1.2724512 -0.94917965 -0.015392723 0.99366993
10.726874 -8.2131929 -0.13100161 0.94739151
10.199599 -8.2241793 -0.12704661 0.94893831
9.9149799 -8.2024021 -0.12477688 0.94982785
9.9092283 -8.4095898 -0.12602323 0.94933909
9.9284859 -8.8646336 -0.12906051 0.94814998
17.566357 -16.495953 -0.23366234 0.90810537
2.0549121 -3.971123 -0.043356474 0.98227298
2.0101855 -4.0072851 -0.043471184 0.98222619
9.9374123 -21.825922 -0.23253949 0.9085263
9.6691113 -21.96435 -0.23270178 0.90846562
-5.1854587 -21.303749 -0.21260579 0.9160291
-5.1698923 -20.135424 -0.20157674 0.92020571
-5.1558981 -19.082035 -0.19166343 0.92397618
-5.165957 -17.373095 -0.17574824 0.93006301
-5.7246094 -17.6185 -0.17963099 0.92857492
-5.9694629 -17.615717 -0.18035243 0.92829823
-6.2163281 -17.612915 -0.18110904 0.92800844
-6.8324509 -17.256758 -0.17996728 0.92844516
-7.0495505 -17.17149 -0.17998992 0.92843735
-7.2520504 -17.05164 -0.17967357 0.92855805
-8.6242771 -18.941786 -0.20181243 0.92011666
-8.9115334 -18.937973 -0.20294741 0.91968536
-9.2020798 -18.934116 -0.20412861 0.91923708
-10.549384 -18.630772 -0.20760666 0.91792035
-10.623232 -18.223257 -0.20454186 0.91908342
-11.055986 -17.915102 -0.20413817 0.91923648
-11.271318 -17.760717 -0.20397972 0.91929764
-12.267138 -17.338276 -0.20595376 0.9185487
-12.565205 -17.294512 -0.20729332 0.91804141
-12.866845 -17.249603 -0.20867702 0.9175176
-13.172002 -17.203373 -0.21010484 0.91697782
-13.480986 -17.155912 -0.21157423 0.91642094
-13.793818 -17.1071 -0.2130924 0.91584688
-14.110693 -17.056889 -0.21466175 0.91525519
-3.5258789 -4.0503516 -0.052070349 0.97874796
-3.5443065 -3.9696679 -0.0516016 0.97893721
-3.5575097 -3.7883399 -0.050391387 0.97942615
-15.939677 -15.349799 -0.21457523 0.91528493
-15.93539 -14.964326 -0.2119664 0.91626942
-1.0409765 -0.95323241 -0.013686104 0.99436969
-1.0410156 -0.92947263 -0.013531799 0.99443299
-1.0410352 -0.90625 -0.013383216 0.99449402
-1.0410742 -0.88353515 -0.013239822 0.99455279
-1.0411035 -0.86128902 -0.01310154 0.99460959
-1.0411133 -0.83949214 -0.012968063 0.99466437
-1.0411816 -0.797207 -0.012714996 0.99476814
-1.0411913 -0.77666014 -0.0125951 0.99481744
-1.0412207 -0.75650388 -0.012479324 0.99486488
-1.0412304 -0.73670894 -0.012367782 0.99491078
-1.058916 -0.70996094 -0.012361755 0.99491316
-1.0882519 -0.70997071 -0.012598877 0.99481577
-1.1187207 -0.70996094 -0.012847213 0.99471384
-1.1504102 -0.70996094 -0.013108139 0.99460697
-1.1834472 -0.70997071 -0.013381423 0.99449468
-1.2178808 -0.70997071 -0.013668899 0.99437678
-1.2538183 -0.70997071 -0.013971214 0.9942528
-1.2914159 -0.70997071 -0.01428955 0.99412221
-1.3307323 -0.70997071 -0.014624786 0.99398476
-1.3719921 -0.70997071 -0.014979019 0.99383956
-1.6127539 -0.70997071 -0.017086105 0.99297601
-1.7293359 -0.70997071 -0.018126488 0.99254996
-1.7741504 -0.70244139 -0.018501967 0.99239612
-1.774121 -0.6767773 -0.018411903 0.99243313
-1.7749511 0.65163082 -0.023573074 0.99246478
-1.6692871 0.70993161 -0.022615165 0.99276978
-1.6127245 0.70993161 -0.021967582 0.99297595
-1.5592773 0.70992184 -0.021359863 0.99316978
-1.3719727 0.70992184 -0.019258995 0.9938395
-1.2913867 0.70993161 -0.018372536 0.99412221
-1.2178613 0.70993161 -0.017574729 0.99437672
-1.15042 0.70992184 -0.016853485 0.99460685
-1.0405859 0.71674806 -0.015752601 0.99495816
-1.0405371 0.73618162 -0.015890999 0.99491405
-1.0405176 0.75596678 -0.016034355 0.99486822
-1.0404882 0.7761035 -0.016182976 0.99482083
-1.0404199 0.81753904 -0.016496466 0.99472082
-1.0404102 0.83886719 -0.016661873 0.99466795
-1.0403613 0.86062497 -0.016833305 0.99461335
-1.040332 0.88284177 -0.017010842 0.99455667
-1.040205 0.95249021 -0.017583961 0.9943738
-12.076738 11.340791 -0.20653529 0.93587565
-11.736884 11.302529 -0.20314388 0.93689698
-11.441513 11.298603 -0.20047133 0.93770015
-11.187519 11.328994 -0.19849934 0.93829346
-10.906142 11.325253 -0.19602966 0.9390412
-10.599619 11.287421 -0.19305022 0.93993807
-10.363837 11.318047 -0.19133319 0.94045663
-9.9403124 11.418897 -0.18874593 0.94123518
-9.7711525 11.513574 -0.18826751 0.94138002
-9.6028223 11.607802 -0.18782027 0.94151515
-9.4352636 11.701591 -0.18740384 0.94164079
-9.2684469 11.79498 -0.18701957 0.9417569
-8.6070604 12.165205 -0.18578842 0.9421289
-8.4429684 12.25706 -0.18555744 0.94219905
-7.9527245 12.531484 -0.18503724 0.94235569
-7.6271286 12.71373 -0.18483993 0.94241565
-6.2670703 11.747011 -0.16599153 0.94813251
-6.1210055 11.828789 -0.16604847 0.94811565
-5.9748144 11.910615 -0.16612925 0.94809085
-5.5350389 12.156787 -0.1665332 0.94796818
-2.0587597 4.8407321 -0.06559059 0.97917688
-5.0925097 12.404511 -0.1671759 0.9477725
-4.7953219 12.570859 -0.16773881 0.94760084
-3.8888671 13.078271 -0.17010638 0.94688171
-3.7350781 13.164365 -0.17060058 0.94673109
-3.5803614 13.250966 -0.17112844 0.94657141
-3.4246678 13.338124 -0.17168392 0.94640249
-3.2679198 13.425859 -0.17227051 0.94622421
-2.9510839 13.603232 -0.17353967 0.94583899
-2.7908397 13.69291 -0.17422323 0.94563174
-2.6293261 13.78333 -0.17494017 0.94541448
-2.4664354 13.874512 -0.17568944 0.94518697
-2.3021288 13.966484 -0.17647338 0.94494915
-2.1362989 14.059297 -0.17729448 0.94470072
-1.9689159 14.152998 -0.17814828 0.94444138
-1.7998828 14.247626 -0.17904079 0.94417107
-1.4565722 14.439795 -0.18093967 0.94359636
-1.1056347 14.63625 -0.18299495 0.94297421
-0.92711914 14.736191 -0.18408334 0.94264466
-0.56348634 14.939746 -0.18638903 0.94194716
-0.37817383 15.043476 -0.18761043 0.94157845
0 15.255156 -0.19018932 0.94079936
0.58778322 15.584189 -0.19443186 0.93952024
0.78969723 15.697216 -0.19594963 0.9390626
1.2032617 15.92872 -0.19915289 0.93809754
1.6309081 16.168085 -0.20259626 0.9370622
2.8474414 22.539833 -0.28324431 0.91312456
3.4173338 22.489716 -0.28360516 0.91301906
3.4505858 19.410664 -0.24579331 0.9241637
4.5545607 22.346436 -0.2843253 0.91280729
5.1211524 22.25288 -0.28468415 0.9127025
5.4036913 22.200497 -0.28486308 0.91265094
5.1195507 8.7821388 -0.12672344 0.9601509
5.4251852 8.5486908 -0.12622905 0.9603067
1.271582 0.94848633 -0.019777488 0.99367416
1.2716503 0.89969724 -0.019420814 0.99378794
1.2716894 0.87597656 -0.019251747 0.99384177
1.2717481 0.82966793 -0.018931083 0.99394411
1.2717773 0.80708981 -0.018778838 0.99399263
1.2717968 0.78485352 -0.018632317 0.99403948
1.2718847 0.74141598 -0.01835434 0.99412805
1.2719042 0.72017574 -0.01822258 0.99417007
1.2913672 0.70992184 -0.01837242 0.99412233
1.3307323 0.70993161 -0.018803786 0.99398464
1.3719727 0.70993161 -0.019258805 0.9938395
1.4152637 0.70993161 -0.019739799 0.99368614
1.4607812 0.70993161 -0.020248719 0.99352396
1.5087109 0.70992184 -0.020787658 0.99335212
1.5592773 0.70992184 -0.021359673 0.99316978
1.612705 0.70992184 -0.021967849 0.99297607
1.6692871 0.70993161 -0.022615051 0.99276978
1.7292968 0.70993161 -0.023305548 0.9925499
1.7931055 0.70994139 -0.024043389 0.99231493
1.9337305 0.70991212 -0.025681686 0.99179351
1.9956152 0.70431638 -0.026383856 0.99157006
1.9955859 0.67622072 -0.026269112 0.99160659
1.9955273 0.64836913 -0.026159134 0.99164158
18.454365 -4.0034962 -0.23542625 0.92724228
1.9955273 -0.64840817 -0.026158942 0.99164158
1.9337499 -0.70997071 -0.025681952 0.99179339
1.861123 -0.70998043 -0.024833716 0.99206328
1.6693164 -0.70996094 -0.022615241 0.99276966
1.5592773 -0.70997071 -0.021360015 0.99316967
1.2913769 -0.70997071 -0.018372497 0.99412221
1.2718164 -0.78490233 -0.018632241 0.9940393
1.2717578 -0.82970703 -0.018931044 0.99394405
1.271709 -0.85264647 -0.01908844 0.99389386
1.2716894 -0.87599605 -0.019251555 0.99384177
1.2716699 -0.89974606 -0.019420967 0.99378777
10.726865 -8.2132082 -0.16843483 0.9473899
10.470654 -8.2277975 -0.16602106 0.94812357
9.9150095 -8.2024164 -0.16042978 0.94982618
9.9284573 -8.8646145 -0.16593905 0.94814855
17.566465 -16.496031 -0.30043247 0.90810221
17.505634 -16.857847 -0.30299178 0.90735686
2.0549023 -3.971123 -0.055744398 0.98227245
10.272568 -21.83037 -0.30079159 0.90799743
9.6591311 -22.71142 -0.30769098 0.90598905
0.93702143 -24.843891 -0.30996034 0.90533161
-0.27737305 -22.070591 -0.27518263 0.91548967
-1.0788867 -21.444828 -0.26770073 0.91769105
-1.588955 -21.033857 -0.26298591 0.91908038
-1.8451855 -20.922007 -0.26185465 0.91941345
-2.3556933 -20.739815 -0.26023394 0.91989183
-3.1077831 -20.452518 -0.2579174 0.92057616
-3.3548925 -20.353266 -0.25717476 0.92079479
-3.5848339 -17.588535 -0.22379011 0.93071127
-3.8925488 -16.914175 -0.21638553 0.93292487
-4.3441892 -16.077875 -0.20763445 0.93554795
-4.7170019 -15.863296 -0.20633051 0.93593979
-5.1424704 -15.826806 -0.20747073 0.93559706
-5.357861 -15.810923 -0.20812981 0.93539959
-5.8077245 -15.81892 -0.21009085 0.93481129
-6.2882714 -15.882319 -0.21296334 0.93394959
-6.5335836 -15.914687 -0.21448149 0.93349481
-8.5308294 -18.128901 -0.24979965 0.92297852
-7.752666 -14.53165 -0.20534083 0.9362371
-9.5157909 -17.309092 -0.24626502 0.9240256
-9.7079391 -17.144691 -0.24564515 0.92421025
-10.397568 -16.848188 -0.24683662 0.9238559
-11.090263 -16.541407 -0.24829471 0.92342407
-11.321504 -16.435986 -0.24882933 0.92326605
-11.552958 -16.328896 -0.2493858 0.92310101
-12.057168 -16.164125 -0.25141749 0.922499
-13.209229 -15.967221 -0.25836611 0.92044526
-13.506064 -15.91454 -0.26023623 0.91989213
-3.5207911 -3.8449805 -0.064988971 0.97936064
-3.5560448 -3.7867968 -0.064763643 0.97943389
-15.188799 -14.626709 -0.26289749 0.9191072
-1.0402441 -0.92879879 -0.017385826 0.99443692
-1.0403222 -0.88288087 -0.01701065 0.99455661
-1.0403515 -0.86067379 -0.016833 0.99461329
-1.0404102 -0.81756836 -0.016496429 0.99472076
-1.0404687 -0.79665035 -0.01633705 0.9947716
-1.0404785 -0.77613282 -0.01618286 0.99482077
-1.058916 -0.70997071 -0.015894089 0.99491298
-1.1187207 -0.70996094 -0.016518477 0.99471366
-1.2914159 -0.70997071 -0.018372573 0.99412203
-1.3307323 -0.70997071 -0.018804016 0.99398458
