# .PCD v0.7 - Point Cloud Data file format
VERSION 0.7
FIELDS x y z intensity
SIZE 4 4 4 4
TYPE F F F F
COUNT 1 1 1 1
WIDTH 1084
HEIGHT 1
VIEWPOINT 0 0 0 1 0 0 0
POINTS 1084
DATA ascii
-1.8350781 7.1470995 -0.50160772 0.97084951
-1.7451562 7.1696091 -0.50161028 0.97084939
-1.6549219 7.1910448 -0.5016129 0.97084916
-1.3827343 7.2484078 -0.50162077 0.97084874
-1.1085742 7.2954879 -0.5016287 0.97084832
-1.0168359 7.308877 -0.50163132 0.97084814
-0.92492187 7.3211036 -0.501634 0.97084802
-0.83281249 7.3322067 -0.50163668 0.97084785
-0.64832032 7.3508887 -0.50164205 0.97084755
-0.35076171 6.9717283 -0.4745262 0.97240138
-0.079687499 6.3387303 -0.43093014 0.97490484
0.22558594 5.9813571 -0.40689209 0.97628796
0.29703125 5.9048142 -0.40190825 0.97657502
0.6615625 5.8248048 -0.3985078 0.97677094
0.73468751 5.8159962 -0.39850387 0.97677106
1.025957 5.7714844 -0.39848781 0.97677207
1.0983984 5.7580762 -0.39848369 0.97677231
1.2426953 5.7285252 -0.39847538 0.97677284
1.38625 5.6953712 -0.39846691 0.97677326
1.5289062 5.6586132 -0.39845827 0.9767738
1.670625 5.6184473 -0.39846098 0.97677362
1.8113672 5.5749021 -0.39847741 0.97677273
1.8813281 5.551836 -0.39848566 0.97677219
2.089375 5.4773045 -0.39851055 0.97677082
2.1580858 5.4507518 -0.39851889 0.97677022
2.2264647 5.4233007 -0.39852729 0.9767698
2.2944922 5.395 -0.39853567 0.97676933
2.3621287 5.3658786 -0.39854407 0.97676879
2.6289842 5.240859 -0.39857787 0.97676688
2.6946874 5.2075095 -0.39858633 0.97676641
2.9531641 5.0659275 -0.39861754 0.97676462
3.0166016 5.0284667 -0.39861929 0.97676444
3.0795703 4.9901757 -0.39862117 0.97676438
3.1420507 4.9511032 -0.39862379 0.97676426
3.2040625 4.9112597 -0.39862648 0.97676408
3.3264842 4.8292575 -0.39863184 0.97676384
3.4468358 4.7441993 -0.39863735 0.97676355
3.5062108 4.7005568 -0.39864013 0.97676331
3.5650389 4.6561618 -0.39864293 0.97676313
3.6233203 4.6110153 -0.39864573 0.97676295
3.7945898 4.4712696 -0.39865431 0.97676253
3.9058006 4.3745604 -0.39866015 0.97676224
4.1208005 4.1729198 -0.39867201 0.97676146
4.224453 4.0681152 -0.39867812 0.97676104
4.2752342 4.0147362 -0.39868164 0.97676098
4.3253903 3.9607322 -0.39868519 0.97676075
4.4717383 3.7949803 -0.39869589 0.97676015
4.5191016 3.7385254 -0.39869949 0.97675997
4.5657811 3.6814647 -0.39870307 0.97675973
4.6117187 3.6238475 -0.3987067 0.97675949
1.2550781 0.84145504 -0.1027211 0.99396014
1.2552344 0.81890625 -0.10188427 0.9940092
1.2558203 0.73207027 -0.098819539 0.99418902
1.2559961 0.71118164 -0.098119274 0.99422991
1.3307031 0.70993161 -0.10252987 0.99397141
1.3719531 0.70992184 -0.10501133 0.99382591
2.0237501 0.71425778 -0.14589077 0.99143273
7.1024804 2.0151563 -0.50187314 0.97083431
7.1272655 1.9257421 -0.50187397 0.97083426
7.150918 1.8360254 -0.50187474 0.9708342
7.1948047 1.6557422 -0.50187624 0.97083414
7.2341404 1.4744335 -0.50187755 0.97083414
7.2521091 1.383418 -0.50187814 0.97083408
7.2689452 1.2921679 -0.50187874 0.97083402
7.2846289 1.2007324 -0.50187927 0.97083396
7.3125 1.0172851 -0.50188035 0.97083396
7.335742 0.83319336 -0.50188118 0.97083402
7.345664 0.74094725 -0.5018816 0.9708339
7.3543749 0.64857423 -0.50188196 0.97083396
7.3619723 0.55611324 -0.50188226 0.97083384
7.3683982 0.46356446 -0.50188255 0.97083378
7.3823829 0.092773438 -0.50188333 0.97083378
7.3829489 -1.953125e-05 -0.50188345 0.97083384
7.3823829 -0.092792965 -0.50188351 0.97083378
7.3777342 -0.27829102 -0.50188363 0.97083372
7.3684177 -0.46359375 -0.50188351 0.97083366
7.354414 -0.64861327 -0.50188333 0.97083378
7.3456836 -0.74098629 -0.50188315 0.97083378
7.3358202 -0.8332324 -0.50188297 0.97083366
7.3247657 -0.92534178 -0.50188273 0.97083372
7.2991796 -1.1091211 -0.5018822 0.97083378
7.284668 -1.2007617 -0.50188184 0.97083378
7.2150974 -1.5652539 -0.50188023 0.9708339
7.1948438 -1.6557813 -0.50187975 0.97083396
7.0766406 -2.1042871 -0.50187677 0.97083414
2.0237889 -0.65759766 -0.14465462 0.99150485
2.0237694 -0.68583983 -0.14525841 0.99146956
2.0237501 -0.71430665 -0.14589058 0.99143267
1.9337109 -0.70998043 -0.14003211 0.99177527
1.8611132 -0.70996094 -0.13540843 0.9920457
1.6692773 -0.70997071 -0.12331196 0.99275368
1.6126952 -0.70997071 -0.11978271 0.99296039
1.5592577 -0.70997071 -0.11646709 0.99315459
1.4152343 -0.70998043 -0.10763378 0.99367213
1.371914 -0.70996094 -0.1050114 0.99382597
1.3307031 -0.70998043 -0.10252964 0.99397129
1.2558594 -0.73211914 -0.098819271 0.99418885
1.2553906 -0.79674804 -0.10107674 0.99405646
1.2550781 -0.84149414 -0.10272095 0.99396008
1.2547265 -0.88777339 -0.10448562 0.99385661
1.2543359 -0.93568355 -0.10637943 0.99374568
5.8615623 -4.487998 -0.50184399 0.97083592
5.6881638 -4.7057028 -0.50183916 0.97083622
5.4797263 -4.7702341 -0.49387428 0.97129244
5.3408008 -4.7685447 -0.48671362 0.97170269
5.205781 -4.7669139 -0.47983322 0.97209716
4.946836 -4.7638278 -0.46685454 0.97284144
4.8224607 -4.7623143 -0.46073234 0.97319293
4.7013669 -4.7608495 -0.45483834 0.97353113
4.583281 -4.7594333 -0.44916475 0.97385693
4.4680467 -4.7580075 -0.44369575 0.97417104
4.3553905 -4.7564259 -0.43841162 0.97447485
3.9299023 -4.7504883 -0.41910937 0.97558475
3.8310935 -4.7513671 -0.41490462 0.97582662
3.7345312 -4.7526364 -0.41088539 0.97605801
3.5467968 -4.754961 -0.40325317 0.97649753
3.3873436 -4.787715 -0.3986825 0.9767608
3.3268945 -4.8298926 -0.39868081 0.97676086
3.0799608 -4.990859 -0.39867377 0.97676128
3.0170312 -5.0291309 -0.39867201 0.97676134
2.8896484 -5.1033201 -0.39866835 0.97676158
2.8252733 -5.1392188 -0.39866653 0.97676164
2.7604492 -5.1742673 -0.39866468 0.97676188
2.6295311 -5.2419825 -0.39866096 0.97676194
2.4969335 -5.3063474 -0.39865714 0.97676224
2.2951367 -5.3966017 -0.39865142 0.97676259
2.2271287 -5.4249997 -0.39864942 0.97676265
2.1587694 -5.452529 -0.39864746 0.97676277
1.9517187 -5.5299511 -0.39864153 0.97676307
1.6005859 -5.6414452 -0.39863142 0.97676367
1.5295702 -5.6610742 -0.3986294 0.97676378
1.4583007 -5.6798239 -0.39862734 0.9767639
1.3867968 -5.6976757 -0.39862528 0.97676402
1.3150976 -5.7145996 -0.39862323 0.9767642
1.09875 -5.7600193 -0.39861697 0.97676456
0.95363277 -5.7857518 -0.39861283 0.9767648
0.88085938 -5.7972555 -0.39861068 0.97676486
0.80792969 -5.8078418 -0.3986086 0.97676498
0.51511717 -5.8409863 -0.39860007 0.97676539
0.36814451 -5.8519921 -0.39859584 0.97676581
0.2945703 -5.8561621 -0.39859369 0.97676575
0.22097656 -5.859375 -0.39859158 0.97676587
-3.9062499e-05 -5.8634276 -0.39858511 0.97676629
-0.073710933 -5.8629489 -0.39858299 0.97676641
-0.36818358 -5.8516893 -0.39857441 0.97676694
-0.44167969 -5.8466015 -0.39857227 0.97676694
-0.58845699 -5.8335743 -0.398568 0.9767673
-0.66171873 -5.8256836 -0.39856586 0.97676742
-0.80789059 -5.807168 -0.3985616 0.9767676
-0.88080078 -5.7965231 -0.39855945 0.97676778
-0.95357418 -5.7849607 -0.39855731 0.9767679
-1.0262109 -5.7725 -0.39855522 0.97676796
-1.1708984 -5.7448144 -0.39855093 0.97676826
-1.3149219 -5.7135253 -0.39854676 0.97676843
-1.3865625 -5.6965232 -0.39854461 0.97676861
-1.4580468 -5.6785936 -0.39854255 0.97676879
-1.5292773 -5.6598043 -0.39854041 0.97676891
-1.6002538 -5.6401267 -0.39853835 0.97676897
-1.8116796 -5.5757127 -0.39853212 0.97676933
-1.9512109 -5.5283689 -0.39852801 0.97676957
-2.0205078 -5.5033789 -0.39852598 0.97676969
-2.0894921 -5.4775195 -0.39852393 0.97676986
-2.2264843 -5.4232225 -0.3985199 0.97677004
-2.4960938 -5.3044138 -0.39851195 0.97677046
-2.5625391 -5.2725878 -0.39850998 0.97677064
-2.6285937 -5.2399802 -0.39850801 0.97677064
-2.759414 -5.1722169 -0.39850414 0.97677088
-2.8241796 -5.1370993 -0.3985022 0.976771
-3.0157421 -5.0269237 -0.39849654 0.97677135
-3.0786524 -4.9886036 -0.39849463 0.97677147
-3.2030077 -4.9096093 -0.39849094 0.97677177
-3.3253515 -4.827539 -0.3984873 0.97677189
-3.3857422 -4.7853417 -0.39848548 0.97677201
-3.445586 -4.7424216 -0.39848372 0.97677207
-3.5048828 -4.6987205 -0.39848194 0.97677219
-3.5667772 -4.6584082 -0.39883262 0.97675198
-3.8442967 -4.6469531 -0.40997469 0.97611034
-3.9402733 -4.6428905 -0.41395381 0.97588134
-4.038125 -4.6387305 -0.41807556 0.97564417
-4.2448044 -4.6356249 -0.42727557 0.97511488
-4.4609571 -4.6323829 -0.43717432 0.97454578
-4.6875 -4.6289649 -0.44783169 0.97393346
-4.8050389 -4.6272068 -0.45346716 0.97360975
-1.0249023 -0.93848628 -0.094466969 0.99444401
-1.0255274 -0.870332 -0.091432147 0.99462187
-1.0257226 -0.84855467 -0.090490952 0.99467707
-1.0264062 -0.76561522 -0.087043263 0.99487936
-1.0265625 -0.74583983 -0.086255036 0.99492562
-1.0589453 -0.70998043 -0.086664006 0.99490154
-1.1504492 -0.70997071 -0.091895252 0.99459463
-1.2538476 -0.70997071 -0.097947121 0.99423975
-1.2914257 -0.70997071 -0.10017799 0.99410897
-1.4608203 -0.7099902 -0.11040821 0.99350929
-1.6693164 -0.70996094 -0.12331218 0.99275357
-1.7293359 -0.70996094 -0.12707721 0.99253315
-1.7923046 -0.7096191 -0.13103519 0.99230129
-1.7921484 -0.68367183 -0.13038929 0.99233931
-1.7920703 -0.65793943 -0.12977004 0.99237549
-6.9866405 -2.3675683 -0.501468 0.97085744
-7.0967383 -2.0135448 -0.50146443 0.97085756
-7.1214452 -1.9241992 -0.50146359 0.97085768
-7.1675391 -1.7446094 -0.5014621 0.97085774
-7.1889062 -1.6544238 -0.50146139 0.97085768
-7.2091403 -1.5639551 -0.50146067 0.97085762
-7.2281637 -1.4732324 -0.50146002 0.97085786
-7.2461329 -1.3822753 -0.50145942 0.9708578
-7.293066 -1.1081738 -0.50145775 0.97085786
-7.306406 -1.0164453 -0.50145727 0.97085786
-7.318574 -0.92455077 -0.5014568 0.97085798
-7.355742 -0.55567384 -0.50145531 0.97085816
-7.3673825 -0.37063476 -0.50145477 0.97085816
-7.3714843 -0.27804688 -0.50145459 0.97085804
-7.3761325 -0.092714839 -0.50145429 0.9708581
-7.0860739 0.089042969 -0.50146252 0.97198254
-7.0843749 0.1780664 -0.50146246 0.97198266
-7.0815625 0.26708984 -0.5014624 0.97198272
-7.0776954 0.35603514 -0.50146246 0.97198254
-7.0726562 0.44496092 -0.50146252 0.97198254
-7.0413671 0.7997461 -0.50146306 0.97198254
-7.0190625 0.97644532 -0.50146347 0.97198248
-7.0062499 1.0645703 -0.50146377 0.97198242
-6.9923043 1.152539 -0.50146413 0.97198248
-6.9772654 1.2403125 -0.50146443 0.97198248
-6.961113 1.3279004 -0.50146478 0.97198254
-6.9255857 1.5024023 -0.50146568 0.97198242
-6.885664 1.6759667 -0.50146663 0.9719823
-6.8640428 1.7623827 -0.50146717 0.97198236
-6.7927732 2.019834 -0.50146896 0.97198224
-6.7668552 2.1050489 -0.50146961 0.97198224
-6.7118359 2.2744336 -0.50147104 0.97198218
-6.6827536 2.3586035 -0.50147182 0.97198206
-1.7929101 0.6582129 -0.13514964 0.99237049
-1.7930468 0.68393552 -0.13579452 0.99233413
-1.7293359 0.70994139 -0.13228045 0.99253178
-1.6693358 0.70993161 -0.12836178 0.99275213
-1.50875 0.70993161 -0.11798935 0.9933359
-1.3720117 0.70992184 -0.10931198 0.99382448
-1.253828 0.70994139 -0.10195789 0.99423879
-1.2178906 0.70992184 -0.099752121 0.99436307
-1.1504296 0.70993161 -0.095658526 0.99459374
-1.11875 0.70992184 -0.093756862 0.99470091
-1.0589453 0.70992184 -0.090212896 0.9949007
-1.0307031 0.70993161 -0.088560067 0.99499393
-1.0258594 0.74530274 -0.089726828 0.99492818
-1.0256835 0.76505858 -0.090546302 0.99488199
-1.0255469 0.78516603 -0.091395222 0.99483407
-1.0253515 0.80567384 -0.092274629 0.99478453
-1.0251758 0.82658201 -0.093185998 0.99473315
-1.0249804 0.84791988 -0.094129905 0.99467993
-1.0248047 0.86967772 -0.095108449 0.99462473
-1.0245898 0.89186519 -0.09612228 0.99456769
-1.024375 0.91457027 -0.097173534 0.99450845
-5.1664648 4.8515916 -0.50151324 0.97197986
-5.1051168 4.9161329 -0.50151497 0.97197974
-5.0429688 4.9799218 -0.5015167 0.97197962
-4.9799805 5.0429196 -0.50151849 0.97197956
-4.9162302 5.1051269 -0.50152028 0.97197944
-4.7864451 5.2271094 -0.50152391 0.97197914
-4.7204099 5.2868357 -0.50152576 0.97197914
-4.5178514 5.4610643 -0.50153148 0.97197878
-4.4488478 5.5174217 -0.50153345 0.97197878
-4.3088279 5.6275392 -0.50153738 0.97197849
-4.1660938 5.7340622 -0.50154144 0.97197831
-4.0207419 5.8370018 -0.50154555 0.97197801
-3.7978904 5.9844728 -0.50155187 0.97197777
-3.7224219 6.0317478 -0.50155401 0.97197759
-3.5697069 6.1234469 -0.5015583 0.97197735
-3.4924803 6.1678319 -0.50156057 0.97197729
-3.3364062 6.2537107 -0.50156498 0.97197706
-3.2575781 6.2951756 -0.50156724 0.97197688
-3.0983202 6.3750978 -0.50157177 0.97197676
-3.0180078 6.4135642 -0.5015741 0.97197658
-2.937207 6.4510059 -0.50157642 0.97197646
-2.7741992 6.5228415 -0.50158107 0.97197616
-2.6920311 6.5572362 -0.50158346 0.97197598
-2.5264063 6.6228614 -0.50158817 0.9719758
-2.4430077 6.6541309 -0.50159055 0.97197556
-2.2749999 6.7134862 -0.50159538 0.97197539
-2.1056249 6.7685838 -0.50160027 0.97197515
-2.0203905 6.7945409 -0.50160271 0.97197503
-1.9348828 6.8194432 -0.50160515 0.97197479
-1.8490624 6.8432422 -0.5016076 0.97197467
-1.5898046 6.9081836 -0.50161511 0.97197431
-1.5028906 6.9276366 -0.50161761 0.97197419
-1.4157226 6.9460154 -0.50162011 0.97197402
-1.2407812 6.9794822 -0.50162518 0.97197366
-1.064961 7.0085254 -0.50163025 0.97197342
-0.97683591 7.0213866 -0.50163281 0.9719733
-0.80007809 7.0437889 -0.50163794 0.971973
-0.5340234 7.0690231 -0.50164562 0.9719727
-0.44515625 7.0752244 -0.50164819 0.97197253
-0.35076171 6.9717283 -0.4939577 0.97239614
-0.25302735 6.7082419 -0.47502702 0.97343987
-0.16253906 6.4641504 -0.45756197 0.97440386
-0.079687499 6.3387108 -0.44857696 0.97490013
-3.9062499e-05 6.2380662 -0.44141993 0.9752956
0.15195312 6.0460544 -0.4279677 0.97603935
0.29556641 5.8756542 -0.41629928 0.97668493
0.36453125 5.7945118 -0.41084251 0.976987
0.43210936 5.7203903 -0.40594018 0.97725844
0.77968746 5.6046386 -0.40041637 0.97756445
0.84595704 5.5674314 -0.39848629 0.97767138
0.9158203 5.5563083 -0.39848238 0.97767162
0.98554683 5.5443068 -0.39847851 0.97767186
1.1245703 5.5176759 -0.39847052 0.97767228
1.2628515 5.4875684 -0.39846247 0.9776727
1.6049609 5.3975391 -0.39846858 0.97767228
1.6726953 5.3770509 -0.39847645 0.97767186
1.7401366 5.3556933 -0.39848435 0.9776715
1.8073437 5.3335056 -0.39849228 0.97767109
2.0072265 5.2619138 -0.39851618 0.97766972
2.0732031 5.2363868 -0.39852419 0.9776693
2.1389062 5.2100291 -0.39853224 0.97766882
2.2042186 5.1828418 -0.39854029 0.9776684
2.3338671 5.1260252 -0.39855647 0.97766751
2.4620702 5.0659666 -0.39857271 0.97766656
2.5887108 5.0026855 -0.39858902 0.97766572
2.6514063 4.9698534 -0.39859715 0.97766531
2.7755663 4.901865 -0.39861351 0.97766441
2.8980076 4.8307223 -0.39862597 0.97766358
3.1371093 4.679111 -0.39863518 0.97766316
3.195703 4.6393456 -0.39863777 0.97766298
3.3112891 4.5576367 -0.39864302 0.9776628
3.6453514 4.2954493 -0.39865935 0.97766179
3.752207 4.2025194 -0.39866492 0.97766155
3.8047264 4.1550779 -0.39866778 0.97766143
4.0583005 3.9081151 -0.39868218 0.97766054
4.1071091 3.8568456 -0.3986851 0.97766036
4.1552734 3.8049512 -0.39868805 0.97766024
4.2496486 3.6993847 -0.39869472 0.97765988
4.2958593 3.6457031 -0.39869815 0.9776597
4.3478513 3.596875 -0.39929965 0.97762638
4.4302735 3.4812694 -0.39870402 0.97765934
4.4736719 3.4253321 -0.39870536 0.97765929
1.2534765 0.93500972 -0.11066047 0.99374878
1.2537109 0.91086912 -0.10965877 0.99380511
1.2538671 0.88713866 -0.10869186 0.99385971
1.2544141 0.81835938 -0.10598759 0.994012
1.2545898 0.79618162 -0.10514793 0.99405926
1.2549024 0.7528125 -0.10355564 0.99414897
1.255039 0.73162109 -0.10280124 0.99419153
1.2552344 0.71074218 -0.10207333 0.9942323
1.3307031 0.70993161 -0.1067284 0.99397022
1.3719531 0.70992184 -0.10931148 0.99382472
1.4152343 0.70993161 -0.11204147 0.993671
1.4607812 0.70993161 -0.11492927 0.99350828
1.5592577 0.70994139 -0.12123664 0.99315333
1.6126952 0.70994139 -0.12468757 0.99295908
1.6692578 0.70992184 -0.12836181 0.99275243
1.7292773 0.70992184 -0.13228084 0.99253201
1.9337109 0.70992184 -0.14576672 0.99177378
2.023711 0.68575191 -0.15120174 0.99146825
2.023711 0.65753907 -0.15057285 0.9915036
6.7980857 2.0214159 -0.50186425 0.97196066
6.846777 1.8499511 -0.50186586 0.97196048
6.869453 1.7637597 -0.50186664 0.9719606
6.8910937 1.6773046 -0.50186735 0.97196054
6.9310937 1.503623 -0.50186867 0.97196043
6.9494529 1.4164063 -0.50186932 0.97196037
6.99791 1.1534668 -0.50187105 0.97196031
7.0247264 0.97725582 -0.501872 0.97196019
7.0364451 0.88889647 -0.50187242 0.97196019
7.0783982 0.44532225 -0.50187409 0.97196013
7.0901561 0.17822266 -0.50187474 0.97196013
7.091836 0.089091793 -0.50187486 0.97196013
7.0901952 -0.17824218 -0.50187516 0.97195995
7.0873632 -0.26731443 -0.50187516 0.97196007
7.0834765 -0.35637695 -0.5018751 0.97195995
7.0784373 -0.4453418 -0.50187504 0.97195995
7.0650001 -0.62309569 -0.50187486 0.97196001
7.0566015 -0.71183592 -0.50187474 0.97196001
7.0119138 -1.0654882 -0.50187379 0.97196007
6.9828906 -1.2413574 -0.50187314 0.97196019
6.9667578 -1.3290136 -0.50187278 0.97196013
6.9116797 -1.5906347 -0.50187147 0.97196031
6.8467965 -1.8499999 -0.50186986 0.97196037
1.9337109 -0.70998043 -0.14576653 0.99177372
1.7931055 -0.70997071 -0.1364684 0.99229634
1.7293164 -0.70996094 -0.13228062 0.99253184
1.5592577 -0.70997071 -0.12123638 0.99315327
1.5086719 -0.70997071 -0.11798935 0.99333614
1.4607812 -0.70996094 -0.11492942 0.99350822
1.4152343 -0.70998043 -0.11204135 0.99367094
1.2913672 -0.70997071 -0.10428035 0.99410802
1.2550585 -0.73167968 -0.10280113 0.99419135
1.2549218 -0.75288087 -0.10355583 0.99414879
1.2542382 -0.84095699 -0.10685722 0.99396288
1.254082 -0.86387694 -0.10775852 0.99391204
5.576211 -4.3817968 -0.50183558 0.97196227
5.5207028 -4.4514942 -0.50183403 0.97196233
5.4643164 -4.5205173 -0.50183243 0.97196239
5.2900195 -4.7232127 -0.5018276 0.97196257
5.0745311 -4.7653613 -0.49259526 0.97247124
4.946836 -4.7638278 -0.48597163 0.97283626
4.8224998 -4.7622948 -0.47959957 0.9731878
4.583281 -4.7594333 -0.46755847 0.97385198
3.9299023 -4.7504883 -0.43627167 0.97558016
3.8292577 -4.7490821 -0.43168986 0.97583348
3.730664 -4.7477245 -0.42726845 0.97607797
3.3585351 -4.7469921 -0.4114767 0.97695178
3.2705078 -4.7480369 -0.40797347 0.97714585
3.1839647 -4.7490134 -0.40458891 0.97733331
2.8373437 -4.8672557 -0.39866659 0.97766137
2.7759373 -4.9025388 -0.39866486 0.97766137
2.5891795 -5.0035934 -0.3986595 0.97766167
2.3986914 -5.0975585 -0.3986541 0.97766203
2.3344531 -5.1272755 -0.39865226 0.97766209
2.2698047 -5.1561813 -0.39865038 0.97766227
2.2048438 -5.1842871 -0.39864856 0.97766227
2.139492 -5.2115526 -0.39864668 0.97766244
1.941543 -5.2884178 -0.39864102 0.97766268
1.8749218 -5.3123732 -0.39863911 0.9776628
1.7408203 -5.3577638 -0.39863524 0.97766298
1.6056249 -5.399756 -0.3986313 0.97766322
1.469375 -5.4383497 -0.39862743 0.97766346
1.3322656 -5.473506 -0.39862347 0.97766364
1.2633593 -5.4897656 -0.39862147 0.97766387
1.1942773 -5.5051951 -0.3986195 0.97766387
0.98589844 -5.5462108 -0.39861345 0.97766423
0.91611326 -5.5581446 -0.39861146 0.97766435
0.77615231 -5.5793653 -0.3986074 0.97766453
0.63570309 -5.5970407 -0.39860335 0.97766477
0.5653125 -5.6045508 -0.39860129 0.97766489
0.42425781 -5.6169238 -0.39859721 0.97766519
0.14152344 -5.6310449 -0.39858902 0.97766554
-1.953125e-05 -5.6327634 -0.3985849 0.97766578
-0.070820309 -5.6323047 -0.39858285 0.97766584
-0.14158203 -5.6309471 -0.39858076 0.97766596
-0.21230468 -5.6286716 -0.3985787 0.97766614
-0.35371092 -5.6215038 -0.39857459 0.97766638
-0.49486327 -5.6107812 -0.39857048 0.97766656
-0.5653125 -5.6040916 -0.39856842 0.97766668
-0.6356836 -5.5965233 -0.39856637 0.9776668
-0.77613282 -5.5787206 -0.39856222 0.97766703
-0.98582029 -5.5454197 -0.39855614 0.97766733
-1.1941016 -5.5042286 -0.39855003 0.97766775
-1.263164 -5.4887695 -0.39854801 0.97766781
-1.4007031 -5.4552245 -0.39854395 0.97766811
-1.4691406 -5.4371777 -0.39854193 0.97766817
-1.5373437 -5.4182715 -0.39853996 0.97766823
-1.8075781 -5.3340821 -0.39853197 0.97766864
-2.0073047 -5.2620897 -0.3985261 0.977669
-2.0732813 -5.2364063 -0.39852417 0.97766912
-2.2041795 -5.1826072 -0.39852032 0.97766936
-2.3979297 -5.0957909 -0.39851454 0.9776696
-2.4617577 -5.0652146 -0.39851269 0.97766978
-2.5251954 -5.0338473 -0.39851081 0.97766989
-2.8971093 -4.8292089 -0.39849976 0.97767049
-3.0770311 -4.7165332 -0.39849439 0.97767073
-3.1360545 -4.6774607 -0.39849266 0.97767085
-3.2117186 -4.6625681 -0.40062952 0.97755241
-3.2964647 -4.6591892 -0.40386593 0.97737312
-3.4701171 -4.6521091 -0.41068587 0.97699559
-3.9379883 -4.6402245 -0.430657 0.97589052
-4.0380859 -4.6387401 -0.43519318 0.97563958
-4.1403122 -4.6371875 -0.43989593 0.97537971
-4.5728908 -4.630703 -0.46051994 0.9742403
-4.6875391 -4.6289649 -0.46617007 0.97392845
-1.024375 -0.91460937 -0.097173311 0.99450833
-1.0248047 -0.86969727 -0.095108256 0.99462467
-1.025 -0.84793943 -0.094130054 0.99467981
-1.0251758 -0.82661128 -0.093185768 0.9947331
-1.0253711 -0.80571288 -0.092274509 0.99478441
-1.0258594 -0.745332 -0.089726597 0.99492812
-1.0307031 -0.70998043 -0.088559948 0.99499381
-1.0589453 -0.70998043 -0.090212896 0.99490058
-1.0882422 -0.70997071 -0.091943316 0.99480313
-1.2179102 -0.70998043 -0.099751964 0.99436289
-1.3307421 -0.70997071 -0.10672836 0.99397004
-1.3720312 -0.70996094 -0.10931175 0.99382436
-1.6127539 -0.70998043 -0.12468761 0.99295884
-1.7293359 -0.70996094 -0.13228069 0.99253172
-1.7930468 -0.68398434 -0.13579445 0.99233401
-6.6828122 -2.3586328 -0.50147682 0.97198182
-6.7119141 -2.274492 -0.50147587 0.97198182
-6.7399607 -2.1899512 -0.50147498 0.97198182
-6.766953 -2.105078 -0.50147408 0.97198182
-6.7928514 -2.0198729 -0.50147325 0.97198194
-6.8414254 -1.8485254 -0.50147164 0.97198206
-6.8641014 -1.7624023 -0.50147092 0.97198212
-6.8856835 -1.6760156 -0.50147021 0.97198218
-6.9439449 -1.4153124 -0.50146824 0.97198224
-6.9611716 -1.3279198 -0.50146765 0.9719823
-6.992363 -1.1525781 -0.50146657 0.97198224
-7.006289 -1.0645996 -0.50146604 0.97198224
-7.0191016 -0.97649413 -0.50146562 0.9719823
-7.0307617 -0.88819337 -0.50146514 0.97198254
-7.0413475 -0.79978514 -0.50146478 0.9719826
-7.0508595 -0.71123046 -0.50146437 0.97198254
-7.0843945 -0.17810546 -0.50146282 0.97198254
-7.0860543 -0.089072265 -0.5014627 0.97198266
-6.8162107 0.17134765 -0.50147027 0.97302341
-6.8135738 0.2569629 -0.50147027 0.97302324
-6.8097653 0.34257811 -0.50147027 0.97302336
-6.7990232 0.51359373 -0.50147039 0.9730233
-6.7920704 0.59898436 -0.50147051 0.97302318
-6.7839842 0.68428707 -0.50147063 0.97302324
-6.7748632 0.76949215 -0.5014708 0.97302318
-6.7533984 0.93949217 -0.50147128 0.97302318
-6.6976562 1.2776269 -0.50147253 0.97302318
-6.6810937 1.3616894 -0.50147289 0.97302312
-6.6634374 1.4455566 -0.50147337 0.97302318
-6.5824218 1.7785156 -0.50147533 0.97302306
-6.5595703 1.8611132 -0.50147593 0.97302294
-6.5356641 1.9433788 -0.50147653 0.973023
-6.4847851 2.1070213 -0.50147784 0.97302288
-6.4298239 2.2693262 -0.50147927 0.97302276
-1.793789 0.6585449 -0.14053626 0.99236524
-1.7939062 0.68427736 -0.14120716 0.99232888
-1.5593359 0.70991212 -0.12600769 0.99315172
-1.4152734 0.70994139 -0.11645031 0.99366957
-1.3307617 0.70994139 -0.11092865 0.99396878
-1.183457 0.70993161 -0.10149787 0.99448013
-1.0589453 0.70992184 -0.093763158 0.99489969
-1.025332 0.72539061 -0.092374034 0.99497515
-1.0251952 0.74479491 -0.093195036 0.99493051
-1.0248437 0.78461915 -0.09492702 0.99483657
-1.0244726 0.82600582 -0.096785508 0.99473572
-1.0240625 0.86904293 -0.098780781 0.99462754
-1.0238671 0.89123046 -0.099833295 0.99457043
-1.0236328 0.91390622 -0.10092403 0.99451131
-4.9709177 4.6679492 -0.50151914 0.97302067
-4.9118552 4.7300587 -0.50152081 0.97302067
-4.8520508 4.7914257 -0.50152248 0.97302055
-4.6680665 4.9709373 -0.50152761 0.97302032
-4.6052537 5.0292282 -0.5015294 0.97302014
-4.4124608 5.1992774 -0.50153482 0.97301996
-4.3468165 5.2543259 -0.50153667 0.97301978
-4.213418 5.3619628 -0.50154042 0.9730196
-4.0773826 5.4661913 -0.5015443 0.97301936
-3.8684764 5.6160545 -0.5015502 0.97301912
-3.7976561 5.664238 -0.50155216 0.97301894
-3.7261717 5.7115235 -0.50155425 0.97301894
-3.5814843 5.8033981 -0.5015583 0.97301877
-3.5083203 5.8479881 -0.50156045 0.97301853
-3.4345508 5.8916211 -0.50156254 0.97301847
-3.2854297 5.9761329 -0.50156677 0.97301823
-3.210078 6.0169625 -0.50156891 0.97301817
-3.0578907 6.0958009 -0.50157326 0.97301787
-2.9037499 6.1707711 -0.50157768 0.97301769
-2.8260155 6.2067966 -0.50157988 0.97301751
-2.6691406 6.275918 -0.50158441 0.97301733
-2.5106444 6.3410645 -0.50158894 0.97301704
-2.2698827 6.4312496 -0.50159585 0.9730168
-2.1075585 6.4863377 -0.5016005 0.9730165
-1.7790234 6.5841503 -0.50160992 0.97301602
-1.6961719 6.6060448 -0.50161237 0.97301579
-1.6130078 6.6268554 -0.50161469 0.97301573
-1.5296484 6.6466208 -0.50161713 0.97301561
-1.4460156 6.6653709 -0.50161958 0.97301543
-1.3621289 6.6830273 -0.50162196 0.97301537
-1.2780664 6.6996484 -0.50162441 0.97301525
-1.19375 6.7152047 -0.50162685 0.97301513
-1.1092968 6.7297363 -0.50162929 0.97301489
-0.59923828 6.7943454 -0.50164407 0.97301424
-0.34273437 6.8122168 -0.50165147 0.97301382
-0.16251953 6.4641404 -0.47556883 0.97439879
0.22458984 5.9543262 -0.43823507 0.9763847
0.49621093 5.6270895 -0.41546211 0.97759801
0.56001949 5.5520606 -0.41040885 0.97786736
0.62226564 5.4787498 -0.40553713 0.9781273
0.81390625 5.3564649 -0.39847443 0.97850406
0.88113278 5.3457909 -0.3984715 0.97850418
1.0151757 5.3218651 -0.39846605 0.97850454
1.5441992 5.1932616 -0.39847559 0.97850394
1.609375 5.1735058 -0.39848316 0.9785037
1.6742969 5.1529784 -0.39849076 0.97850323
1.7389257 5.13166 -0.39849839 0.97850275
1.93125 5.0627537 -0.39852142 0.9785015
1.9947265 5.0381641 -0.39852911 0.9785012
2.0579298 5.0128026 -0.39853683 0.97850078
2.1833398 4.9597068 -0.39855239 0.97849989
2.2455273 4.9319725 -0.39856017 0.97849953
2.3688476 4.8741894 -0.39857578 0.97849864
2.6704688 4.7162695 -0.39861503 0.97849667
2.7296288 4.6824317 -0.3986229 0.97849613
2.7882812 4.6478515 -0.39863077 0.97849578
3.0183594 4.5020018 -0.39864075 0.97849524
3.0747266 4.4637499 -0.39864326 0.97849506
3.1305859 4.4247851 -0.39864579 0.978495
3.2408202 4.3447752 -0.39865088 0.9784947
3.3490624 4.2620311 -0.39865607 0.97849429
3.4023438 4.2196288 -0.39865869 0.97849429
3.4551172 4.1765723 -0.39866135 0.97849417
3.5590625 4.0884767 -0.39866668 0.97849381
3.6101952 4.043447 -0.39866939 0.97849363
3.7107227 3.9515135 -0.39867485 0.97849327
3.7600975 3.9045994 -0.39867759 0.97849321
3.9046874 3.7601855 -0.39868593 0.97849268
3.9516406 3.7108202 -0.39868876 0.97849268
4.0045314 3.6669335 -0.39934504 0.97845757
4.0436716 3.6103809 -0.39869261 0.9784925
4.1331639 3.5076561 -0.39869538 0.97849232
4.1769137 3.4554491 -0.39869669 0.97849226
4.4196873 3.3840137 -0.40939581 0.97792149
1.2530469 0.88655269 -0.11289394 0.99386251
1.2532226 0.86325192 -0.11192493 0.99391508
1.2537891 0.79568356 -0.10921554 0.99406183
1.2539452 0.77385741 -0.10837451 0.99410748
1.4152343 0.70993161 -0.1164505 0.99366975
1.5086914 0.70993161 -0.12263282 0.99333477
1.7292773 0.70992184 -0.13748676 0.99253052
1.9337109 0.70992184 -0.15150318 0.99177212
2.0236328 0.71420896 -0.15783054 0.99142987
6.5155859 2.0268946 -0.50185609 0.97300309
6.5644922 1.8625 -0.5018577 0.97300303
6.5874219 1.7798828 -0.50185841 0.97300279
6.6300974 1.6137793 -0.50185984 0.97300273
6.6498437 1.5303417 -0.5018605 0.97300273
6.6685543 1.4466699 -0.50186116 0.97300273
6.7028122 1.2786328 -0.50186235 0.97300267
6.7328515 1.1097754 -0.50186336 0.97300261
6.7586327 0.94022459 -0.50186431 0.97300255
6.780117 0.7700879 -0.50186509 0.97300255
6.7892575 0.68483394 -0.50186545 0.97300255
6.7973828 0.59946287 -0.5018658 0.97300237
6.8043356 0.51400387 -0.50186604 0.97300249
6.82375 -9.7656248e-06 -0.50186718 0.97300243
6.8151364 -0.34286132 -0.50186729 0.97300237
6.8043747 -0.51402342 -0.50186718 0.97300237
6.7699413 -0.85525388 -0.50186652 0.97300243
6.7328906 -1.1097949 -0.50186574 0.97300243
6.7183981 -1.1943359 -0.50186539 0.97300249
6.6862302 -1.362793 -0.50186467 0.97300261
6.6498828 -1.5303906 -0.50186378 0.97300255
6.6093163 -1.6969922 -0.50186276 0.97300261
6.56457 -1.8625683 -0.50186163 0.97300261
6.5406442 -1.9449121 -0.50186104 0.97300267
6.5156641 -2.0269334 -0.50186038 0.97300273
2.0236328 -0.65754879 -0.15649322 0.99150217
2.0236328 -0.68577147 -0.1571463 0.99146682
2.0235937 -0.71425778 -0.15783019 0.99142992
1.8611132 -0.70996094 -0.14650051 0.9920426
1.7293164 -0.70996094 -0.13748646 0.99253035
1.6126952 -0.70997071 -0.12959465 0.99295765
1.5592577 -0.70997071 -0.12600765 0.9931519
1.5086719 -0.70997071 -0.12263252 0.99333477
1.4607812 -0.70996094 -0.11945228 0.99350697
1.3307031 -0.70998043 -0.11092845 0.9939689
1.2541015 -0.75238281 -0.10756271 0.99415147
1.2539452 -0.77387697 -0.10837433 0.99410743
1.2536132 -0.81787109 -0.1100869 0.99401456
1.2530664 -0.88659179 -0.11289406 0.99386233
1.2528515 -0.91029292 -0.11389774 0.99380797
5.3649998 -4.2158298 -0.50182927 0.97300446
5.2573829 -4.3492966 -0.50182629 0.97300446
5.2023044 -4.415 -0.50182474 0.97300452
5.0321484 -4.6079102 -0.50181997 0.97300476
4.8224998 -4.7622948 -0.49847353 0.9731825
4.4680467 -4.7580075 -0.4800415 0.97416109
3.9299023 -4.7504883 -0.45344108 0.97557533
3.6341014 -4.7463574 -0.43965057 0.97630918
3.3553319 -4.7424512 -0.42726386 0.976969
3.2658203 -4.7412109 -0.42341998 0.97717381
3.1778905 -4.7399998 -0.41971019 0.97737145
3.0087695 -4.7410841 -0.41298178 0.97773021
2.8452733 -4.7428513 -0.40677604 0.97806114
2.7652733 -4.7436523 -0.40383202 0.9782182
2.4910741 -4.8141308 -0.39865646 0.97849423
2.3692968 -4.8751559 -0.39865297 0.97849447
2.2493553 -4.9404101 -0.39923927 0.97846317
2.1838672 -4.9609179 -0.3986477 0.9784947
2.1213672 -4.9879394 -0.39864594 0.97849482
1.9318359 -5.0642967 -0.39864048 0.97849506
1.7395312 -5.1334276 -0.39863494 0.97849542
1.6748828 -5.1548533 -0.39863312 0.97849554
1.6099609 -5.175488 -0.39863124 0.9784956
1.5448047 -5.1952634 -0.39862937 0.97849572
1.2817968 -5.2662306 -0.39862177 0.97849607
1.2154882 -5.2819042 -0.39861986 0.97849619
1.0823828 -5.3107224 -0.39861602 0.97849643
1.0155468 -5.3238864 -0.39861411 0.97849649
0.94855469 -5.3362012 -0.39861217 0.97849661
0.88144529 -5.3476758 -0.39861023 0.97849667
0.54390621 -5.392324 -0.39860046 0.97849727
0.40820312 -5.4042478 -0.39859653 0.97849745
0.2042578 -5.4157128 -0.39859062 0.97849774
0.13617188 -5.4178224 -0.39858863 0.97849786
-1.953125e-05 -5.4194922 -0.39858466 0.97849804
-0.2723242 -5.4125195 -0.39857674 0.97849852
-0.61164063 -5.3846192 -0.39856681 0.978499
-0.74673826 -5.3674998 -0.39856288 0.97849917
-0.81412107 -5.357656 -0.39856094 0.97849935
-1.0822656 -5.3098826 -0.39855307 0.97849971
-1.2816015 -5.265254 -0.3985472 0.97850001
-1.4135156 -5.2313085 -0.3985433 0.97850031
-1.6096483 -5.1742477 -0.39853758 0.9785006
-1.6745117 -5.1536036 -0.39853567 0.97850066
-1.867578 -5.0867677 -0.39852995 0.97850084
-1.9947656 -5.0381837 -0.39852622 0.97850108
-2.1207421 -4.9864063 -0.39852253 0.97850132
-2.183203 -4.9593263 -0.39852065 0.9785015
-2.2453516 -4.9314842 -0.39851883 0.97850156
-2.3071289 -4.9028611 -0.39851698 0.97850162
-2.4295897 -4.8432908 -0.39851338 0.97850186
-2.5505078 -4.780664 -0.39850977 0.97850204
-2.6103711 -4.7482224 -0.39850801 0.97850209
-2.6698046 -4.7150192 -0.39850622 0.97850221
-2.7288475 -4.6810741 -0.39850447 0.97850227
-3.0398827 -4.6595607 -0.40917507 0.97793305
-3.2899218 -4.6499805 -0.41893017 0.97741294
-3.377461 -4.6486425 -0.4226025 0.97721726
-3.6496875 -4.6445603 -0.43443558 0.97658682
-3.7438867 -4.6431446 -0.43866974 0.97636133
-3.8399608 -4.6417189 -0.44305727 0.97612774
-3.9379883 -4.6402245 -0.44760567 0.97588575
-4.1403122 -4.6371875 -0.45720801 0.97537482
-4.3516212 -4.6340232 -0.46753305 0.9748258
-4.6875 -4.6289649 -0.48451635 0.97392339
-4.9255466 -4.6253905 -0.49694511 0.97326344
-1.0234375 -0.9371289 -0.10205498 0.99444979
-1.0236328 -0.91396481 -0.10092396 0.99451119
-1.0238671 -0.89127928 -0.099832989 0.99457031
-1.0242578 -0.84734374 -0.097765386 0.99468255
-1.0246484 -0.80516601 -0.095839649 0.99478698
-1.0251758 -0.74483395 -0.093194924 0.99493045
-1.0307031 -0.70998043 -0.092045136 0.99499279
-1.0589453 -0.70998043 -0.093763232 0.99489957
-1.1504492 -0.70997071 -0.099422872 0.99459255
-1.2178711 -0.70996094 -0.10367775 0.99436194
-1.2914257 -0.70997071 -0.1083841 0.99410665
-1.3307421 -0.70997071 -0.11092872 0.99396878
-1.4152734 -0.70997071 -0.11645076 0.99366957
-1.50875 -0.70997071 -0.1226329 0.99333453
-1.6127539 -0.70998043 -0.12959491 0.99295741
-1.6693164 -0.70996094 -0.13341334 0.9927507
-1.7293359 -0.70996094 -0.13748653 0.99253023
-1.7940234 -0.71030271 -0.14190765 0.99229091
-1.7939062 -0.68433595 -0.14120711 0.99232882
-6.429863 -2.2693748 -0.5014841 0.97302252
-6.5108204 -2.0253906 -0.50148147 0.97302258
-6.5357032 -1.9434277 -0.50148064 0.97302276
-6.5596094 -1.8611425 -0.50147992 0.97302276
-6.6634765 -1.4455858 -0.50147641 0.973023
-6.7132421 -1.1933984 -0.50147474 0.97302294
-6.7276754 -1.108955 -0.5014742 0.97302306
-6.7410545 -1.0243067 -0.50147372 0.97302318
-6.7533984 -0.93952149 -0.50147325 0.97302312
-6.7920895 -0.5990234 -0.50147176 0.97302306
-6.8178515 -0.085693359 -0.50147051 0.97302336
-6.5691404 0.082548827 -0.50147754 0.97398919
-6.5675583 0.16508789 -0.50147748 0.97398931
-6.564961 0.24759765 -0.50147748 0.97398931
-6.5178709 0.82337886 -0.5014782 0.97398913
-6.4951172 0.98691404 -0.50147873 0.97398913
-6.4821873 1.068457 -0.50147903 0.97398919
-6.45332 1.2310253 -0.50147969 0.97398907
-6.4373436 1.3120215 -0.50148004 0.97398907
-6.3633008 1.6338086 -0.50148189 0.97398901
-6.3202734 1.7931933 -0.50148296 0.97398889
-6.1951952 2.1865234 -0.50148618 0.97398889
-1.7947656 0.68459958 -0.14662746 0.99232364
-1.7293359 0.70994139 -0.14269421 0.99252874
-1.6692969 0.70993161 -0.13846698 0.99274933
-1.6127539 0.70993161 -0.1345039 0.99295604
-1.50875 0.70993161 -0.12727806 0.99333322
-1.4608203 0.70992184 -0.12397716 0.99350554
-1.4152734 0.70994139 -0.12086178 0.99366826
-1.3307617 0.70994139 -0.11513031 0.99396753
-1.253828 0.70994139 -0.10998432 0.99423641
-1.11875 0.70992184 -0.10113762 0.99469876
-1.0882617 0.70993161 -0.099181861 0.99480104
-1.0589453 0.70992184 -0.097314946 0.99489862
-1.0307031 0.70993161 -0.095531955 0.99499184
-1.0242969 0.76400387 -0.097541921 0.99488688
-1.0239453 0.80456054 -0.099401549 0.9947896
-1.0237499 0.8254199 -0.10038146 0.99473834
-1.0233593 0.8684082 -0.10244942 0.99463022
-4.7895117 4.4976268 -0.50152463 0.97398692
-4.7326169 4.5574708 -0.50152618 0.97398686
-4.6166601 4.6749997 -0.50152946 0.97398657
-4.557539 4.7326465 -0.50153106 0.97398663
-4.4977341 4.7895799 -0.50153279 0.97398645
-4.3141017 4.9557323 -0.50153792 0.97398609
-4.0596681 5.1662989 -0.50154513 0.97398585
-3.994453 5.2169433 -0.50154698 0.97398567
-3.9285936 5.2667189 -0.50154883 0.97398567
-3.7950389 5.3638377 -0.50155258 0.97398543
-3.6590624 5.4575486 -0.50155646 0.97398525
-3.5207813 5.547822 -0.50156039 0.97398508
-3.4508202 5.59166 -0.50156236 0.9739849
-3.3092186 5.6766305 -0.50156641 0.97398484
-3.237617 5.717793 -0.50156844 0.97398472
-3.1655273 5.7580662 -0.50157052 0.9739846
-3.0929296 5.7974119 -0.50157255 0.97398448
-2.9463282 5.8733592 -0.50157678 0.97398418
-2.8722656 5.9099512 -0.50157887 0.97398412
-2.7978125 5.9455957 -0.50158101 0.973984
-2.7228711 5.9802928 -0.5015831 0.97398394
-2.4955859 6.0787401 -0.50158966 0.97398365
-2.4190233 6.1096582 -0.5015918 0.97398347
-2.3420508 6.1396093 -0.50159401 0.97398335
-2.1870508 6.1965818 -0.50159848 0.97398311
-2.0306444 6.2496285 -0.50160295 0.97398293
-1.7141211 6.3438768 -0.50161207 0.97398245
-1.3932421 6.4221191 -0.50162137 0.97398198
-1.3124609 6.4391503 -0.50162369 0.9739818
-1.2314062 6.4551563 -0.50162601 0.97398174
-0.98722655 6.4970603 -0.50163305 0.97398144
-0.74167967 6.5297751 -0.50164014 0.97398096
-0.49507812 6.553164 -0.50164735 0.97398067
-0.41265625 6.5588965 -0.50164974 0.97398055
-0.33023438 6.5635839 -0.50165212 0.97398049
-0.079687499 6.3387012 -0.48389038 0.97489005
0.077148438 6.1405663 -0.46876439 0.97566533
0.15195312 6.0460544 -0.461658 0.97602975
0.29503906 5.865283 -0.4482806 0.97671622
0.36355469 5.7787399 -0.44198078 0.97703964
0.43015623 5.6945896 -0.43592349 0.97735071
0.49523437 5.6159668 -0.43034786 0.97763717
0.55892575 5.5412207 -0.42512459 0.97790557
0.62105465 5.4681931 -0.4200877 0.97816449
0.68175781 5.3968458 -0.41523051 0.97841412
0.74105465 5.3270507 -0.41054621 0.9786551
0.79906249 5.2587595 -0.40602484 0.97888768
0.85576171 5.1919041 -0.40166232 0.97911215
0.97808594 5.1275001 -0.39845565 0.97927719
1.1066406 5.1012497 -0.39844978 0.97927737
1.1754297 5.1077247 -0.40007877 0.97919357
1.2344922 5.0718555 -0.39845321 0.97927725
1.4248437 5.0220017 -0.39847481 0.97927612
1.5506641 4.9847946 -0.39848939 0.97927535
1.6132226 4.9649901 -0.39849669 0.97927505
1.6755078 4.9444337 -0.39850402 0.97927463
1.7992969 4.9009376 -0.39851883 0.97927386
2.2231641 4.7245212 -0.39857107 0.97927129
2.341289 4.6673536 -0.39858618 0.97927046
2.399785 4.6376462 -0.39859369 0.9792701
2.6299608 4.5115428 -0.39862403 0.97926861
2.6865234 4.4782324 -0.39863163 0.97926813
2.7426367 4.4441991 -0.3986392 0.97926778
2.8534765 4.3739061 -0.39864352 0.9792676
2.962539 4.3008885 -0.39864829 0.97926724
3.0697265 4.2251368 -0.39865318 0.979267
3.1225977 4.1862597 -0.39865565 0.97926682
3.1749609 4.1467185 -0.39865813 0.97926676
3.2782421 4.0656543 -0.39866319 0.97926646
3.3291016 4.0241795 -0.39866573 0.97926623
3.478457 3.8959179 -0.39867347 0.97926593
3.5271482 3.8519139 -0.39867613 0.97926587
3.5753124 3.8073046 -0.39867878 0.97926569
3.6698437 3.7162988 -0.39868164 0.97926563
3.716289 3.6699023 -0.39868304 0.97926551
3.7621093 3.62291 -0.39868444 0.97926551
3.9132812 3.4939451 -0.40044987 0.97917449
4.3149219 3.390625 -0.41889361 0.97822589
1.2517968 0.93373042 -0.11921024 0.99375468
1.2519921 0.90963864 -0.11813263 0.99381101
1.2526171 0.83981442 -0.11511848 0.99396837
1.2534765 0.73070312 -0.11075432 0.99419641
1.2537891 0.70992184 -0.10998428 0.99423659
1.3307031 0.70993161 -0.11513027 0.99396777
1.3719531 0.70992184 -0.11791706 0.99382222
1.4152343 0.70993161 -0.12086189 0.99366844
1.5086914 0.70993161 -0.12727799 0.9933334
1.5592577 0.70994139 -0.13078102 0.99315053
1.7292773 0.70992184 -0.14269458 0.99252898
1.7930859 0.70992184 -0.14721218 0.99229336
1.9337109 0.70992184 -0.15724216 0.99177045
2.0235937 0.6857031 -0.16309352 0.99146533
6.367949 1.6350098 -0.50185215 0.97397029
6.4250975 1.3938574 -0.50185412 0.97397006
6.487031 1.0692773 -0.50185627 0.97397
6.5559373 0.4952246 -0.50185883 0.97396982
6.5662889 0.33031249 -0.50185937 0.97396988
6.5725389 0.16521484 -0.50185966 0.97396982
6.5746093 -9.7656248e-06 -0.50185996 0.97396982
6.5699606 -0.24781249 -0.50186008 0.97396976
6.566328 -0.33034179 -0.50186002 0.97396976
6.5616403 -0.41283202 -0.50186002 0.97396982
6.5559373 -0.49525389 -0.5018599 0.97396982
6.5118747 -0.90593749 -0.50185907 0.97396994
6.4730859 -1.1507324 -0.50185817 0.97397
6.4581246 -1.2319824 -0.50185788 0.97396994
6.4421482 -1.3130176 -0.50185746 0.97396988
6.425117 -1.3938867 -0.50185704 0.97397
6.3880467 -1.5548925 -0.50185621 0.97397006
6.3249216 -1.7945703 -0.5018546 0.97396994
6.301836 -1.8738965 -0.501854 0.97397012
2.0235546 -0.71421874 -0.16380329 0.99142838
1.8611132 -0.70996094 -0.15204951 0.99204093
1.7931055 -0.70997071 -0.14721195 0.99229324
1.6126952 -0.70997071 -0.13450363 0.99295622
1.5592577 -0.70997071 -0.13078059 0.99315047
1.5086719 -0.70997071 -0.12727784 0.9933334
1.4152343 -0.70998043 -0.12086155 0.99366838
1.371914 -0.70996094 -0.11791714 0.99382228
1.2913672 -0.70997071 -0.11248974 0.99410564
1.2537891 -0.70998043 -0.10998428 0.99423647
1.2534765 -0.73076171 -0.11075424 0.9941963
1.2533008 -0.7519238 -0.11156635 0.99415392
1.2531641 -0.77340817 -0.11240745 0.99410987
1.2529687 -0.79520506 -0.11327934 0.99406439
1.2528125 -0.81735349 -0.11418281 0.99401712
1.2526171 -0.83985353 -0.11511875 0.99396825
1.2524023 -0.8627246 -0.11608817 0.9939177
1.2522266 -0.8859961 -0.11709244 0.99386519
1.2517968 -0.93376952 -0.11921001 0.99375457
5.2198243 -3.99666 -0.5018248 0.97397149
5.0654297 -4.1905174 -0.5018205 0.97397178
5.0123434 -4.2538376 -0.50181901 0.97397184
4.9584765 -4.3164549 -0.50181752 0.97397196
4.9038281 -4.378418 -0.50181603 0.97397202
4.8484178 -4.4396973 -0.50181442 0.97397202
4.7922263 -4.5002441 -0.50181288 0.9739722
4.677578 -4.6191993 -0.50180966 0.97397244
4.5599999 -4.7352929 -0.50180638 0.9739725
4.3553905 -4.7564259 -0.49229133 0.97445971
4.1378512 -4.753408 -0.48105839 0.97503507
4.0327735 -4.7519431 -0.47574359 0.9753074
3.730664 -4.7477245 -0.46090493 0.97606832
3.6341014 -4.7463574 -0.45630464 0.97630435
3.5393748 -4.745039 -0.45186514 0.97653216
3.4465039 -4.7437305 -0.44758216 0.97675204
3.3553319 -4.7424512 -0.4434481 0.97696429
3.2658203 -4.7412109 -0.43945861 0.9771691
3.1778905 -4.7399998 -0.43560889 0.97736681
2.2298827 -4.7388182 -0.39977404 0.97920924
2.104121 -4.7798338 -0.39864516 0.9792673
1.7998437 -4.9024024 -0.39863646 0.97926772
1.7412499 -4.9336133 -0.39936301 0.97923034
1.6760546 -4.9460449 -0.39863291 0.9792679
1.61375 -4.9667087 -0.39863113 0.97926795
1.5512109 -4.9865723 -0.39862934 0.97926807
1.488418 -5.0056348 -0.39862749 0.97926819
1.4253906 -5.0239258 -0.3986257 0.97926825
1.3621484 -5.0414157 -0.39862388 0.97926837
1.235 -5.0740037 -0.39862022 0.97926861
1.1711328 -5.0891013 -0.39861837 0.97926867
1.1071093 -5.1033983 -0.39861652 0.97926873
1.0428905 -5.1168942 -0.39861467 0.97926879
0.97847652 -5.1295505 -0.39861283 0.97926897
0.78445309 -5.1627049 -0.39860719 0.97926927
0.45871094 -5.2016697 -0.39859778 0.97926968
0.26234373 -5.2151756 -0.39859205 0.97927004
0.19679686 -5.2180467 -0.39859015 0.9792701
0.1311914 -5.220088 -0.39858824 0.97927016
0.065585934 -5.2213087 -0.39858633 0.97927022
-0.065644532 -5.2212501 -0.39858252 0.97927046
-0.13123046 -5.2199903 -0.39858061 0.97927058
-0.19683594 -5.2179003 -0.3985787 0.97927064
-0.26238281 -5.2149801 -0.3985768 0.97927082
-0.3278906 -5.2112598 -0.39857489 0.97927082
-0.58929688 -5.1881056 -0.39856726 0.97927123
-0.6544531 -5.180254 -0.39856535 0.97927135
-0.7194922 -5.1715918 -0.39856344 0.97927147
-0.78441405 -5.162158 -0.3985616 0.97927141
-0.91386718 -5.1407323 -0.39855778 0.97927177
-1.0427734 -5.1161032 -0.398554 0.97927195
-1.1069531 -5.1025877 -0.39855212 0.97927195
-1.2348242 -5.0730858 -0.39854833 0.97927225
-1.361914 -5.0404005 -0.39854464 0.97927248
-1.488125 -5.0045409 -0.39854094 0.97927266
-1.5508984 -4.9854298 -0.39853907 0.97927272
-1.7376952 -4.9233789 -0.39853358 0.9792729
-1.799414 -4.901113 -0.39853179 0.97927308
-1.8633984 -4.8848438 -0.39907986 0.97924483
-1.9828124 -4.8297653 -0.39852637 0.97927332
-2.0433397 -4.8044529 -0.39852458 0.97927338
-2.2229297 -4.7239356 -0.39851928 0.97927374
-2.4185545 -4.673789 -0.40169787 0.97911012
-2.4920506 -4.671123 -0.4041265 0.97898513
-2.6417773 -4.6655078 -0.40925792 0.97872114
-2.7180858 -4.6625876 -0.41196623 0.97858185
-2.9541795 -4.6550193 -0.42084196 0.97812545
-3.0360937 -4.653779 -0.42414692 0.97795564
-3.2039256 -4.6512599 -0.43112117 0.97759724
-3.2899218 -4.6499805 -0.43479961 0.97740829
-3.377461 -4.6486425 -0.43861026 0.97721255
-3.466543 -4.6473045 -0.44255969 0.97700977
-3.9379883 -4.6402245 -0.46456024 0.9758808
-4.1403122 -4.6371875 -0.47452646 0.97536981
-4.2448044 -4.6356249 -0.47978735 0.97510016
-4.3516212 -4.6340232 -0.48524183 0.97482067
-4.7327342 -4.5575876 -0.50153589 0.97398621
-4.7896094 -4.4977341 -0.50153416 0.97398633
-1.0226562 -0.93642575 -0.1058427 0.99445283
-1.023086 -0.890625 -0.10354008 0.99457324
-1.0235547 -0.84675777 -0.10139725 0.99468511
-1.024121 -0.78414059 -0.098455392 0.99483895
-1.0243359 -0.76406246 -0.097541921 0.99488664
-1.0307031 -0.70998043 -0.095531993 0.99499178
-1.0589453 -0.70998043 -0.097315021 0.9948985
-1.0882422 -0.70997071 -0.09918163 0.99480098
-1.1504492 -0.70997071 -0.10318904 0.99459141
-1.183457 -0.70998043 -0.10534233 0.99447888
-1.2538476 -0.70997071 -0.10998432 0.99423629
-1.2914257 -0.70997071 -0.11248977 0.99410546
-1.4152734 -0.70997071 -0.12086178 0.99366826
-1.50875 -0.70997071 -0.12727813 0.9933331
-1.6127539 -0.70998043 -0.13450344 0.99295598
-1.7949023 -0.71066403 -0.14735489 0.99228555
-1.7947656 -0.68465817 -0.14662753 0.99232358
-1.7946875 -0.65890622 -0.1459301 0.99235982
-6.1952734 -2.1865528 -0.50149083 0.97398859
-6.2222657 -2.1085546 -0.50149 0.97398853
-6.2482419 -2.0301757 -0.5014891 0.97398865
-6.2732811 -1.9515039 -0.50148827 0.97398859
-6.2973046 -1.8725195 -0.50148755 0.97398859
-6.3423438 -1.7136718 -0.50148606 0.97398871
-6.4203711 -1.3928418 -0.50148344 0.97398895
-6.4533787 -1.2310547 -0.50148231 0.97398883
-6.4683008 -1.1498535 -0.50148177 0.97398901
-6.507031 -0.90524411 -0.5014804 0.97398901
-6.5178905 -0.82339841 -0.50147998 0.97398907
-6.5277147 -0.74143553 -0.50147963 0.97398907
-6.5365233 -0.65935546 -0.50147927 0.97398907
-6.5650001 -0.24762695 -0.50147802 0.97398913
-6.5675583 -0.16509765 -0.50147784 0.97398931
-6.5691404 -0.082558595 -0.50147772 0.97398919
-6.3383203 -2.9296874e-05 -0.50148433 0.97488815
-6.336328 0.15925781 -0.50148422 0.97488815
-6.3337889 0.23888671 -0.50148422 0.97488827
-6.3258004 0.39798826 -0.50148427 0.97488821
-6.3203125 0.47742185 -0.50148433 0.97488815
-6.297832 0.71529293 -0.50148475 0.97488815
-6.2883396 0.794375 -0.50148493 0.97488821
-6.2778516 0.87333006 -0.50148517 0.97488821
-6.2664061 0.9521777 -0.50148541 0.97488809
-6.2260938 1.1876659 -0.50148636 0.97488803
-6.2106638 1.2658007 -0.50148672 0.97488809
-6.1768942 1.4214941 -0.50148755 0.97488809
-6.0754685 1.8065429 -0.50149006 0.97488797
-6.0523243 1.8827538 -0.50149065 0.97488785
-6.0281639 1.9586425 -0.50149125 0.97488797
-6.0030856 2.0342383 -0.5014919 0.97488791
-5.9770703 2.1095312 -0.50149262 0.97488779
-1.7955273 0.65917969 -0.15133171 0.99235463
-1.7956445 0.68494141 -0.15205535 0.99231827
-1.7293359 0.70994139 -0.14790425 0.99252713
-1.6693358 0.70993161 -0.14352268 0.99274766
-1.6127539 0.70993161 -0.13941479 0.99295455
-1.50875 0.70993161 -0.13192527 0.99333179
-1.4152734 0.70994139 -0.12527476 0.99366695
-1.3720117 0.70992184 -0.12222244 0.99382067
-1.2914257 0.70993161 -0.11659706 0.99410427
-1.183457 0.70993161 -0.10918877 0.99447781
-1.1504296 0.70993161 -0.10695682 0.9945904
-1.11875 0.70992184 -0.10483055 0.99469757
-1.0589453 0.70992184 -0.10086819 0.99489754
-1.0239453 0.72445309 -0.099241138 0.99497974
-1.023789 0.74380857 -0.10012226 0.99493521
-1.0232031 0.80401367 -0.1029596 0.99479216
-1.0230469 0.82485348 -0.10397395 0.99474084
-1.0225977 0.86781245 -0.10611466 0.9946329
-1.0218945 0.9357031 -0.1096265 0.99445581
-4.5659571 4.3969727 -0.50153118 0.974886
-4.5103712 4.4540133 -0.50153279 0.97488588
-4.3393359 4.6208887 -0.50153756 0.97488564
-4.2809372 4.6750684 -0.50153923 0.97488558
-4.2218943 4.7285156 -0.50154084 0.9748854
-4.1621289 4.7812009 -0.50154251 0.9748854
-3.8537695 5.0331931 -0.50155121 0.97488499
-3.6613672 5.1749411 -0.50155669 0.97488469
-3.4637694 5.3093066 -0.5015623 0.97488445
-3.3292968 5.3947167 -0.50156611 0.97488421
-3.1926758 5.4767184 -0.50156999 0.97488403
-2.9840233 5.5932226 -0.50157595 0.97488379
-2.4811718 5.8339257 -0.50159031 0.97488302
-2.3338087 5.8944921 -0.50159454 0.97488278
-2.1849804 5.9512887 -0.50159878 0.97488272
-2.1099999 5.9783397 -0.50160098 0.97488248
-2.0347266 6.0044041 -0.50160313 0.97488242
-1.9591405 6.0295115 -0.50160527 0.9748823
-1.8069922 6.0768943 -0.50160968 0.97488213
-1.6537499 6.1204395 -0.50161403 0.97488189
-1.5767187 6.1407614 -0.5016163 0.97488177
-1.4994141 6.1601171 -0.5016185 0.97488171
-1.4218946 6.1784863 -0.50162077 0.97488165
-1.2662109 6.2123437 -0.50162524 0.97488129
-1.1880468 6.2277832 -0.5016275 0.97488123
-1.1096874 6.2422361 -0.50162977 0.97488117
-1.0311524 6.2557321 -0.50163203 0.97488105
-0.87367183 6.2796969 -0.50163662 0.97488087
-0.23902343 6.3359079 -0.50165498 0.97487998
-0.079687499 6.3387012 -0.50155872 0.97488469
0.22455078 5.9543262 -0.47144237 0.9763748
0.36355469 5.7787399 -0.45811823 0.97703475
0.43015623 5.6945801 -0.45183894 0.97734594
0.49496093 5.6127048 -0.4458003 0.97764528
0.61986327 5.4576755 -0.43458802 0.97820139
0.7396875 5.3170309 -0.42473564 0.97869027
0.85419917 5.1823535 -0.41556203 0.97914577
0.90962887 5.1171093 -0.41121334 0.97936165
