# .PCD v0.7 - Point Cloud Data file format
VERSION 0.7
FIELDS x y z intensity
SIZE 4 4 4 4
TYPE F F F F
COUNT 1 1 1 1
WIDTH 1079
HEIGHT 1
VIEWPOINT 0 0 0 1 0 0 0
POINTS 1079
DATA ascii
1.4152734 0.70995116 -0.010965766 0.99368644
1.4607617 0.70995116 -0.011248512 0.99352431
1.5087109 0.70994139 -0.01154808 0.99335241
1.5592773 0.70995116 -0.01186592 0.99317008
1.7293164 0.70994139 -0.012947006 0.99255019
1.9337695 0.70996094 -0.01426712 0.99179375
1.9914453 0.67483395 -0.014562569 0.99162436
22.705116 6.7514453 -0.16405979 0.90959775
1.9914062 -0.67482418 -0.014562797 0.99162453
1.9914453 -0.70285153 -0.014626312 0.99158806
1.9337499 -0.70994139 -0.014266968 0.99179387
1.6126952 -0.70994139 -0.012203674 0.99297643
1.5087109 -0.70994139 -0.011547966 0.99335241
1.4607812 -0.70993161 -0.011248512 0.99352425
1.4152539 -0.70995116 -0.010965919 0.9936865
1.3307421 -0.70996094 -0.010445899 0.99398488
1.273496 -0.74239254 -0.01020916 0.99412084
1.2734765 -0.76398438 -0.010285225 0.99407721
1.2734765 -0.80815428 -0.010445899 0.993985
1.2734375 -0.85377926 -0.010618401 0.99388599
1.2733984 -0.87714839 -0.010708962 0.9938339
1.2733593 -0.92514646 -0.010900917 0.99372381
1.2733593 -0.94982421 -0.01100193 0.99366564
16.37162 -12.864668 -0.14420967 0.92008656
15.537363 -12.853594 -0.13965954 0.92250574
15.139531 -12.848301 -0.13752598 0.92364424
14.378984 -12.838202 -0.13350433 0.92579085
13.661133 -12.828681 -0.1297961 0.92777753
13.316914 -12.824092 -0.12804496 0.92871547
12.981757 -12.819638 -0.12636273 0.9296189
11.723555 -12.802939 -0.12023113 0.93291593
11.427578 -12.799013 -0.11883766 0.9336679
10.855586 -12.791416 -0.11619655 0.9350931
10.581211 -12.790459 -0.11496811 0.93575525
10.310625 -12.787207 -0.11376785 0.9364056
10.045742 -12.784189 -0.11260677 0.93703258
9.7350388 -13.051025 -0.11276749 0.93694645
9.7229681 -14.115302 -0.11871078 0.93373609
9.7186718 -14.495634 -0.12087376 0.93257087
6.015625 -9.2208691 -0.076252326 0.95691603
10.78584 -16.995752 -0.1394152 0.9226371
8.9232025 -14.459111 -0.11766628 0.93429309
10.76627 -18.468632 -0.14806148 0.91804159
10.751816 -19.557451 -0.15457393 0.91459465
10.735996 -20.747295 -0.16179401 0.91078889
10.727539 -21.385088 -0.16570362 0.9087348
10.580468 -21.770205 -0.16764766 0.90771681
9.5777931 -21.756884 -0.16464268 0.90929174
8.9284763 -21.748272 -0.16282947 0.91024548
8.6090622 -21.743994 -0.16197354 0.91069496
7.9799609 -21.735653 -0.16036315 0.91154063
7.669961 -21.731533 -0.15960762 0.91193771
1.7481641 -9.1641989 -0.064619027 0.96336907
-2.4610155 -9.1083107 -0.065345801 0.96296269
-2.6432812 -8.4970312 -0.061631203 0.96503049
-2.732461 -8.409687 -0.061243057 0.96524751
-3.0857811 -8.4049997 -0.062012937 0.96481872
-3.7358594 -9.0998926 -0.068129502 0.96141553
-17.768847 -16.686045 -0.16882214 0.90709907
-1.0417578 -0.95391601 -0.0097829439 0.99436569
-1.0417774 -0.90688473 -0.0095659252 0.99449027
-1.0418164 -0.88414061 -0.0094635766 0.9945491
-1.0418359 -0.86186522 -0.009364509 0.99460596
-1.041875 -0.8186816 -0.0091767879 0.99471372
-1.0419531 -0.71772462 -0.0087627023 0.99495178
-1.1186913 -0.70996094 -0.009176407 0.99471408
-1.253828 -0.70996094 -0.009979248 0.99425292
-1.3307421 -0.70995116 -0.010446281 0.99398488
-1.4608203 -0.70996094 -0.011248665 0.99352407
-1.5087109 -0.70995116 -0.0115485 0.99335241
-1.5592968 -0.70995116 -0.011866188 0.99317002
-1.6127343 -0.70994139 -0.012203865 0.99297631
-1.6692969 -0.70995116 -0.012563285 0.99277008
-1.7732617 -0.67643553 -0.013144608 0.99243695
-1.7732421 -0.65100586 -0.013082694 0.99247241
-17.836504 -4.8193164 -0.12799072 0.9287588
-23.642597 7.6820016 -0.24104987 0.90534252
-1.7741015 0.65134764 -0.018325081 0.9924686
-1.7741406 0.70242184 -0.018502044 0.99239618
-1.6127343 0.70996094 -0.017085914 0.99297607
-1.4607812 0.70995116 -0.015748482 0.99352407
-1.3307421 0.70995116 -0.0146249 0.99398476
-1.1834375 0.70993161 -0.013381347 0.99449474
-1.1503906 0.70994139 -0.013108063 0.99460709
-1.1187109 0.70995116 -0.012847289 0.9947139
-1.04125 0.71723634 -0.01225975 0.99495506
-1.0412304 0.73667967 -0.012367477 0.99491084
-1.0411719 0.75647461 -0.012479133 0.99486512
-1.0411913 0.77665037 -0.012594757 0.99481744
-1.0411719 0.79718751 -0.01271492 0.9947682
-1.0411328 0.81811523 -0.012839012 0.9947173
-1.0411133 0.83946288 -0.012967758 0.99466449
-1.0410546 0.90622067 -0.013383102 0.99449402
-1.0409765 0.95320308 -0.013685951 0.9943698
-12.765469 18.042675 -0.21431291 0.91538376
-12.532578 18.19417 -0.21422611 0.91541708
-10.47543 16.506611 -0.1895739 0.92477602
-1.2513281 9.9052534 -0.096810378 0.96084923
-1.1256446 9.9105854 -0.096716575 0.96088636
-0.9974609 9.8882513 -0.096368141 0.96102428
-0.23554687 6.2450681 -0.060598679 0.97531068
-0.15167968 6.0328026 -0.058515813 0.97614908
0.073886715 5.8785839 -0.057006262 0.97675705
0.29539061 5.8712888 -0.057003058 0.97675836
0.44806638 5.9312401 -0.057675399 0.97648716
6.0442576 23.540791 -0.23570758 0.90735453
6.1643553 21.726435 -0.21898592 0.91362023
6.4629688 21.73501 -0.21987318 0.91328573
6.5704098 20.221649 -0.20617151 0.91846341
6.8547654 20.228222 -0.20709912 0.9181115
7.1417184 20.234863 -0.2080707 0.91774398
7.431406 20.241552 -0.20908202 0.91736072
7.7239842 20.24831 -0.21013689 0.91696125
7.2865624 18.40379 -0.19193046 0.92387468
7.2540035 17.669521 -0.18521172 0.92644006
7.4112105 17.425938 -0.18361782 0.9270485
7.7798243 17.087049 -0.18205002 0.92764819
8.172617 16.815937 -0.18129314 0.92793798
8.4234571 16.278311 -0.17772301 0.92930537
7.3477731 13.772754 -0.15136616 0.93946588
7.6502147 13.510693 -0.15055053 0.93978143
7.8743162 13.507725 -0.1516085 0.93937147
8.0385933 13.399619 -0.15151572 0.93940693
8.033515 13.017509 -0.14832553 0.94064432
8.0286713 12.651093 -0.14528935 0.94182348
8.023984 12.299335 -0.14239727 0.94294816
7.3666015 10.9875 -0.12827003 0.94845939
7.3683395 10.696982 -0.1259494 0.94936776
7.5272655 10.639033 -0.1263718 0.94920272
7.9318748 10.633681 -0.12863491 0.94831651
8.1396875 10.630908 -0.12982821 0.94784969
8.7875385 10.622294 -0.13367587 0.9463464
8.3344135 9.5741405 -0.12308361 0.95049095
8.3249998 8.8652143 -0.11792133 0.95251679
8.322031 8.6418257 -0.11633404 0.95314157
8.3191595 8.4243555 -0.11480407 0.95374304
8.316328 8.2124805 -0.11333168 0.95432246
8.3320503 8.0237207 -0.11216396 0.95478272
8.6437893 7.9150391 -0.1136446 0.95419908
8.8616791 7.9121289 -0.11519298 0.9535898
9.0856247 7.9091601 -0.11680435 0.95295668
9.4217186 7.9958591 -0.11982155 0.95177037
9.6614838 7.9926758 -0.12158229 0.95107871
10.162988 7.9859958 -0.12533359 0.94961041
1.2724999 0.90033203 -0.015114784 0.99378389
1.2725586 0.87656248 -0.014983063 0.99383783
1.2726367 0.80763668 -0.014614944 0.99398875
1.2726367 0.78538084 -0.014500733 0.99403572
1.2726953 0.74191403 -0.014284172 0.99412441
1.2727149 0.72065431 -0.014181633 0.99416649
1.2914063 0.70994139 -0.014289283 0.99412233
1.3719727 0.70994139 -0.014978675 0.99383968
1.4607617 0.70995116 -0.015748482 0.99352413
1.5592773 0.70995116 -0.016612701 0.9931699
1.9337695 0.70996094 -0.019973908 0.99179357
1.9935156 0.70360351 -0.020498734 0.99157912
1.9934765 -0.64771485 -0.020324249 0.9916504
1.9935546 -0.70360351 -0.020498734 0.99157894
1.8611132 -0.70995116 -0.019314498 0.99206358
1.7931249 -0.70995116 -0.018699875 0.99231511
1.6692969 -0.70993161 -0.017588997 0.99276996
1.6126952 -0.70994139 -0.017085571 0.99297625
1.4607812 -0.70993161 -0.015748559 0.99352413
1.4152539 -0.70995116 -0.015352745 0.99368632
1.3719531 -0.70994139 -0.014978752 0.99383974
1.3307421 -0.70996094 -0.014624519 0.99398476
1.2726171 -0.80763668 -0.014614906 0.99398881
1.2725781 -0.85320312 -0.01485588 0.99388993
1.272539 -0.8765527 -0.014983139 0.99383789
1.272539 -0.90033203 -0.015114899 0.99378377
15.139531 -12.848301 -0.1925386 0.92364258
14.753593 -12.843184 -0.18966842 0.92473698
14.378964 -12.838202 -0.18691161 0.92578924
12.981796 -12.819658 -0.17691189 0.92961717
12.655313 -12.815303 -0.17464232 0.93048757
12.026563 -12.806963 -0.17035304 0.93213487
11.138359 -12.795166 -0.16449383 0.9343918
10.581211 -12.790459 -0.16096137 0.93575382
10.310625 -12.787207 -0.15927856 0.93640417
10.045703 -12.784131 -0.15765411 0.93703145
9.7859764 -12.780995 -0.156086 0.93763763
9.7311525 -13.393779 -0.16053131 0.9359197
9.7229681 -14.115302 -0.1661991 0.9337346
9.7186718 -14.495634 -0.16922481 0.93256938
6.015625 -9.2208786 -0.1067559 0.95691502
10.78584 -16.995731 -0.19518261 0.9226355
10.773046 -17.957764 -0.20305777 0.9196434
10.759199 -19.001347 -0.21173546 0.91635799
10.751816 -19.55747 -0.21640621 0.91459268
10.744102 -20.138798 -0.22132726 0.91273785
10.242167 -21.765713 -0.23325124 0.90825969
9.2513275 -21.752548 -0.22920708 0.90977597
8.9284763 -21.748272 -0.22796008 0.91024351
8.2929296 -21.739815 -0.22561762 0.91112453
7.153945 -22.017469 -0.22447889 0.91155207
0.22986327 -9.1440525 -0.088693313 0.96407181
-2.4610155 -9.1083202 -0.091486357 0.96296179
-2.6432812 -8.4970312 -0.086284295 0.96502972
-2.8492577 -8.408144 -0.08608368 0.96511036
-2.9670312 -8.4065819 -0.086442336 0.96496743
-3.0857811 -8.4049997 -0.086818233 0.96481794
-1.0409961 -0.95319337 -0.013686066 0.99436975
-1.0411133 -0.81811523 -0.012839012 0.99471736
-1.0411719 -0.79718751 -0.012714691 0.9947682
-1.0412109 -0.75647461 -0.012479057 0.994865
-1.0412109 -0.73667967 -0.012367477 0.9949109
-1.253828 -0.70996094 -0.0139711 0.9942528
-1.2913867 -0.70995116 -0.014289321 0.99412239
-1.3307421 -0.70995116 -0.014624824 0.99398476
-1.3719727 -0.70995116 -0.014978675 0.99383962
-1.4152734 -0.70996094 -0.015352821 0.99368626
-1.4608203 -0.70996094 -0.015748633 0.99352396
-1.6692969 -0.70995116 -0.017589225 0.99276996
-1.7292968 -0.70995116 -0.018126411 0.99255013
-1.774121 -0.67674804 -0.018411674 0.99243319
-17.824278 -5.0571971 -0.17965694 0.92856514
-17.828749 -4.817246 -0.17908306 0.92878699
-23.642578 7.6820016 -0.3099291 0.90533984
-22.636503 7.6708884 -0.29797772 0.90881741
-21.704922 7.6605759 -0.28696191 0.91203612
-1.7749804 0.67708004 -0.023683891 0.99242926
-1.7292968 0.70996094 -0.023305854 0.99254984
-1.5087109 0.70995116 -0.020787697 0.99335206
-1.4152734 0.70995116 -0.019739952 0.99368608
-1.3719921 0.70996094 -0.019258957 0.99383938
-1.3307421 0.70995116 -0.018803978 0.99398458
-1.2538086 0.70997071 -0.017963486 0.99425268
-1.0882226 0.70995116 -0.016199036 0.99481577
-1.0404882 0.75596678 -0.016034203 0.99486834
-1.0404297 0.79663086 -0.016336747 0.99477178
-1.0403906 0.81754881 -0.016496429 0.99472088
-1.0403906 0.83886719 -0.016661452 0.99466801
-1.0403125 0.88287109 -0.017010536 0.99455667
-1.0402734 0.90556639 -0.017194595 0.9944979
-1.0402343 0.92878902 -0.017385559 0.99443692
-1.0401953 0.95248044 -0.017583732 0.99437386
-17.097538 16.055645 -0.29241151 0.91044211
-12.761836 13.252255 -0.22937459 0.92904532
-12.568359 13.383925 -0.22889832 0.92918622
-10.48414 11.742363 -0.19625534 0.93897015
-12.765488 18.042675 -0.27554956 0.91538125
-12.532598 18.19416 -0.27543753 0.91541457
-10.713652 16.422188 -0.24445693 0.92455959
-10.475469 16.506651 -0.24372141 0.92477357
-1.2505859 9.8996382 -0.12440201 0.96086979
-1.1253124 9.9076948 -0.12431686 0.96089637
-0.99714839 9.8853807 -0.12386821 0.96103424
-0.15255859 6.0693455 -0.07569214 0.97600561
0.074199215 5.9034081 -0.07360477 0.97665936
0.14787109 5.8822656 -0.073358305 0.97673655
0.22166015 5.876914 -0.073320426 0.97674841
0.37222657 5.9159961 -0.0739014 0.97656631
0.45083985 5.9681344 -0.074617498 0.9763419
6.3381052 23.457529 -0.30293548 0.90737236
6.1643357 21.726347 -0.28155714 0.91361803
6.4629688 21.73502 -0.28270131 0.91328317
6.2888083 20.215878 -0.26395005 0.91879481
6.5703907 20.221601 -0.26508069 0.9184612
7.1416798 20.234814 -0.26752561 0.91774178
7.2540035 17.66954 -0.23813175 0.9264378
7.5355663 17.117832 -0.2331768 0.92791224
8.1123438 16.691904 -0.23137702 0.92844784
8.3529291 16.651386 -0.23225492 0.92818719
7.2472653 13.584307 -0.19195332 0.94026709
7.4291797 13.513622 -0.19225849 0.940175
7.8742967 13.507705 -0.19492832 0.9393698
8.033515 13.017509 -0.19070758 0.94064254
8.0286522 12.651103 -0.18680365 0.94182175
7.2810154 10.859815 -0.16300632 0.94904125
7.7277732 10.636376 -0.16391121 0.94876587
7.9318357 10.633662 -0.16539051 0.94831514
8.3514843 10.628096 -0.16851513 0.94736451
8.5673437 10.625224 -0.17016494 0.94686365
8.7875385 10.622314 -0.17187195 0.94634473
8.3280468 9.0948439 -0.15374191 0.95186609
8.3249998 8.8652248 -0.15161754 0.9525153
8.322031 8.6418362 -0.14957455 0.95314014
8.3191595 8.4243555 -0.14760783 0.95374167
8.316328 8.2124805 -0.14571461 0.95432109
8.3320503 8.0237207 -0.14421287 0.95478135
8.4334764 7.9195604 -0.14423271 0.9547748
8.6437893 7.9150391 -0.14611854 0.9541977
8.8616791 7.9121289 -0.14810924 0.95358843
9.0856247 7.9091601 -0.15017781 0.95295531
9.6614838 7.9926758 -0.15632412 0.95107722
9.9084177 7.9893551 -0.15868527 0.95035785
10.425605 7.9824996 -0.16370419 0.94882905
1.2716796 0.89971679 -0.019420814 0.99378783
1.2716992 0.87597656 -0.019251479 0.99384177
1.2717773 0.80709958 -0.018778915 0.99399263
1.2718359 0.76300782 -0.018490447 0.99408448
1.271875 0.72020507 -0.018222351 0.99417007
1.3307421 0.70996094 -0.018803634 0.99398458
1.4152734 0.70995116 -0.019739723 0.99368608
1.5087109 0.70994139 -0.020787735 0.99335206
1.5592773 0.70995116 -0.021359634 0.99316972
1.6692969 0.70994139 -0.022615317 0.99276972
1.7293164 0.70994139 -0.023305664 0.99254984
1.8611132 0.70995116 -0.024833526 0.99206334
1.9337695 0.70996094 -0.025681609 0.99179333
1.9956249 0.70432615 -0.026383666 0.99157
1.9955468 0.6483984 -0.026159057 0.99164152
23.746895 6.7375975 -0.30774117 0.90597415
1.9955468 -0.6483984 -0.026158905 0.99164152
1.9955859 -0.67624998 -0.02626892 0.99160653
1.7931249 -0.70995116 -0.024043579 0.99231488
1.6692969 -0.70993161 -0.022614861 0.99276972
1.6126952 -0.70994139 -0.021967772 0.99297607
1.4607812 -0.70993161 -0.020248374 0.99352396
1.4152539 -0.70995116 -0.019739646 0.99368614
1.3307421 -0.70996094 -0.018803444 0.99398458
1.271875 -0.76300782 -0.018490639 0.99408436
1.2718164 -0.78488278 -0.018632049 0.99403936
1.2717968 -0.80709958 -0.018778801 0.99399251
1.2717578 -0.8296777 -0.018930702 0.99394411
1.2717578 -0.85264647 -0.01908844 0.99389368
1.2716796 -0.87597656 -0.019251823 0.99384183
1.2716405 -0.92389649 -0.0195961 0.99373192
1.2716016 -0.94850582 -0.019777717 0.99367404
16.809589 -12.870498 -0.26394394 0.91879648
16.37162 -12.864677 -0.25958395 0.92008245
15.139492 -12.84832 -0.24755658 0.92364037
14.753573 -12.843184 -0.24386619 0.92473477
14.378964 -12.838202 -0.24032177 0.92578703
14.01498 -12.833379 -0.23691586 0.92679948
13.661172 -12.828662 -0.23364179 0.92777377
13.316914 -12.824092 -0.23049083 0.92871177
12.981757 -12.819638 -0.22746131 0.92961526
12.655313 -12.815303 -0.22454384 0.93048549
12.336992 -12.811084 -0.22173674 0.93132436
11.723516 -12.802939 -0.21642515 0.93291253
11.427578 -12.799013 -0.21391599 0.93366444
11.138359 -12.795166 -0.21149319 0.93438989
10.581211 -12.790459 -0.20695382 0.93575191
10.310625 -12.787207 -0.20479001 0.93640226
9.5315619 -12.778272 -0.19874729 0.93821949
9.4758978 -13.042451 -0.20098901 0.93754506
9.4679298 -13.745049 -0.20808284 0.93541348
6.0156054 -9.2208786 -0.13725975 0.95691377
10.78584 -16.995752 -0.25095636 0.92263311
10.759218 -19.001368 -0.27223429 0.91635543
10.751836 -19.557499 -0.27824458 0.91459006
10.735996 -20.747324 -0.29124102 0.91078418
10.727539 -21.385107 -0.29827532 0.90873003
9.5778122 -21.756884 -0.29636839 0.9092871
9.2513275 -21.752548 -0.29470298 0.90977335
8.9284763 -21.748272 -0.29310259 0.91024089
8.6090622 -21.744013 -0.29156241 0.91069031
8.2929296 -21.739834 -0.29008734 0.91112185
7.9799609 -21.735674 -0.28866965 0.91153598
7.462461 -22.021582 -0.28988409 0.91118097
7.1539059 -22.01746 -0.28862113 0.91154957
0.22988281 -9.144043 -0.11403625 0.9640708
-2.6432812 -8.4970217 -0.11094219 0.9650287
-2.8492577 -8.4081545 -0.11068123 0.96510929
-2.9669921 -8.4065723 -0.1111433 0.96496648
-3.0857811 -8.4050093 -0.11162589 0.96481681
-1.0401953 -0.95249021 -0.017583808 0.9943738
-1.0402343 -0.92875975 -0.017385559 0.99443704
-1.0403125 -0.88287109 -0.01701046 0.99455667
-1.0403906 -0.83887696 -0.016661528 0.99466801
-1.0404491 -0.79662108 -0.016336707 0.99477172
-1.0404687 -0.7761035 -0.01618286 0.99482089
-1.0404882 -0.75596678 -0.016034126 0.99486834
-1.0405273 -0.73617184 -0.01589077 0.99491411
-1.1186913 -0.70996094 -0.016518401 0.99471378
-1.2178515 -0.70995116 -0.017574769 0.99437672
-1.3307421 -0.70995116 -0.018803826 0.99398458
-1.3719727 -0.70995116 -0.019258918 0.99383944
-1.4608203 -0.70996094 -0.02024845 0.99352372
-1.5592968 -0.70995116 -0.021360129 0.99316967
-1.6127343 -0.70994139 -0.021968041 0.99297589
-1.7749804 -0.70276368 -0.023800392 0.99239236
-1.7749413 -0.65163082 -0.02357254 0.99246484
-17.82086 -5.0562305 -0.23094873 0.92857617
-17.821014 -4.8151464 -0.23015782 0.92881471
-22.636465 7.670908 -0.36420584 0.90881413
-1.7758007 0.65196288 -0.028825568 0.99246091
-1.7757812 0.67743164 -0.028961714 0.9924255
-1.7758594 0.703125 -0.029104156 0.99238825
-1.7292968 0.70998043 -0.028485602 0.99254954
-1.5087109 0.70995116 -0.025408134 0.99335182
-1.4608203 0.70995116 -0.024749184 0.99352348
-1.2913867 0.70995116 -0.022455825 0.99412197
-1.2538086 0.70997071 -0.021955796 0.99425244
-1.2178515 0.70994139 -0.021480866 0.99437654
-1.1187109 0.70995116 -0.020189818 0.99471354
-1.0882226 0.70995116 -0.01979927 0.99481559
-1.0398632 0.71627927 -0.019240761 0.99496144
-1.0398437 0.73569334 -0.019409562 0.99491721
-1.0397656 0.75546873 -0.019584464 0.99487162
-1.039746 0.77558595 -0.019766197 0.99482423
-1.0397265 0.79608399 -0.019953994 0.99477512
-1.0396875 0.81697261 -0.020148506 0.99472427
-1.0396484 0.83829099 -0.020350227 0.99467158
-1.0395312 0.88224608 -0.020776367 0.99456042
-1.0395312 0.90492183 -0.021000938 0.99450165
-12.761836 13.252216 -0.28035238 0.92904282
-12.568359 13.383906 -0.27977303 0.92918366
-10.48414 11.742363 -0.23987471 0.93896788
-12.532578 18.19416 -0.33665588 0.91541153
-10.71375 16.422323 -0.29879239 0.9245562
-1.125 9.9048042 -0.15190063 0.96090609
-0.99683589 9.8825092 -0.15135482 0.96104383
-0.15371093 6.1141796 -0.093198203 0.9758296
-0.075683594 6.0237794 -0.091798514 0.97618824
0 5.9499803 -0.090666465 0.97647834
0.074492186 5.9284763 -0.090345994 0.97656053
0.14847656 5.9071484 -0.090042226 0.97663838
0.2978906 5.9216599 -0.090349041 0.97655976
0.37380859 5.9414845 -0.09071663 0.97646564
0.45367187 6.0054879 -0.091773756 0.97619474
6.0498047 23.562344 -0.37067282 0.90726769
6.4629688 21.735039 -0.34553513 0.91327989
6.5703907 20.221561 -0.32399443 0.91845834
7.1416602 20.234766 -0.32698181 0.91773897
7.4112105 17.425928 -0.28856003 0.92704368
7.5355859 17.117832 -0.28499994 0.92790955
7.1424999 13.802891 -0.23682112 0.93972045
7.2110739 13.516533 -0.23344485 0.9405539
7.4291601 13.513622 -0.23499016 0.94017279
7.6461129 13.503467 -0.23646411 0.93980867
7.9820309 13.3054 -0.23643546 0.93981594
7.1924219 11.024736 -0.20058516 0.94870269
7.1973438 10.735068 -0.19694595 0.94960982
7.5272655 10.639033 -0.19859333 0.94919932
7.9318357 10.633662 -0.20215024 0.94831318
8.3514843 10.628096 -0.20597021 0.94736254
9.012187 10.619326 -0.21223833 0.94580531
8.3249998 8.8652248 -0.18531474 0.95251358
8.4334764 7.9195604 -0.17629005 0.95477307
9.4217186 7.9958591 -0.18830165 0.95176715
10.425605 7.9824996 -0.20008704 0.94882715
1.2707031 0.94787109 -0.0241568 0.99367815
1.2707617 0.9232617 -0.023935126 0.99373597
1.2708203 0.89912105 -0.023721313 0.9937917
1.2708398 0.87539059 -0.023514785 0.99384564
1.2709374 0.8291406 -0.023123207 0.99394774
1.2709765 0.80658203 -0.022937546 0.99399614
1.2709961 0.78437501 -0.022758484 0.99404293
1.2710937 0.74098629 -0.022419089 0.99413139
1.2710937 0.71974605 -0.022258529 0.99417347
1.3307421 0.70996094 -0.022983016 0.99398434
1.4152734 0.70995116 -0.024127083 0.99368584
1.4607617 0.70995116 -0.024749031 0.99352372
1.5087109 0.70994139 -0.025407868 0.99335182
1.7293359 0.70996094 -0.028485412 0.99254942
1.7931249 0.70997071 -0.029387206 0.99231452
1.9337695 0.70998043 -0.031389616 0.99179298
1.9977343 0.70507812 -0.032281607 0.99156082
1.9976171 0.64908201 -0.032006416 0.99163252
21.744101 6.7642088 -0.34699988 0.91292799
22.705116 6.7514548 -0.36095557 0.90958977
23.746855 6.737617 -0.37613994 0.90597081
1.9976367 -0.64906251 -0.032006338 0.99163246
1.9977343 -0.70505857 -0.032281607 0.99156082
1.933789 -0.70994139 -0.031389542 0.99179298
1.8611132 -0.70993161 -0.030353012 0.99206305
1.7931249 -0.70993161 -0.029387282 0.99231458
1.7293359 -0.70992184 -0.028485488 0.99254948
1.4607812 -0.70993161 -0.024748955 0.99352366
1.3719531 -0.70994139 -0.023539009 0.99383932
1.2710546 -0.7409668 -0.022419166 0.99413157
1.2710351 -0.76250976 -0.022585716 0.99408799
1.2709765 -0.80659175 -0.022937659 0.99399614
1.2707422 -0.92328125 -0.023935279 0.99373603
1.2707031 -0.94787109 -0.024156837 0.99367815
16.809589 -12.870498 -0.32260528 0.9187935
16.37162 -12.864677 -0.31727898 0.92007953
15.947793 -12.859053 -0.31217188 0.92131376
15.537363 -12.853603 -0.30727506 0.92249888
14.753593 -12.843193 -0.29806551 0.92473191
14.01498 -12.833388 -0.28956991 0.92679673
13.661152 -12.828701 -0.28556824 0.92777103
13.316914 -12.824101 -0.28171962 0.92870915
12.655293 -12.815312 -0.27444908 0.93048292
12.337011 -12.811093 -0.27101752 0.93132174
11.723535 -12.802949 -0.26452595 0.93290997
11.427578 -12.798994 -0.26146063 0.933662
11.138359 -12.795166 -0.25850013 0.93438745
10.581191 -12.790459 -0.25295019 0.93574953
10.310625 -12.787207 -0.25030562 0.93639994
9.5315619 -12.778272 -0.24292082 0.93821716
9.3023243 -12.803545 -0.24115883 0.93865097
9.0511713 -12.792881 -0.23881006 0.93923324
9.4637299 -14.115429 -0.25896204 0.93427426
9.1829681 -14.47001 -0.26115006 0.93373781
8.9231634 -14.459111 -0.25889298 0.93428731
10.766289 -18.468641 -0.32575592 0.91803432
10.751816 -19.557489 -0.34008425 0.91458696
10.727539 -21.385126 -0.36457056 0.90872663
10.580468 -21.770185 -0.36883715 0.90770876
10.242188 -21.765694 -0.36655498 0.90825367
8.6091013 -21.744013 -0.35636261 0.91068697
7.9799609 -21.735653 -0.3528263 0.91153282
7.669961 -21.731533 -0.3511655 0.91192997
7.462461 -22.021563 -0.35431328 0.91117775
7.153945 -22.01746 -0.35277325 0.91154629
1.7481836 -9.1641893 -0.14217098 0.96336579
0.22986327 -9.144062 -0.13938195 0.96406937
-2.4610155 -9.1083202 -0.14377113 0.96295929
-2.8492577 -8.4081545 -0.13528144 0.96510792
-2.9670312 -8.4065914 -0.1358448 0.96496505
-3.0857811 -8.4050093 -0.13643593 0.9648155
-1.0395312 -0.90491211 -0.021000976 0.99450165
-1.0395508 -0.8822363 -0.020776253 0.99456042
-1.0396484 -0.83828121 -0.020350417 0.99467158
-1.0397851 -0.77558595 -0.019765968 0.99482411
-1.0398047 -0.75545895 -0.019584656 0.99487156
-1.0398437 -0.73568356 -0.019409712 0.99491727
-1.0398828 -0.71628904 -0.019240761 0.99496132
-1.0589257 -0.70995116 -0.019426651 0.9949128
-1.0882422 -0.70995116 -0.01979927 0.99481547
-1.1186913 -0.70996094 -0.020189591 0.99471354
-1.1504296 -0.70996094 -0.020599289 0.99460649
-1.1834375 -0.70994139 -0.021029204 0.99449438
-1.2178515 -0.70995116 -0.021480484 0.99437648
-1.3719727 -0.70995116 -0.023539238 0.9938392
-1.4608203 -0.70996094 -0.024749031 0.99352348
-1.5592968 -0.70995116 -0.026107367 0.99316937
-1.6127343 -0.70994139 -0.026850395 0.99297565
-1.7757812 -0.67738283 -0.028962096 0.99242556
-17.817421 -5.0552635 -0.28221995 0.92858684
-17.81328 -4.8130956 -0.28118736 0.92884177
-21.933203 3.6153123 -0.40033334 0.91490859
-21.885899 3.8906054 -0.40032899 0.91490912
-21.83498 4.1652536 -0.40032434 0.91491026
-21.780586 4.4392676 -0.4003194 0.91491151
-21.722813 4.7125487 -0.40031418 0.91491252
-21.661602 4.9850779 -0.40030861 0.91491354
-21.596952 5.2567968 -0.4003028 0.91491467
-21.30414 6.3348532 -0.40027651 0.91492009
-21.222441 6.601953 -0.40026924 0.91492164
-21.137539 6.8680272 -0.40026167 0.91492265
-1.7766211 0.65228516 -0.034083825 0.99245703
-1.6692773 0.70995116 -0.032668531 0.99276918
-1.5592577 0.70996094 -0.03085514 0.99316919
-1.5087109 0.70997071 -0.030028723 0.99335146
-1.3307421 0.70995116 -0.027162742 0.9939841
-1.2538086 0.70997071 -0.025948562 0.9942522
-1.1187109 0.70995116 -0.023861313 0.99471331
-1.0882226 0.70995116 -0.023399809 0.99481535
-1.0391601 0.71579099 -0.022724571 0.9949646
-1.039121 0.73520505 -0.022924002 0.99492049
-1.0389062 0.83768553 -0.024034232 0.99467516
-1.0388477 0.85940427 -0.024281081 0.99462062
-1.038789 0.88160157 -0.024537047 0.99456412
-1.0387305 0.904248 -0.024802132 0.99450552
-1.0386328 0.95106441 -0.02536232 0.99438179
-16.722149 15.703125 -0.41312453 0.91231251
-12.761836 13.252216 -0.33133444 0.92903966
-15.056523 17.296133 -0.41297999 0.91234142
-14.615664 17.667265 -0.41294181 0.91234976
-13.709785 17.447109 -0.39961344 0.91505498
-13.488926 17.617304 -0.39959434 0.91505826
-13.040625 17.948944 -0.39955553 0.9150663
-10.713867 16.422489 -0.35313094 0.92455208
-10.475469 16.506708 -0.35209355 0.92476732
-10.682734 19.431885 -0.39935175 0.91510785
-10.437226 19.563681 -0.39933056 0.9151116
-10.18996 19.69212 -0.39930922 0.91511643
-10.023046 19.980761 -0.40257597 0.91445255
-10.012265 20.601131 -0.41251028 0.9124372
-10.000917 21.253077 -0.42301095 0.91031063
-9.988945 21.939072 -0.43413422 0.90806448
-1.1246874 9.9019337 -0.17947307 0.96091545
-1.6677734 22.077772 -0.39873695 0.9152326
-1.3901367 22.095663 -0.39871314 0.91523743
-1.1123047 22.110088 -0.39868927 0.9152422
-0.83431637 22.120996 -0.39866543 0.91524702
-0.15683593 6.2394629 -0.11240341 0.97533941
0.074804686 5.9537401 -0.10723068 0.97646075
0.22357422 5.9273534 -0.10682342 0.97654921
2.5773437 22.691786 -0.41128874 0.91268402
2.8621094 22.656113 -0.41126436 0.91268951
3.7133203 22.528105 -0.41119146 0.91270447
3.9958982 22.478476 -0.41116732 0.91270888
4.2778125 22.425156 -0.41114321 0.91271383
4.5589843 22.368299 -0.41111913 0.91271877
4.8394728 22.308046 -0.4110952 0.91272324
5.119082 22.244169 -0.41107124 0.91272813
5.6758204 22.10586 -0.41102368 0.91273808
6.8547263 20.228106 -0.38464195 0.91810292
7.1416407 20.234735 -0.38644543 0.91773546
7.7239451 20.248182 -0.39028502 0.91695255
7.2813668 18.390615 -0.35621482 0.9239186
7.29041 17.758213 -0.34571451 0.92607659
7.4112105 17.425938 -0.34103179 0.9270404
7.5355859 17.117832 -0.33682808 0.92790633
7.9020505 16.792706 -0.33423492 0.92844129
8.1123238 16.691895 -0.33422905 0.92844212
7.1424999 13.80291 -0.27988958 0.93971771
7.2110934 13.516523 -0.27589691 0.94055122
7.4291797 13.513613 -0.27772138 0.94017011
7.4023829 13.073047 -0.27055982 0.94166756
7.3973045 12.689443 -0.26452246 0.942931
7.3877344 11.971152 -0.25334111 0.94527626
7.7277732 10.636376 -0.23677385 0.94876164
8.1396875 10.630908 -0.24112989 0.94784385
8.3514843 10.628096 -0.24342792 0.94736016
8.5673437 10.625224 -0.24580678 0.9468593
9.012187 10.619326 -0.25083226 0.94580287
8.3344135 9.5741405 -0.22860128 0.95048541
8.3311911 9.3310347 -0.22527909 0.95118719
8.3280468 9.0948439 -0.22208489 0.95186216
8.3249998 8.8652344 -0.21901765 0.95251137
8.316328 8.2124805 -0.21048914 0.95431733
8.3320312 8.0237207 -0.20831804 0.95477766
8.4334764 7.91957 -0.20835024 0.95477104
8.6437893 7.9150391 -0.21107213 0.95419389
8.8616791 7.9121289 -0.21394786 0.95358455
9.0856247 7.9091601 -0.2169379 0.95295143
10.162988 7.9859958 -0.23277351 0.94960475
10.425605 7.9824996 -0.23647037 0.94882488
1.2698828 0.9472363 -0.028530121 0.99368203
1.2699023 0.92266601 -0.028268622 0.99373984
1.2700195 0.87483394 -0.027772674 0.99384934
1.2701952 0.78385741 -0.026880378 0.99404645
1.2702539 0.74050778 -0.026479682 0.99413496
1.2703124 0.71929687 -0.026289748 0.99417681
1.3307421 0.70996094 -0.027162628 0.99398404
1.3719727 0.70996094 -0.027819939 0.99383891
1.4153124 0.70997071 -0.02851467 0.99368536
1.4608008 0.70997071 -0.029249687 0.99352324
1.50875 0.70996094 -0.030028533 0.99335134
1.6127343 0.70995116 -0.031733323 0.99297529
1.7931249 0.70997071 -0.034731444 0.99231416
1.9337695 0.70998043 -0.037098158 0.99179262
1.9998437 0.70583004 -0.038192291 0.99155152
1.9997851 0.67766601 -0.038025778 0.99158829
1.999707 0.64976561 -0.037865981 0.9916234
21.030468 6.5422068 -0.39664596 0.91565782
21.110722 6.2773728 -0.39663935 0.91565895
21.260956 5.7446485 -0.39662704 0.91566217
21.398184 5.2083983 -0.39661586 0.91566378
21.521738 4.6689062 -0.39660582 0.91566592
21.57832 4.3980274 -0.39660126 0.91566736
21.631874 4.126533 -0.39659697 0.91566741
21.728163 3.5814941 -0.39658928 0.91566956
23.816444 3.0087304 -0.43232489 0.90842903
23.222969 -5.0379491 -0.42795515 0.90931106
21.836132 -5.0252147 -0.40353096 0.9142583
21.340645 -5.4793458 -0.39679325 0.91562748
21.27039 -5.7471485 -0.39679953 0.91562641
1.9997265 -0.64973629 -0.037866134 0.9916234
1.9997656 -0.67763668 -0.038025625 0.99158835
1.9998242 -0.70581055 -0.038192481 0.99155164
1.933789 -0.70994139 -0.0370977 0.99179256
1.7931249 -0.70993161 -0.034731522 0.99231422
1.7293359 -0.70992184 -0.033665694 0.99254918
1.6692969 -0.70993161 -0.032668266 0.99276912
1.5087109 -0.70994139 -0.030028572 0.99335152
1.4607812 -0.70993161 -0.029249763 0.99352336
1.4152734 -0.70993161 -0.028514594 0.9936856
1.3719531 -0.70994139 -0.027820013 0.99383903
1.3307421 -0.70996094 -0.027162284 0.99398404
1.2703124 -0.71927732 -0.026289824 0.99417681
1.2702148 -0.76203126 -0.026676215 0.99409151
1.2701563 -0.80605465 -0.027091635 0.99399978
1.2701172 -0.82859373 -0.02731079 0.99395138
1.2698828 -0.94720703 -0.028530387 0.99368209
15.947812 -12.859053 -0.36894116 0.92131025
15.537382 -12.853583 -0.36315578 0.92249542
14.753613 -12.843174 -0.35227135 0.92472857
12.981777 -12.819648 -0.3285743 0.92960948
12.026524 -12.806973 -0.31639707 0.93212736
11.723516 -12.802949 -0.31263497 0.93290704
11.427597 -12.799004 -0.30900505 0.93365902
11.138359 -12.795166 -0.30551058 0.93438452
10.855586 -12.791416 -0.30213749 0.93508446
10.581191 -12.790479 -0.29895222 0.93574661
10.045645 -12.784072 -0.29280993 0.93702471
9.3023434 -12.803555 -0.28501591 0.93864816
9.4679298 -13.745068 -0.30058149 0.93540812
6.0156054 -9.2208786 -0.19827549 0.95691025
8.9231634 -14.459111 -0.30597401 0.93428439
10.766289 -18.468641 -0.38499355 0.91803068
10.751816 -19.55747 -0.40193188 0.91458327
10.479062 -20.889717 -0.4208895 0.91073978
9.1491995 -21.512451 -0.42100421 0.91071618
8.8786526 -21.626865 -0.42102751 0.91071165
8.6066799 -21.737997 -0.42105097 0.9107067
7.9799609 -21.735653 -0.41699097 0.91152894
7.5053124 -22.147978 -0.42114586 0.91068745
7.2267966 -22.241865 -0.42116982 0.91068238
6.666328 -22.418808 -0.4212181 0.91067338
6.3844528 -22.502138 -0.42124236 0.91066837
6.1015625 -22.581934 -0.4212667 0.91066325
5.5327539 -22.730692 -0.42131561 0.91065371
5.246953 -22.799639 -0.4213402 0.91064918
4.9603124 -22.865147 -0.42136484 0.91064405
4.6728907 -22.927031 -0.42138958 0.91063899
3.8061523 -23.090977 -0.42146409 0.91062379
2.3494141 -23.291317 -0.4215892 0.91059846
1.7635937 -23.345791 -0.4216395 0.91058826
1.4701562 -23.367519 -0.42166469 0.91058314
0.88261718 -23.400009 -0.42171511 0.91057247
0.22986327 -9.144062 -0.16472885 0.9640677
1.953125e-05 -23.420849 -0.42179084 0.91055715
-1.1770507 -23.396826 -0.42189175 0.91053689
-1.7648242 -23.362646 -0.42194209 0.91052669
-2.35166 -23.313681 -0.42199236 0.91051662
-1.0367968 -9.1283398 -0.16544873 0.96391314
-3.2292774 -23.212646 -0.42206752 0.91050124
-4.3925195 -23.026415 -0.42216709 0.91048145
-4.9703708 -22.911493 -0.42221648 0.91047126
-5.5451951 -22.781904 -0.42226565 0.91046172
-5.831367 -22.711786 -0.42229012 0.9104566
-2.4610155 -9.1083202 -0.16991714 0.96295762
-6.4010153 -22.560616 -0.42233881 0.91044694
-6.6844335 -22.479736 -0.42236304 0.91044188
-2.8492577 -8.4081545 -0.15988247 0.96510637
-8.3615627 -21.919756 -0.42250624 0.91041303
-9.4544916 -21.476788 -0.42259952 0.91039371
-10.523828 -20.979092 -0.42269066 0.91037565
-11.048925 -20.710205 -0.42273542 0.91036648
-11.567109 -20.428154 -0.42277953 0.91035748
-12.078027 -20.133017 -0.42282307 0.91034895
-12.330723 -19.980732 -0.42284453 0.91034436
-12.581406 -19.825117 -0.4228659 0.91034043
-13.321699 -19.339785 -0.42292884 0.91032743
-14.043125 -18.826591 -0.42299017 0.91031539
-14.279336 -18.649618 -0.42301023 0.91031092
-14.513164 -18.469463 -0.42303008 0.91030741
-15.201152 -17.911953 -0.42308852 0.91029501
-15.867578 -17.328564 -0.42314503 0.91028368
-16.084707 -17.128487 -0.42316344 0.91028029
-16.299452 -16.9258 -0.42318165 0.91027623
-16.511621 -16.72044 -0.42319959 0.91027224
-16.927929 -16.301495 -0.42323485 0.91026551
-17.132149 -16.088154 -0.42325217 0.91026199
-1.0386328 -0.95108396 -0.025362395 0.99438173
-1.0388281 -0.8815918 -0.024536781 0.994564
-1.0389258 -0.83770508 -0.024034537 0.99467504
-1.0389843 -0.79551756 -0.023566322 0.99477857
-1.0390625 -0.75495118 -0.02313053 0.99487489
-1.0391406 -0.73521483 -0.022923889 0.99492037
-1.0589257 -0.70995116 -0.022959365 0.99491256
-1.0882422 -0.70995116 -0.023399809 0.99481523
-1.1186913 -0.70996094 -0.023861388 0.99471331
-1.1504296 -0.70996094 -0.024345398 0.99460626
-1.1834375 -0.70994139 -0.024853209 0.99449414
-1.2178515 -0.70995116 -0.025386887 0.99437624
-1.253828 -0.70996094 -0.025948409 0.99425215
-1.2913867 -0.70995116 -0.026539382 0.99412167
-1.3307421 -0.70995116 -0.027162513 0.9939841
-1.4607812 -0.70994139 -0.029249839 0.99352336
-1.7293359 -0.70995116 -0.033665884 0.99254912
-1.7766796 -0.70342773 -0.034413259 0.99238443
-1.7766796 -0.67771482 -0.034245223 0.99242145
-1.7766405 -0.65223634 -0.034083672 0.99245703
-20.966719 -7.3999801 -0.40042332 0.91488993
-21.146776 -6.8709764 -0.40043819 0.91488719
-21.231874 -6.6048532 -0.40044519 0.91488552
-17.813984 -5.054287 -0.33348015 0.92859691
-21.538202 -5.5300584 -0.40047035 0.91488063
-21.606289 -5.2590332 -0.40047586 0.91487956
-21.79002 -4.4411426 -0.40049076 0.91487628
-23.068535 -4.4005661 -0.42294165 0.91032529
-24.241035 0.30463865 -0.50378567 0.90756261
-24.225546 0.91372067 -0.5037837 0.90756327
-24.212187 1.2180859 -0.50378227 0.90756309
-24.19496 1.5222168 -0.50378048 0.90756315
-24.148672 2.1297264 -0.50377584 0.90756458
-24.087227 2.7358789 -0.50376993 0.90756565
-24.050938 3.0383496 -0.50376648 0.90756571
-24.010586 3.3402636 -0.50376266 0.90756673
-23.848124 3.6237304 -0.5012719 0.90800238
-21.828028 3.5979784 -0.45972404 0.91529453
-20.123163 3.577246 -0.42473063 0.92148179
-18.864258 3.8448534 -0.40006995 0.92586672
-18.81414 4.081533 -0.40006536 0.92586792
-18.705078 4.5529003 -0.40005553 0.92587
-18.646288 4.7875681 -0.40005028 0.92587036
-18.584354 5.0214157 -0.40004471 0.92587155
-18.519531 5.2545118 -0.4000389 0.9258725
-18.381016 5.7180371 -0.4000265 0.92587495
-18.230782 6.1778808 -0.40001315 0.92587781
-18.151524 6.4064355 -0.40000609 0.92587852
-1.7774609 0.65259767 -0.039347839 0.9924531
-1.7775195 0.67806637 -0.039534073 0.9924174
-1.777539 0.70379883 -0.039728049 0.99238032
-1.6127148 0.70996094 -0.036616936 0.992975
-1.5592577 0.70996094 -0.035603292 0.99316883
-1.2913672 0.70997071 -0.030623779 0.99412143
-1.2537891 0.70997071 -0.029941788 0.99425197
-1.2178515 0.70996094 -0.029293975 0.99437594
-1.1833984 0.70995116 -0.028677978 0.99449396
-1.1503906 0.70996094 -0.028091887 0.99460614
-1.0589062 0.70995116 -0.026492614 0.99491239
-1.0383788 0.75444335 -0.026671829 0.99487799
-1.0382812 0.79498047 -0.02717411 0.99478179
-1.0382422 0.81583983 -0.027438965 0.99473107
-1.0380273 0.88097656 -0.028292656 0.99456775
-13.852148 13.33954 -0.39963004 0.9259454
-12.761836 13.252236 -0.38232371 0.9290359
-12.984687 14.180234 -0.39955473 0.92595929
-10.48414 11.742353 -0.32712188 0.93896198
-12.253867 14.812422 -0.39949143 0.92597049
-12.066289 14.964648 -0.39947516 0.9259733
-11.492383 15.407022 -0.39942545 0.92598146
-11.100547 15.689521 -0.39939156 0.92598802
-10.701797 15.96205 -0.39935711 0.92599458
-10.500039 16.094727 -0.39933962 0.9259969
-10.296465 16.224628 -0.39932203 0.9260003
-10.072324 16.789686 -0.40686771 0.9246558
-10.063867 17.263731 -0.41526031 0.92316341
-10.055038 17.757763 -0.42407143 0.92159885
-10.036172 18.811893 -0.44307783 0.9182322
-9.9851952 21.93078 -0.5007512 0.90809286
-9.7430859 22.132431 -0.50251919 0.90778369
-9.463769 22.25211 -0.50249511 0.90778768
-8.3321095 22.694931 -0.5023976 0.90780532
-8.0458984 22.796778 -0.50237298 0.90780944
-7.469707 22.989405 -0.50232333 0.9078185
-6.596992 23.251268 -0.50224823 0.90783107
-6.0099802 23.407284 -0.50219768 0.90784013
-5.7150779 23.479746 -0.50217235 0.90784466
-5.4193163 23.548622 -0.5021469 0.90784872
-4.8253317 23.674931 -0.50209582 0.90785778
-4.5272069 23.732479 -0.50207025 0.90786231
-3.3283789 23.925028 -0.50196719 0.90788043
-1.2485352 9.8831444 -0.20701011 0.96092838
-0.99628901 9.8767672 -0.20628895 0.96106219
-1.4452538 19.131855 -0.39870647 0.92611021
-0.72296876 19.16831 -0.39861411 0.9261266
-0.48199219 19.174404 -0.39858329 0.92613208
-0.076621093 6.0970702 -0.12671143 0.9758997
0.14974609 5.9575486 -0.12384105 0.97643912
0.22453125 5.9528904 -0.12379326 0.97644812
0.45945311 6.0816407 -0.12674049 0.97589415
2.480664 19.636465 -0.4113003 0.92386693
2.9730077 19.565781 -0.41125819 0.92387497
3.7077734 19.436962 -0.41119528 0.9238857
5.6374998 18.958975 -0.41103029 0.92391551
5.8750196 18.88578 -0.41101 0.92391884
6.3471484 18.73035 -0.41096967 0.923926
6.5816598 18.648144 -0.41094965 0.92392981
6.8151951 18.563124 -0.41092971 0.92393309
7.7383981 16.996181 -0.38807514 0.92800713
7.9241014 16.83959 -0.38674513 0.92824513
8.1349611 16.738495 -0.38674253 0.92824596
7.1425195 13.80291 -0.32296047 0.93971455
7.2110934 13.516523 -0.31835529 0.94054818
7.4523044 13.161152 -0.31429863 0.94128305
7.4471483 12.77497 -0.30728737 0.94255465
7.3924217 12.322549 -0.29861483 0.94412953
7.1038084 10.888926 -0.27017424 0.9493134
7.1364841 10.644228 -0.26630819 0.95002043
7.5272851 10.639023 -0.27082559 0.94919437
7.9318552 10.633652 -0.27567816 0.94830817
8.1397066 10.630898 -0.27823597 0.94784111
8.3514843 10.628086 -0.28088835 0.94735742
8.7875385 10.622305 -0.28648359 0.94633752
8.3280659 9.0948334 -0.25626209 0.95185959
8.322031 8.6418457 -0.24931364 0.95313382
8.3191404 8.424365 -0.24603695 0.95373547
8.316328 8.2124805 -0.24288192 0.95431495
8.3320312 8.0237207 -0.2403765 0.95477527
8.4334764 7.9195604 -0.240412 0.95476866
8.6437893 7.9150391 -0.24355283 0.95419151
9.0856247 7.9091601 -0.2503213 0.95294893
9.4217186 7.9958496 -0.25679082 0.95176244
9.9083986 7.9893847 -0.2645008 0.95035118
10.425625 7.9824996 -0.27286273 0.94882214
1.2690234 0.94657224 -0.032898102 0.99368596
1.2691211 0.89792967 -0.032306176 0.99379933
1.2692187 0.85095704 -0.031754378 0.99390501
1.2692969 0.82806641 -0.031492576 0.99395496
1.2694141 0.76155269 -0.03076168 0.99409491
1.269453 0.74004883 -0.030535087 0.9941383
1.2695117 0.71884763 -0.030316429 0.99418014
1.3307421 0.70996094 -0.031342544 0.99398375
1.4153124 0.70997071 -0.03290287 0.99368507
1.8611132 0.70995116 -0.041393586 0.99206227
2.0018749 0.67839843 -0.043923337 0.99157906
2.0017967 0.65043944 -0.043738745 0.99161428
18.236835 5.6731739 -0.39688644 0.92643446
18.306366 5.4434571 -0.39688072 0.92643565
18.801914 3.3423924 -0.39684048 0.92644256
18.842226 3.1058104 -0.39683726 0.92644334
20.13793 3.0599706 -0.42328238 0.92173833
21.794296 3.0319726 -0.45726049 0.91572815
23.790606 3.0054491 -0.49831191 0.90851897
23.890741 2.7135742 -0.49965566 0.90828401
23.922792 2.4131348 -0.49965322 0.9082846
23.951054 2.1123047 -0.49965113 0.9082852
23.975742 1.8111719 -0.49964935 0.90828508
23.996485 1.5097461 -0.49964786 0.9082855
24.013554 1.2080566 -0.49964672 0.90828556
24.026699 0.90623045 -0.49964592 0.90828609
24.036211 0.6042285 -0.49964541 0.90828598
24.041874 0.30213866 -0.49964526 0.90828609
24.026855 -0.9062109 -0.49964786 0.9082855
23.975859 -1.8111621 -0.49965319 0.90828466
23.855156 -3.0136034 -0.49966484 0.90828252
23.815546 -3.3131444 -0.49966854 0.90828198
23.725155 -3.9106348 -0.49967691 0.90828055
23.674257 -4.2084961 -0.49968156 0.90828013
23.619921 -4.5057421 -0.49968657 0.90827858
20.541035 -4.9997654 -0.43931955 0.91889697
19.435839 -4.9902735 -0.41698918 0.92285573
18.381094 -5.2151661 -0.39704677 0.92640579
2.0017967 -0.6504004 -0.043738782 0.99161434
2.0018749 -0.67833984 -0.043923225 0.99157912
2.0019531 -0.70655274 -0.04411602 0.99154222
1.7931249 -0.70993161 -0.04007652 0.9923138
1.5592968 -0.70993161 -0.035603065 0.99316877
1.3719531 -0.70994139 -0.032101095 0.99383873
1.3307421 -0.70994139 -0.031342428 0.99398375
1.2695117 -0.71881837 -0.030316276 0.9941802
1.2694921 -0.74000973 -0.030535087 0.99413824
1.2694141 -0.76150388 -0.030761756 0.99409503
1.269375 -0.7833398 -0.030996703 0.99405003
1.2692382 -0.85093749 -0.031754378 0.99390495
1.2691015 -0.89791012 -0.032305755 0.99379945
15.261406 -13.285234 -0.42047131 0.92223722
14.01498 -12.833369 -0.39489514 0.92678976
13.661152 -12.828671 -0.38943771 0.92776418
13.316914 -12.824101 -0.38418883 0.92870229
12.981796 -12.819648 -0.37913704 0.92960572
11.723555 -12.802919 -0.36074468 0.93290353
10.855586 -12.791396 -0.34863436 0.93508112
10.045645 -12.784072 -0.33786654 0.93702143
9.7859373 -12.781025 -0.33451018 0.93762743
9.5315619 -12.778272 -0.33127785 0.9382112
9.0511713 -12.792881 -0.32568252 0.93922734
9.463769 -14.115439 -0.3531523 0.93426782
10.851719 -17.099522 -0.4208535 0.92216927
8.9231634 -14.459091 -0.35307699 0.93428105
10.200859 -17.498701 -0.42090979 0.92215937
9.9806252 -17.626318 -0.42092875 0.92215592
9.7587891 -17.751133 -0.42094794 0.92215258
8.8561716 -18.222393 -0.42102584 0.92213887
8.6269531 -18.333174 -0.4210456 0.922135
8.3962107 -18.440878 -0.42106551 0.92213202
7.6963668 -18.747021 -0.42112589 0.92212087
6.985332 -19.026493 -0.42118713 0.9221102
6.745996 -19.113642 -0.42120773 0.9221068
6.2641602 -19.279013 -0.42124924 0.92209947
6.0217185 -19.357216 -0.4212701 0.9220956
4.7955856 -19.702089 -0.4213756 0.92207676
4.5478711 -19.761806 -0.42139694 0.92207289
4.2993751 -19.818329 -0.42141831 0.92206937
4.0502148 -19.871807 -0.42143974 0.92206556
1.7481836 -9.1641893 -0.19387153 0.96336222
3.2988865 -20.013418 -0.42150429 0.92205405
2.5425975 -20.126543 -0.42156929 0.92204285
2.0362108 -20.18626 -0.42161277 0.9220348
1.7824999 -20.211298 -0.42163455 0.92203093
1.5284375 -20.233154 -0.42165634 0.92202705
0.22986327 -9.144062 -0.19008045 0.96406585
-0.51011717 -20.292772 -0.42183125 0.92199612
-2.0378516 -20.202959 -0.42196214 0.92197293
-2.5451953 -20.14743 -0.42200559 0.92196524
-4.0568943 -19.904657 -0.42213497 0.92194188
-4.3068943 -19.853008 -0.42215636 0.92193848
-5.5463476 -19.54834 -0.42226231 0.92191958
-5.7918358 -19.477997 -0.42228329 0.92191613
-2.6432812 -8.4970217 -0.18491955 0.96502393
-2.732461 -8.4096975 -0.18375255 0.96524096
-2.8492577 -8.4081545 -0.184487 0.96510452
-2.9670312 -8.4065914 -0.18525581 0.96496159
-7.7204881 -18.80583 -0.42244795 0.92188644
-7.9565234 -18.708096 -0.4224681 0.92188334
-8.1913471 -18.60747 -0.42248812 0.92188001
-9.1176758 -18.175869 -0.4225671 0.92186564
-9.7975979 -17.821768 -0.42262504 0.92185527
-10.021269 -17.698133 -0.42264408 0.92185152
-10.243242 -17.571415 -0.422663 0.92184889
-10.682597 -17.310146 -0.42270041 0.92184162
-11.115195 -17.037685 -0.42273718 0.92183518
-11.328886 -16.897352 -0.42275536 0.92183208
-11.540781 -16.754354 -0.42277336 0.92182904
-11.751035 -16.608868 -0.42279127 0.92182511
-11.959218 -16.460459 -0.42280895 0.92182255
-12.572598 -15.99995 -0.42286104 0.92181355
-13.168301 -15.516582 -0.42291164 0.92180455
-13.362715 -15.35042 -0.42292815 0.92180187
-13.555176 -15.181982 -0.42294443 0.92179847
-14.119316 -14.661904 -0.42299229 0.92179018
-14.303007 -14.483915 -0.42300785 0.9217872
-14.484453 -14.303623 -0.42302322 0.92178416
-14.840273 -13.935957 -0.42305332 0.92177951
-1.0378516 -0.95036131 -0.029243354 0.99438566
-1.0379101 -0.92669922 -0.028915061 0.9944486
-1.0380468 -0.88094723 -0.028292464 0.99456775
-1.0381249 -0.8587988 -0.027997855 0.99462408
-1.038164 -0.83708984 -0.027713241 0.99467862
-1.0382422 -0.81583983 -0.027438965 0.99473107
-1.0382812 -0.79498047 -0.027173957 0.99478179
-1.0383984 -0.7544238 -0.026672134 0.99487799
-1.0589257 -0.70995116 -0.026492691 0.99491233
-1.1186913 -0.70996094 -0.027533263 0.99471307
-1.1833984 -0.70994139 -0.028678054 0.99449396
-1.2537891 -0.70994139 -0.029941788 0.99425203
-1.2913672 -0.70993161 -0.030623702 0.99412149
-1.4152734 -0.70994139 -0.03290287 0.99368525
-1.4607812 -0.70994139 -0.033750877 0.993523
-1.7293359 -0.70995116 -0.038846854 0.9925487
-1.777539 -0.70377928 -0.039728202 0.99238038
-1.7774999 -0.67803711 -0.039533921 0.99241751
-18.238905 -6.180625 -0.40018809 0.92584604
-17.810566 -5.0533009 -0.38472357 0.92860645
-19.371895 -4.458086 -0.41308096 0.92355013
-20.457344 -4.4379883 -0.43500838 0.91966033
-21.6875 -4.4202442 -0.45994884 0.91525495
-23.068495 -4.4005661 -0.48802489 0.91032082
-23.867363 -4.2428317 -0.50375849 0.90756768
-23.919102 -3.9426172 -0.5037626 0.90756655
-23.96701 -3.6417773 -0.50376642 0.90756565
-24.051113 -3.0383594 -0.50377297 0.90756506
-24.087519 -2.7358887 -0.50377578 0.90756464
-24.149082 -2.129746 -0.50378042 0.90756309
-24.173944 -1.8261132 -0.50378221 0.90756309
-24.225702 -0.9136914 -0.50378567 0.90756267
-21.372831 0.53728515 -0.5035395 0.91801453
-21.352343 1.0741894 -0.50353718 0.91801542
-21.174686 2.9457812 -0.50351995 0.9180181
-21.136015 3.211621 -0.50351632 0.91801804
-21.093653 3.4769139 -0.50351238 0.91801929
-20.123203 3.577246 -0.48138291 0.92147702
-16.444061 4.2221384 -0.39986202 0.93432719
-16.332363 4.6339259 -0.39985198 0.93432873
-16.272753 4.8387594 -0.39984664 0.93432909
-16.145527 5.2460155 -0.39983532 0.934331
-1.7783788 0.70413083 -0.045048978 0.99237627
-1.7292968 0.70998043 -0.044028204 0.99254835
-1.6127148 0.70996094 -0.041500892 0.99297458
-1.5592577 0.70996094 -0.040352285 0.99316841
-1.4607812 0.70997071 -0.038252752 0.99352258
-1.3719531 0.70998043 -0.036383055 0.99383825
-1.2913672 0.70997071 -0.034708481 0.99412107
-1.2537891 0.70997071 -0.0339357 0.99425161
-1.1833984 0.70995116 -0.032503203 0.9944936
-1.1186719 0.70995116 -0.031205749 0.99471283
-1.0588672 0.70997071 -0.030026168 0.99491215
-1.0377734 0.71486324 -0.029679565 0.99497068
-1.0377148 0.73423827 -0.029939689 0.99492669
-1.0376562 0.75393552 -0.030209083 0.99488121
-1.037539 0.79444337 -0.030777434 0.99478513
-1.0373828 0.85820311 -0.031709481 0.99462754
-1.0373046 0.88035154 -0.032042962 0.99457121
-1.0371679 0.92605466 -0.032747611 0.99445218
-1.0370703 0.94967771 -0.033119429 0.99438941
-12.364961 11.611504 -0.39950433 0.93438381
-12.217773 11.765664 -0.39949158 0.93438542
-12.068535 11.917831 -0.39947858 0.93438768
-11.917402 12.068125 -0.39946547 0.93438989
-11.764453 12.216562 -0.39945221 0.9343918
-11.609609 12.362978 -0.39943877 0.93439406
-11.452969 12.507509 -0.39942518 0.93439609
-10.48414 11.742344 -0.37075439 0.93895841
-11.134238 12.790459 -0.39939752 0.93440062
-10.972265 12.928905 -0.39938349 0.93440276
-10.643125 13.199629 -0.39935499 0.93440729
-10.475996 13.331777 -0.39934051 0.93440992
-10.136933 13.589863 -0.39931118 0.93441439
-10.104297 14.281396 -0.41203529 0.93239647
-10.08293 15.45539 -0.43462634 0.92882514
-10.06125 16.771269 -0.46063164 0.92473084
-10.05457 17.247793 -0.47021231 0.92322701
-10.047617 17.744688 -0.48027834 0.92164963
-10.040312 18.26334 -0.49086249 0.91999406
-10.032734 18.805458 -0.50200492 0.9182542
-9.5665426 19.070713 -0.50250733 0.91817582
-7.601738 19.9279 -0.50233787 0.91820198
-7.0979686 20.110897 -0.50229454 0.91820872
-6.5897069 20.281075 -0.50225079 0.91821587
-6.3340821 20.361444 -0.50222874 0.91821909
-5.0419335 20.714258 -0.50211757 0.91823691
-4.7810545 20.775038 -0.50209516 0.91824043
-4.2571092 20.886953 -0.5020501 0.91824675
-3.9940624 20.937714 -0.50202745 0.9182508
-3.2016797 21.070507 -0.50195938 0.91826147
-2.9365039 21.108124 -0.50193661 0.91826499
-1.2751172 16.879551 -0.39868587 0.93451333
-0.58144528 15.416611 -0.36335784 0.94013911
-0.40458983 16.095184 -0.37920094 0.93761212
