# .PCD v0.7 - Point Cloud Data file format
VERSION 0.7
FIELDS x y z intensity
SIZE 4 4 4 4
TYPE F F F F
COUNT 1 1 1 1
WIDTH 1073
HEIGHT 1
VIEWPOINT 0 0 0 1 0 0 0
POINTS 1073
DATA ascii
10.863926 -12.80122 -0.023255233 0.93504643
7.467617 -9.2613182 -0.016478652 0.95352674
7.086699 -9.2556152 -0.016147804 0.95444202
8.1285744 -12.808544 -0.021015167 0.94112384
8.9060936 -14.431436 -0.023489341 0.93441617
9.9713478 -17.104971 -0.027425498 0.92385805
8.1873627 -14.459307 -0.023016509 0.93569505
5.0682421 -9.2191114 -0.014572295 0.95879143
4.4795899 -9.2171478 -0.014195899 0.9598366
4.3363085 -9.2150583 -0.014105682 0.96008122
9.2555666 -21.762461 -0.03275444 0.90974069
8.6130276 -21.753984 -0.032410812 0.91065776
7.9836326 -21.745703 -0.032089271 0.91150355
7.3662109 -21.737549 -0.031791724 0.91228116
7.0616794 -21.733524 -0.03165146 0.91264522
6.8294334 -21.953642 -0.031851158 0.9121365
6.547617 -22.019541 -0.031820107 0.91220576
6.2464061 -22.015575 -0.031698037 0.91252631
1.8710155 -9.1799316 -0.012975655 0.96321881
1.5123438 -9.1749315 -0.012880364 0.96348822
1.3939062 -9.1732712 -0.012852363 0.96356595
1.2759765 -9.1716499 -0.012825317 0.96363759
1.0410352 -9.1654978 -0.012777099 0.96377468
-0.6906445 -9.1426849 -0.012699546 0.96398944
-1.1544921 -9.1388178 -0.01275856 0.96382469
-1.2711328 -9.1372747 -0.012778701 0.96377146
-1.388164 -9.1357327 -0.012800903 0.96371233
-1.7414258 -9.1288185 -0.01287239 0.96350867
-1.8635156 -9.1431541 -0.012927398 0.96336341
-3.4746678 -9.1088772 -0.013504867 0.96175414
-3.4603515 -8.7399216 -0.013020057 0.96309799
-3.4471092 -8.3965912 -0.012572937 0.96434462
-3.8274412 -8.4063282 -0.012794227 0.96372759
-9.3844919 -9.0371971 -0.018046226 0.9492209
-9.8631439 -9.0315914 -0.018524589 0.94791144
-1.0432812 -0.90821284 -0.0019158935 0.9944824
-1.0433203 -0.88541991 -0.0018954086 0.99454141
-1.0433007 -0.8630957 -0.0018755721 0.99459851
-1.0433007 -0.81983399 -0.0018379593 0.99470657
-1.0433203 -0.77824217 -0.0018029785 0.99480712
-1.0433203 -0.75800782 -0.0017862701 0.99485487
-1.0433203 -0.73816407 -0.0017700576 0.99490088
-1.0433203 -0.71867186 -0.0017547988 0.99494529
-1.0882226 -0.70994139 -0.0017996597 0.99481618
-1.1186719 -0.70994139 -0.0018351745 0.99471426
-1.1503906 -0.70994139 -0.0018724441 0.99460733
-1.1833984 -0.70995116 -0.0019115829 0.99449509
-1.2913672 -0.70994139 -0.002041359 0.99412274
-1.3307031 -0.70994139 -0.0020890809 0.99398518
-1.4152343 -0.70994139 -0.0021931839 0.99368674
-1.4607812 -0.70996094 -0.002249527 0.99352437
-1.5087109 -0.70994139 -0.0023095703 0.99335259
-1.7292968 -0.70995116 -0.0025893401 0.99255043
-1.771582 -0.70141602 -0.0026392746 0.99240744
-1.7715625 -0.67577147 -0.0026261902 0.9924444
-1.7715625 -0.6504004 -0.0026140595 0.99247968
-18.660038 -5.0418653 -0.02677639 0.92559654
-18.80168 -4.8274512 -0.026888732 0.92529178
-22.602108 7.6592574 -0.099171638 0.9089554
-21.672266 7.6490917 -0.095507123 0.91216826
-1.7724218 0.6507324 -0.0078460313 0.99247599
-1.7724218 0.70174801 -0.0079218671 0.99240381
-1.7293164 0.70997071 -0.0077682114 0.99255031
-1.6692969 0.70995116 -0.0075380323 0.9927702
-1.5087109 0.70997071 -0.0069290157 0.99335247
-1.4152734 0.70997071 -0.0065795896 0.9936865
-1.3307031 0.70997071 -0.0062678908 0.99398512
-1.253828 0.70995116 -0.0059875487 0.99425304
-1.1186913 0.70997071 -0.0055058287 0.99471414
-1.0589062 0.70996094 -0.0052977754 0.9949134
-1.0425781 0.81926757 -0.0055101011 0.99471015
-1.0425586 0.84065425 -0.0055654906 0.99465722
-1.0425586 0.86248046 -0.0056226347 0.99460226
-1.042539 0.8847754 -0.0056822584 0.9945454
-1.042539 0.90755856 -0.0057439422 0.99448633
-13.524492 13.024014 -0.07802467 0.92764652
-13.32541 13.159033 -0.07782425 0.92782563
-11.304883 11.739316 -0.067726932 0.93688852
-13.495898 18.092987 -0.093801305 0.91366726
-11.622578 16.427372 -0.083667412 0.92266095
-11.340878 16.464159 -0.083080821 0.92314488
-0.98880857 5.9989157 -0.025265884 0.97597367
-0.89718747 5.9044137 -0.024817809 0.97639412
-0.73753905 5.8383884 -0.024454689 0.97673553
-0.66062498 5.8166113 -0.02432682 0.97685581
-0.58660156 5.8154588 -0.024289245 0.9768911
-0.36962891 5.8751268 -0.024462814 0.9767279
-0.29902342 5.9441309 -0.024732513 0.97647434
-0.15539062 6.1827731 -0.02570034 0.97556436
5.397656 23.454433 -0.10001098 0.90821797
5.5802732 21.733633 -0.093245201 0.91415501
6.0149999 20.228428 -0.08769577 0.91904896
6.5768747 20.241455 -0.08844234 0.91838986
6.8615036 20.248085 -0.088843077 0.91803747
6.6257615 17.369267 -0.077251054 0.92833644
6.7616796 17.078007 -0.076329343 0.92916203
7.0037498 17.059893 -0.076633334 0.92888808
7.1984372 16.925556 -0.076428987 0.9290697
7.5792184 16.646484 -0.076007612 0.9294489
6.7781639 13.512109 -0.062820278 0.94132376
6.9906054 13.509316 -0.063209072 0.94097006
7.1690426 13.040401 -0.061838645 0.94221205
6.9392967 10.636719 -0.052774962 0.95046777
7.1297655 10.634199 -0.053204194 0.9500764
7.323359 10.63166 -0.053647231 0.94967091
7.9244528 10.623731 -0.0550774 0.94836551
8.1321478 10.620996 -0.055587843 0.94789886
7.5121875 9.0806837 -0.048973121 0.95395255
7.5091014 8.8481836 -0.048225861 0.95464039
7.503242 8.4037399 -0.046817243 0.95593613
7.5261717 8.0145502 -0.045688398 0.9569751
8.7312107 7.9950781 -0.049196318 0.95374846
9.8655071 7.9547458 -0.052663308 0.95057076
1.2742578 0.92579097 -0.0065449905 0.99371952
1.2742382 0.90154296 -0.0064863586 0.99377573
1.2742773 0.8543359 -0.0063751219 0.99388206
1.2742969 0.80870116 -0.0062714387 0.99398112
1.2743359 0.74286133 -0.0061294171 0.99411714
1.2743164 0.7215625 -0.0060854722 0.9941594
1.2914063 0.70997071 -0.0061237332 0.99412251
1.3307617 0.70995116 -0.0062673567 0.99398494
1.3719921 0.70995116 -0.0064193723 0.9938398
1.5087304 0.70996094 -0.0069287107 0.99335241
1.5592968 0.70994139 -0.0071195601 0.99317014
1.6127343 0.70997071 -0.0073221968 0.99297637
1.7293359 0.70995116 -0.0077680205 0.99255025
1.989375 0.70214844 -0.008766708 0.99159682
1.989375 0.67414063 -0.0087284464 0.99163312
21.717461 6.7559471 -0.09451481 0.91303879
22.677656 6.7432714 -0.098317333 0.90970331
23.718515 6.7295604 -0.10245296 0.90608722
1.7293164 -0.70995116 -0.0077680587 0.99255031
1.6692969 -0.70994139 -0.0075379177 0.99277025
1.5592968 -0.70994139 -0.0071194838 0.99317014
1.4152734 -0.70994139 -0.0065796659 0.99368656
1.2743164 -0.7215625 -0.0060854722 0.9941594
1.2742969 -0.76446289 -0.0061750412 0.99407351
1.2742969 -0.78638673 -0.0062224194 0.99402821
1.2742578 -0.8543359 -0.0063750837 0.99388212
1.2742773 -0.87772459 -0.0064295959 0.99382979
1.2742578 -0.9257617 -0.0065450668 0.99371958
16.821737 -12.879756 -0.088040389 0.9187457
16.383495 -12.873974 -0.086585388 0.92003226
15.959394 -12.868388 -0.085194089 0.92126703
14.764453 -12.852636 -0.081345327 0.92468649
14.389609 -12.847695 -0.080159605 0.92573917
12.664804 -12.82497 -0.074900851 0.93043971
12.346328 -12.820751 -0.07396473 0.93127888
12.035645 -12.816669 -0.073061638 0.93208778
11.732422 -12.812666 -0.072194174 0.93286777
11.146894 -12.804951 -0.070548587 0.93434572
10.863906 -12.80122 -0.06977047 0.93504596
10.58709 -12.797568 -0.069020115 0.93572164
10.316074 -12.793994 -0.068296701 0.93637395
9.792695 -12.789795 -0.066938132 0.93759841
9.5378904 -12.786728 -0.066289864 0.93818396
8.841465 -12.835576 -0.064776838 0.9395591
8.9187689 -13.302608 -0.06655395 0.93794543
8.1285744 -12.808564 -0.063039623 0.94112337
8.9060936 -14.431436 -0.070471495 0.9344157
9.9775972 -16.631767 -0.080598906 0.92535216
8.1873436 -14.459307 -0.06904915 0.93569463
9.9509764 -18.652109 -0.087851182 0.91891378
9.9125195 -21.771103 -0.099404298 0.90874851
9.5821486 -21.766758 -0.098828807 0.90925384
3.9192576 -9.2152443 -0.041614149 0.96073508
8.9325781 -21.758183 -0.097738147 0.91020775
7.6735153 -21.741581 -0.095810965 0.9119001
7.0616794 -21.733524 -0.094964445 0.91264457
6.2464061 -22.015556 -0.095097005 0.91252577
0.92441404 -9.1639643 -0.038273811 0.96382821
-1.8634961 -9.1431637 -0.038789861 0.96336311
-3.4603515 -8.739912 -0.039062157 0.96309775
-3.5766015 -8.4096384 -0.037975423 0.96410531
-3.701328 -8.4079981 -0.038175695 0.96392012
-3.8274219 -8.4063377 -0.03838459 0.9637273
-4.5607028 -9.0916595 -0.042269628 0.96013045
-1.0425 -0.95461911 -0.0058739088 0.99436176
-1.042539 -0.90755856 -0.005743904 0.99448633
-1.042539 -0.88476562 -0.0056821438 0.9945454
-1.0425586 -0.86248046 -0.0056227874 0.99460226
-1.0425781 -0.77771485 -0.0054051969 0.9948107
-1.0426172 -0.75749999 -0.0053554154 0.99485826
-1.0588672 -0.70995116 -0.0052979658 0.99491358
-1.0882226 -0.70994139 -0.0053994367 0.99481612
-1.1186719 -0.70994139 -0.005505905 0.99471426
-1.1503906 -0.70994139 -0.0056175613 0.99460727
-1.1833984 -0.70995116 -0.0057347487 0.99449509
-1.2178515 -0.70996094 -0.0058578108 0.99437708
-1.3719727 -0.70993161 -0.0064194486 0.99383992
-1.4607812 -0.70996094 -0.0067491913 0.99352431
-1.5592773 -0.70995116 -0.0071197888 0.9931702
-1.6692578 -0.70993161 -0.0075381468 0.99277037
-1.7724218 -0.70173824 -0.007921638 0.99240381
-1.7724218 -0.65069336 -0.0078462595 0.99247605
-18.656445 -5.0408888 -0.0803091 0.92560983
-18.781563 -4.8223047 -0.080578767 0.92536807
-21.672266 7.6490817 -0.15917969 0.91216695
-1.7293164 0.70995116 -0.012947425 0.99255019
-1.6692969 0.70995116 -0.012563591 0.99277008
-1.6127148 0.70996094 -0.012204208 0.99297631
-1.5592577 0.70995116 -0.011866149 0.99317014
-1.5087109 0.70997071 -0.011548461 0.99335235
-1.4607617 0.70995116 -0.011248893 0.99352431
-1.4152734 0.70997071 -0.010966339 0.99368638
-1.3307031 0.70997071 -0.010446205 0.993985
-1.253828 0.70995116 -0.009979248 0.99425292
-1.1833984 0.70996094 -0.0095581431 0.99449497
-1.0589062 0.70996094 -0.0088299559 0.99491334
-1.041914 0.7371875 -0.00883995 0.99490756
-1.041914 0.75701171 -0.0089197541 0.9948616
-1.041875 0.77717769 -0.009002571 0.9948141
-1.0417968 0.861875 -0.0093646999 0.99460608
-1.0417774 0.90689451 -0.0095662307 0.99449027
-1.0417578 0.93013668 -0.0096725076 0.99442917
-1.0417187 0.95390624 -0.009783172 0.99436587
-13.483516 13.315126 -0.13124615 0.92700034
-11.622656 16.427471 -0.13937999 0.92265934
-1.7627929 9.9163275 -0.06975773 0.96051264
-0.99322265 6.0256834 -0.042297401 0.97586739
-0.66232419 5.8314061 -0.040647887 0.97679728
-0.58800781 5.829248 -0.040578879 0.97683662
-0.44312498 5.8662987 -0.040745698 0.97674215
-0.37076172 5.8936715 -0.040900726 0.97665495
5.397656 23.454443 -0.16669151 0.9082166
5.288125 21.725555 -0.15486576 0.91444165
5.5802732 21.733652 -0.1554095 0.9141537
5.7374997 20.221933 -0.1455854 0.91935539
6.0149999 20.228378 -0.1461636 0.91904795
6.5768747 20.241415 -0.14740703 0.91838884
6.861445 20.248028 -0.14807102 0.91803652
6.6257615 17.369276 -0.12875572 0.92833531
7.1984568 16.925566 -0.12738758 0.92906862
7.6055856 16.162645 -0.12371479 0.93104047
6.7781639 13.512129 -0.10469875 0.94132286
6.9906249 13.509336 -0.10535087 0.94096911
7.2138085 12.73997 -0.10140099 0.94311821
7.1297655 10.634218 -0.088675305 0.95007557
7.9244919 10.62375 -0.091795385 0.94836462
7.518652 9.5682325 -0.084281541 0.95248908
7.512207 9.0807028 -0.081624337 0.95395178
7.5091405 8.8482027 -0.080376551 0.95463955
7.5004687 8.1910448 -0.076921806 0.95654607
8.5169134 7.99791 -0.080921784 0.9543401
9.649765 7.9829783 -0.086740986 0.95113766
9.8655071 7.9547458 -0.087774158 0.95057005
4.9992967 3.8277733 -0.043608703 0.97512829
1.2733593 0.94983399 -0.01100235 0.99366564
1.2734179 0.87715816 -0.010709266 0.99383378
1.2734375 0.85375977 -0.010618476 0.99388599
1.2734765 0.76398438 -0.010285682 0.99407721
1.2735156 0.74239254 -0.010209313 0.99412078
1.2735351 0.72112304 -0.010136032 0.99416286
1.3307617 0.70995116 -0.010445976 0.99398482
1.4152734 0.70996094 -0.010966072 0.99368638
1.5087304 0.70996094 -0.011548309 0.99335235
1.5592968 0.70996094 -0.011866035 0.99317002
1.7293359 0.70995116 -0.012947006 0.99255013
1.7931445 0.70995116 -0.013356819 0.99231517
1.933789 0.70995116 -0.014267044 0.99179369
1.9914843 0.70287108 -0.014626503 0.99158788
1.9914453 0.6748535 -0.014562988 0.99162436
1.9914453 0.64705074 -0.01450222 0.99165905
23.718475 6.7295408 -0.17075661 0.90608597
1.9914453 -0.67482418 -0.014562911 0.99162436
1.9914843 -0.70285153 -0.014626427 0.99158788
1.8611327 -0.70995116 -0.013795776 0.9920637
1.793164 -0.70994139 -0.013356895 0.99231511
1.7293164 -0.70995116 -0.012946815 0.99255019
1.6127343 -0.70994139 -0.012203827 0.99297631
1.5087109 -0.70994139 -0.011548385 0.99335241
1.4607812 -0.70995116 -0.011248817 0.99352425
1.4152734 -0.70994139 -0.010966034 0.99368644
1.3720117 -0.70993161 -0.010699043 0.99383968
1.2735156 -0.74239254 -0.010209541 0.99412078
1.2734571 -0.80815428 -0.010445976 0.99398506
1.2734375 -0.85375977 -0.010618439 0.99388599
1.2733984 -0.87714839 -0.010709343 0.9938339
1.2733984 -0.9009375 -0.010803527 0.99377972
1.2733788 -0.92514646 -0.01090084 0.99372375
1.2733593 -0.94980466 -0.011002121 0.9936657
16.383495 -12.873974 -0.14431305 0.92003107
14.389609 -12.847685 -0.13360642 0.9257381
13.671348 -12.838232 -0.12989147 0.92772561
13.326894 -12.833701 -0.12814246 0.92866403
12.991523 -12.829258 -0.12645827 0.92956793
12.346328 -12.820762 -0.12327491 0.93127781
12.035664 -12.81666 -0.1217728 0.93208677
11.146914 -12.80496 -0.11758171 0.93434465
10.863945 -12.80123 -0.11628475 0.93504488
10.050742 -12.790507 -0.11266536 0.93700236
9.5378904 -12.786728 -0.11048561 0.93818301
8.8414841 -12.835576 -0.1079504 0.93955815
8.3697462 -12.829346 -0.10606232 0.94056553
8.9061327 -14.431436 -0.1174527 0.93441463
9.9775972 -16.631786 -0.13433085 0.92535102
8.1873627 -14.459296 -0.11508533 0.93569368
9.958066 -18.113623 -0.14316258 0.92064232
9.9435549 -19.21583 -0.14985161 0.9170928
9.9357815 -19.806698 -0.15347202 0.91517639
9.9189844 -21.078876 -0.16134883 0.91102368
8.6130276 -21.753975 -0.16204952 0.9106558
8.2967768 -21.749813 -0.16122852 0.91108739
7.6735153 -21.74159 -0.15968563 0.91189879
7.3662305 -21.737539 -0.15896355 0.91227925
0.92441404 -9.1639643 -0.063791461 0.96382767
-3.4603515 -8.739912 -0.065103836 0.96309721
-3.5766015 -8.4096384 -0.063294031 0.96410477
-3.9480274 -8.3900194 -0.064225428 0.96358854
-1.0417968 -0.88414061 -0.0094634248 0.99454916
-1.041914 -0.75698239 -0.0089197541 0.99486166
-1.0419531 -0.71771485 -0.0087627787 0.99495178
-1.0588672 -0.70995116 -0.0088298414 0.99491346
-1.0882226 -0.70994139 -0.0089990618 0.99481606
-1.1833984 -0.70995116 -0.0095580667 0.99449497
-1.2914063 -0.70994139 -0.010206413 0.99412245
-1.3307031 -0.70994139 -0.010446319 0.99398506
-1.4607812 -0.70996094 -0.011248931 0.99352425
-1.5087109 -0.70994139 -0.011548385 0.99335241
-1.5592773 -0.70995116 -0.01186634 0.99317008
-1.6126952 -0.70995116 -0.012204094 0.99297643
-1.7292968 -0.70995116 -0.012947006 0.99255025
-1.7732812 -0.70209962 -0.013209305 0.99239999
-18.652813 -5.0399022 -0.13382229 0.92562264
-23.606367 7.6702342 -0.24068275 0.90548044
-1.7741015 0.65133786 -0.01832531 0.9924686
-1.7741015 0.67675781 -0.018411979 0.99243325
-1.7293164 0.70995116 -0.018126411 0.99255002
-1.6692969 0.70995116 -0.017589454 0.99276996
-1.6127148 0.70996094 -0.017086029 0.99297619
-1.5592577 0.70995116 -0.016613083 0.99317002
-1.5087109 0.70997071 -0.01616806 0.99335223
-1.4152734 0.70997071 -0.015352859 0.99368626
-1.3719531 0.70995116 -0.014978981 0.99383974
-1.253828 0.70995116 -0.013971176 0.9942528
-1.1833984 0.70996094 -0.013381614 0.99449486
-1.1503906 0.70996094 -0.013108101 0.99460703
-1.1186913 0.70997071 -0.012847519 0.9947139
-1.0882422 0.70996094 -0.012598915 0.99481583
-1.0412109 0.73668945 -0.012367629 0.99491084
-1.0411328 0.81812501 -0.012839279 0.9947173
-1.0410937 0.83949214 -0.01296814 0.99466443
-1.0410546 0.8835156 -0.013239899 0.99455291
-1.0410352 0.90624022 -0.013383331 0.99449402
-1.0409765 0.92946285 -0.013531875 0.9944331
-1.0409374 0.95321286 -0.013686256 0.99436986
-17.898945 17.236542 -0.24095899 0.90538001
-13.483516 13.315126 -0.18374915 0.92699873
-13.983222 14.160039 -0.19296798 0.92347968
-11.622734 16.427568 -0.19515163 0.92265713
-1.8903515 9.9096584 -0.09782169 0.96044815
-0.90730464 5.971211 -0.058564376 0.97612941
-0.82103515 5.9018846 -0.057779159 0.97644585
-0.74271482 5.8793063 -0.057462577 0.97657353
-0.66525388 5.8570313 -0.057157706 0.97669595
-0.44496092 5.8905077 -0.05727993 0.97664672
-0.37277344 5.9253516 -0.057569388 0.97653043
-0.30164063 5.9959664 -0.058213308 0.97627074
-0.22886719 6.0682225 -0.05888214 0.97600138
5.2880859 21.725468 -0.2168116 0.9144401
5.7374802 20.221874 -0.20381923 0.91935384
6.2947068 20.234804 -0.20548241 0.91872436
6.4562888 17.585615 -0.18165244 0.92780209
6.7616796 17.078028 -0.17810401 0.92915934
7.5791988 16.646475 -0.17735885 0.92944634
6.538281 13.894511 -0.14889938 0.9404217
6.7781639 13.512129 -0.14658184 0.94132155
7.2057419 13.506484 -0.14843838 0.94060069
7.2189841 13.13124 -0.14529984 0.94181925
7.2089062 12.36623 -0.13879517 0.94434959
6.5602732 10.93537 -0.12365226 0.95026791
6.7518749 10.639189 -0.1221851 0.95084369
6.9393163 10.636728 -0.12314808 0.95046586
7.1297655 10.634209 -0.12414634 0.95007449
7.3233786 10.63167 -0.12518093 0.94966894
7.5202537 10.629072 -0.12625332 0.94924897
7.7205858 10.626435 -0.1273634 0.94881397
7.9244919 10.62374 -0.12851483 0.94836348
7.518652 9.5682325 -0.11799541 0.95248801
7.5153513 9.3205662 -0.11609771 0.95323449
7.5061717 8.622695 -0.11085129 0.95529926
7.5004883 8.1910839 -0.10769333 0.95654494
7.5261717 8.0145502 -0.10660705 0.95697349
7.6255078 7.9185252 -0.1065947 0.95697784
8.0134764 7.9134078 -0.10920352 0.95594871
8.5169134 7.99791 -0.11329075 0.95433909
9.4102736 7.9861326 -0.11967746 0.95182759
9.649785 7.9829688 -0.12143932 0.95113653
9.8655071 7.9547458 -0.12288479 0.95056891
1.2724999 0.94916016 -0.015393143 0.99366981
1.2724999 0.92453122 -0.015251464 0.99372786
1.272539 0.90034175 -0.015114861 0.99378377
1.2725586 0.87656248 -0.014983215 0.99383783
1.2726171 0.83023435 -0.014733466 0.99394017
1.2726562 0.80763668 -0.014615021 0.99398869
1.2726562 0.78538084 -0.014500884 0.99403566
1.2726953 0.76350582 -0.014390602 0.99408072
1.2914063 0.70997071 -0.01428955 0.99412227
1.3307617 0.70995116 -0.014624977 0.9939847
1.3719921 0.70995116 -0.01497879 0.99383956
1.4608008 0.70996094 -0.015748672 0.99352401
1.5087304 0.70996094 -0.016167907 0.99335217
1.5592968 0.70996094 -0.016612967 0.99316984
1.6692969 0.70994139 -0.017589111 0.99276996
1.9935352 0.6755566 -0.020409355 0.99161541
21.717461 6.7559276 -0.22053951 0.91303563
22.677637 6.7432613 -0.22941184 0.9097001
23.718496 6.7295508 -0.23906744 0.90608388
1.9935156 -0.67551756 -0.020409584 0.99161553
1.9935352 -0.70359373 -0.020498961 0.99157906
1.8611327 -0.70995116 -0.019314498 0.99206352
1.6127343 -0.70994139 -0.017085724 0.99297613
1.3720117 -0.70993161 -0.014978828 0.99383956
1.2914063 -0.70994139 -0.01428936 0.99412233
1.2726953 -0.74190426 -0.0142844 0.99412447
1.2726953 -0.76348633 -0.014390678 0.99408078
1.2726562 -0.78540039 -0.014500884 0.9940356
1.2726562 -0.80763668 -0.014615173 0.99398869
1.2726171 -0.83023435 -0.014733429 0.99394017
1.272539 -0.8765527 -0.014983329 0.99383789
1.2725195 -0.92453122 -0.015251541 0.9937278
1.2724999 -0.94916016 -0.015392875 0.99366981
16.383476 -12.873994 -0.20204026 0.92002928
15.548691 -12.862978 -0.19567309 0.92244977
14.764472 -12.852646 -0.18981044 0.92468363
14.38957 -12.847705 -0.18705058 0.92573655
14.025391 -12.8429 -0.18440139 0.92674935
13.326875 -12.833681 -0.17940113 0.92866254
12.664804 -12.824961 -0.17477405 0.93043715
12.346328 -12.820762 -0.17258698 0.93127632
11.436289 -12.808769 -0.16650222 0.93361753
10.863945 -12.80123 -0.1628025 0.93504345
10.316133 -12.794003 -0.15936302 0.93637139
9.7927151 -12.789795 -0.15619518 0.93759602
9.5378904 -12.786728 -0.15468101 0.93818164
9.2880268 -12.783837 -0.15322162 0.93874651
8.918808 -13.302608 -0.15529738 0.93794304
8.3697653 -12.829346 -0.14852458 0.94056416
8.1873627 -14.459296 -0.16112208 0.93569225
9.958086 -18.113632 -0.20043434 0.92064053
9.9509954 -18.652197 -0.2049908 0.9189105
9.9435549 -19.215868 -0.20979518 0.91709083
9.9357615 -19.806728 -0.21486644 0.91517442
9.9125195 -21.771112 -0.23195367 0.90874511
9.5821486 -21.766748 -0.23061094 0.90925056
3.9142187 -9.2033596 -0.0969759 0.96078324
8.9325781 -21.758192 -0.22806463 0.91020441
8.6130276 -21.753994 -0.22687081 0.91065377
7.6735153 -21.741611 -0.22356176 0.91189682
7.0616598 -21.733545 -0.2215848 0.91264135
6.5475974 -22.019531 -0.2227522 0.91220194
6.2464256 -22.015566 -0.22190015 0.91252249
2.2371094 -9.1907616 -0.091721073 0.96286869
-0.5755859 -9.1489553 -0.088888697 0.96399432
-3.4603515 -8.7398729 -0.091147609 0.9630965
-3.4471092 -8.3966017 -0.08801201 0.96434295
-3.8274219 -8.4063177 -0.089563638 0.96372598
-3.9480078 -8.3899994 -0.089901313 0.96358782
-1.0409765 -0.92945307 -0.013531951 0.99443316
-1.0410156 -0.9062109 -0.013383254 0.9944942
-1.0411328 -0.81810546 -0.012839203 0.99471736
-1.0412109 -0.73668945 -0.012367706 0.99491084
-1.04125 -0.71722656 -0.012259979 0.99495506
-1.0882226 -0.70994139 -0.012599068 0.99481595
-1.1833984 -0.70995116 -0.013381538 0.99449486
-1.3719727 -0.70993161 -0.01497879 0.99383968
-1.4607812 -0.70996094 -0.015748749 0.99352407
-1.5087109 -0.70994139 -0.016168136 0.99335229
-1.6692969 -0.70995116 -0.017589416 0.99276996
-1.7741406 -0.70242184 -0.018502388 0.99239618
-1.7741015 -0.65131837 -0.018325347 0.9924686
-18.649199 -5.0389452 -0.18731922 0.9256348
-18.676796 -4.7954001 -0.1869767 0.92576575
-23.606405 7.6702538 -0.30945385 0.90547758
-22.602108 7.6592479 -0.29752582 0.90894943
-1.7749609 0.70277339 -0.023800468 0.99239242
-1.7293164 0.70995116 -0.023306007 0.99254984
-1.6127148 0.70996094 -0.021968078 0.99297595
-1.5087109 0.70997071 -0.020787887 0.993352
-1.4607617 0.70995116 -0.020248909 0.99352396
-1.4152734 0.70997071 -0.019740218 0.99368602
-1.3307031 0.70997071 -0.018803902 0.9939847
-1.253828 0.70995116 -0.017963333 0.99425262
-1.1833984 0.70996094 -0.017205391 0.99449468
-1.1186913 0.70997071 -0.01651863 0.99471378
-1.0882422 0.70996094 -0.016199073 0.99481565
-1.0405273 0.73620117 -0.015891036 0.99491405
-1.0404882 0.75597656 -0.016034469 0.99486834
-1.0404687 0.7761035 -0.016182899 0.99482089
-1.0404297 0.79663086 -0.016336976 0.99477178
-1.0403515 0.86064452 -0.016833037 0.99461335
-13.983203 14.160039 -0.24810815 0.92347747
-11.304844 11.739316 -0.20318699 0.9368844
-13.495878 18.092958 -0.28141171 0.91366172
-11.622812 16.427656 -0.25084668 0.92265445
-1.7608007 9.9051657 -0.12542675 0.96055412
-0.74601561 5.9054003 -0.074208602 0.97647005
-0.59285152 5.8773241 -0.073646046 0.9766466
-0.44681638 5.9148927 -0.073952638 0.97655052
-0.37480468 5.9573922 -0.074419096 0.97640431
5.3976755 23.454502 -0.30005625 0.90821165
6.8614254 20.247919 -0.26653653 0.91803271
6.3687692 18.044872 -0.2385688 0.92630738
6.625742 17.369297 -0.23177086 0.92833155
7.1326561 16.770908 -0.22721055 0.92968976
7.3392968 16.671885 -0.22710148 0.92972255
6.4397459 13.685107 -0.18856174 0.94129097
6.5683203 13.514902 -0.18733814 0.94166034
6.7781639 13.512129 -0.18846717 0.94131976
7.2057419 13.506504 -0.1908543 0.94059885
7.2189841 13.131249 -0.18681739 0.94181752
7.2138281 12.73999 -0.18252666 0.94311517
6.4741015 11.105732 -0.16026649 0.94987583
6.4779296 10.798163 -0.1569902 0.95087487
6.5672851 10.64163 -0.15590301 0.95120692
7.1297655 10.634209 -0.15961921 0.950073
7.323359 10.63165 -0.16094932 0.94966751
7.5202537 10.629072 -0.16232833 0.94924748
7.9244919 10.62374 -0.16523613 0.94836193
8.1321478 10.621006 -0.16677067 0.94789535
7.5091405 8.8482227 -0.14468357 0.95463711
7.5032811 8.4037695 -0.14045639 0.95593297
7.5004883 8.1910639 -0.138465 0.95654368
7.5261912 8.0145502 -0.13706878 0.95697218
7.6254687 7.9185157 -0.13705432 0.95697665
8.0134764 7.9133983 -0.14040837 0.9559474
8.2147264 7.9107418 -0.14218353 0.95540363
8.5169134 7.99791 -0.14566314 0.95433772
8.7312107 7.9950976 -0.14759766 0.95374531
8.9513283 7.9921875 -0.1496083 0.95313001
9.177578 7.9891992 -0.15169849 0.95249069
9.4102736 7.9861131 -0.15387695 0.95182616
9.649785 7.9829688 -0.15614116 0.9511351
1.2716211 0.94852537 -0.019777831 0.99367392
1.2716405 0.92388672 -0.01959629 0.99373192
1.2716796 0.89972657 -0.01942089 0.99378777
1.2716992 0.87598634 -0.019251784 0.99384177
1.2717578 0.85264647 -0.019088516 0.99389368
1.2717968 0.80712891 -0.018779106 0.99399245
1.2718359 0.78488278 -0.018632431 0.9940393
1.271875 0.7414453 -0.018354453 0.99412799
1.271914 0.72020507 -0.018222541 0.99416995
1.2914063 0.70997071 -0.018372573 0.99412209
1.4152734 0.70996094 -0.019740028 0.99368608
1.5087304 0.70996094 -0.020787887 0.993352
1.5592968 0.70996094 -0.021359976 0.99316967
1.6127343 0.70997071 -0.021968041 0.99297589
1.7931445 0.70995116 -0.02404354 0.99231482
1.9956249 0.67624998 -0.026268844 0.99160641
21.717499 6.755908 -0.28355533 0.91303295
22.677656 6.7432714 -0.29495946 0.90969735
23.718554 6.7295408 -0.30737513 0.9060809
1.8611327 -0.70995116 -0.024833374 0.99206328
1.793164 -0.70994139 -0.024043465 0.99231476
1.6692969 -0.70994139 -0.022615356 0.99276972
1.3720117 -0.70993161 -0.019258995 0.99383938
1.3307226 -0.70994139 -0.018803863 0.99398464
1.2914063 -0.70994139 -0.018372536 0.99412215
1.271875 -0.7414453 -0.018354416 0.99412799
1.271875 -0.76297849 -0.018490715 0.99408442
1.2718359 -0.78488278 -0.018632354 0.9940393
1.2717578 -0.8296777 -0.018931083 0.99394411
1.2717578 -0.85262692 -0.019088669 0.99389374
1.2717187 -0.87597656 -0.019251784 0.99384171
16.821718 -12.879756 -0.26413324 0.91874039
16.383476 -12.873974 -0.25977305 0.92002702
15.548711 -12.862978 -0.25158635 0.92244738
14.764453 -12.852627 -0.24404597 0.92468148
14.38955 -12.847705 -0.24049766 0.9257344
14.025391 -12.8429 -0.23709102 0.9267472
13.326855 -12.833701 -0.23066477 0.92866045
12.991543 -12.829268 -0.2276307 0.92956418
12.346328 -12.820771 -0.22190388 0.93127424
11.436289 -12.808779 -0.21407989 0.93361557
11.146894 -12.804951 -0.21165599 0.93434131
10.863945 -12.80122 -0.20932117 0.93504155
10.050703 -12.790517 -0.20280266 0.93699914
9.792676 -12.789795 -0.20082508 0.93759429
9.5379095 -12.786728 -0.19887885 0.93817979
9.2879877 -12.783779 -0.19700173 0.93874496
6.5359764 -9.2379198 -0.14108323 0.95574069
8.841465 -12.835556 -0.19430579 0.93955511
8.7617188 -13.06833 -0.19615704 0.93900013
8.1286135 -12.808583 -0.18913074 0.94111925
8.6515236 -14.018935 -0.20537971 0.93622494
8.6470699 -14.413897 -0.20955722 0.9349708
9.9713669 -17.105049 -0.24684063 0.92385215
9.9435549 -19.215868 -0.26974148 0.91708839
9.9357815 -19.806728 -0.27626452 0.91517192
9.9190035 -21.078926 -0.29043889 0.91101891
9.9124994 -21.771112 -0.29823518 0.90874249
3.9142187 -9.2033691 -0.12468803 0.96078199
7.9836326 -21.745684 -0.28880194 0.91149712
7.6735153 -21.741602 -0.28744477 0.91189426
6.5475974 -22.019522 -0.28640175 0.91219938
6.2464256 -22.015556 -0.28530493 0.91251999
2.2353125 -9.1834278 -0.1178321 0.96289665
0.92441404 -9.1639547 -0.11482914 0.96382582
-3.4603515 -8.7398729 -0.11719245 0.96309543
-4.5639062 -9.0980568 -0.12689865 0.96010023
-1.0401953 -0.95247066 -0.017583618 0.99437386
-1.0402343 -0.92875975 -0.017385902 0.99443704
-1.040293 -0.88287109 -0.01701065 0.99455673
-1.0403125 -0.86064452 -0.016833114 0.99461347
-1.0404297 -0.79663086 -0.016336899 0.99477178
-1.0404687 -0.77611327 -0.016183089 0.99482089
-1.0405469 -0.71675777 -0.015752677 0.99495828
-1.0588672 -0.70995116 -0.015894279 0.99491322
-1.1186719 -0.70994139 -0.016518706 0.9947139
-1.1504296 -0.70994139 -0.016853675 0.99460679
-1.2178515 -0.70996094 -0.017574653 0.99437672
-1.2537891 -0.70994139 -0.017963562 0.9942528
-1.3719727 -0.70993161 -0.019258957 0.9938395
-1.4607812 -0.70996094 -0.020248719 0.9935239
-1.7292968 -0.70995116 -0.023305969 0.9925499
-1.7749413 -0.65164059 -0.023572845 0.99246484
-18.662636 -4.7917676 -0.2402198 0.92581773
-23.606386 7.6702247 -0.37822646 0.90547419
-22.602108 7.6592479 -0.36365345 0.9089461
-1.7757812 0.6519531 -0.02882576 0.99246097
-1.7758007 0.67739254 -0.028961943 0.9924255
-1.6692773 0.70995116 -0.027641639 0.99276954
-1.6126952 0.70995116 -0.026850738 0.99297577
-1.5592577 0.70995116 -0.026107254 0.99316955
-1.4607617 0.70995116 -0.024749411 0.99352372
-1.4152734 0.70997071 -0.024127426 0.99368578
-1.3719531 0.70995116 -0.02353962 0.99383932
-1.253828 0.70995116 -0.021956023 0.99425244
-1.217832 0.70997071 -0.021480866 0.99437654
-1.1833984 0.70996094 -0.02102932 0.99449444
-1.1503906 0.70996094 -0.020599632 0.99460667
-1.0882422 0.70996094 -0.019799462 0.99481547
-1.0398437 0.71628904 -0.019240951 0.99496144
-1.0398047 0.73570311 -0.019409904 0.99491733
-1.0397656 0.7755664 -0.019765968 0.99482423
-1.0397071 0.79608399 -0.019954033 0.99477518
-1.0396484 0.83829099 -0.020350685 0.99467158
-1.0395703 0.86002928 -0.020559806 0.9946171
-1.0395312 0.88222653 -0.020776443 0.99456048
-1.0393945 0.95177734 -0.021476021 0.99437785
-11.304883 11.739297 -0.24834478 0.93688202
-13.495859 18.092949 -0.34395507 0.91365862
-1.7598437 9.8997459 -0.15321152 0.96057379
-0.92027342 6.0566306 -0.093350522 0.97579044
-0.74933594 5.9317284 -0.091106527 0.97636551
-0.67111325 5.9089842 -0.090620078 0.97649014
-0.44867188 5.9395118 -0.090765186 0.97645313
-0.37683594 5.9898047 -0.091453172 0.97627658
-0.23523436 6.2374411 -0.095114782 0.97533876
5.2880077 21.725283 -0.34071693 0.91443515
5.5802732 21.7337 -0.34192199 0.91414595
5.4623828 20.216337 -0.31910375 0.91963822
6.0149217 20.228222 -0.32157999 0.91904145
6.3688278 18.044912 -0.29159346 0.92630446
6.625742 17.369316 -0.28327724 0.92832887
6.7616796 17.078056 -0.27989203 0.92915457
7.1326561 16.770927 -0.27771044 0.92968714
6.3354883 13.914795 -0.23297945 0.940669
7.2057419 13.506494 -0.23327155 0.9405967
6.397656 10.664307 -0.18950363 0.95146698
6.9392967 10.636728 -0.19352573 0.95046258
7.129746 10.634209 -0.19509465 0.95007116
7.323359 10.63165 -0.19672206 0.94966567
7.5202732 10.629072 -0.19840737 0.94924551
7.7205467 10.626416 -0.20015213 0.9488107
8.1321478 10.621006 -0.20383689 0.94789338
7.518652 9.5682325 -0.18543182 0.95248485
7.5061717 8.6227045 -0.17420395 0.95529622
7.5032811 8.4037695 -0.17167397 0.95593131
7.8171091 7.9159961 -0.16952786 0.95646989
8.2147264 7.9107418 -0.17378204 0.95540196
8.7312107 7.9950976 -0.18039939 0.95374358
9.8655272 7.9547653 -0.19311401 0.95056552
4.9843359 3.9166405 -0.096594848 0.97495967
1.2708007 0.92327148 -0.023935165 0.99373585
1.2708594 0.87539059 -0.023515053 0.99384558
1.2708985 0.85208982 -0.023315735 0.99389756
1.2710156 0.78438473 -0.02275875 0.99404287
1.2710546 0.76250976 -0.022586059 0.99408793
1.2711133 0.71974605 -0.022258719 0.99417341
1.2914063 0.70995116 -0.022455901 0.99412191
1.3307617 0.70995116 -0.022983054 0.99398428
1.4152734 0.70996094 -0.024127388 0.99368584
1.4608008 0.70996094 -0.024749145 0.99352354
1.5087304 0.70996094 -0.025408247 0.9933517
1.6127343 0.70996094 -0.0268507 0.99297559
1.793164 0.70995116 -0.029387474 0.9923144
1.8611327 0.70994139 -0.030353012 0.99206299
1.9977343 0.70507812 -0.032281913 0.99156082
1.9976953 0.67696285 -0.032141265 0.99159741
1.9976562 0.64906251 -0.032006416 0.9916324
23.718554 6.7295408 -0.37569058 0.9060775
1.9976367 -0.64906251 -0.032006796 0.99163246
1.9337695 -0.70996094 -0.031389352 0.99179298
1.8611327 -0.70996094 -0.030353164 0.99206293
1.7293359 -0.70996094 -0.028485298 0.99254942
1.6692969 -0.70995116 -0.027641905 0.99276942
1.6127343 -0.70995116 -0.026850356 0.99297565
1.5592968 -0.70995116 -0.026107443 0.99316937
1.4607812 -0.70995116 -0.024749259 0.99352366
1.4152734 -0.70994139 -0.02412712 0.99368584
1.2711133 -0.71974605 -0.022258643 0.99417341
1.2710742 -0.7409668 -0.022419471 0.99413151
1.2710156 -0.78437501 -0.022758827 0.99404287
1.2708007 -0.9232617 -0.023935242 0.99373585
1.2707422 -0.94785154 -0.024156913 0.99367809
16.383476 -12.873974 -0.31750768 0.92002404
15.959414 -12.868388 -0.31239805 0.92125887
14.764492 -12.852646 -0.29828474 0.92467856
14.389609 -12.847705 -0.29395095 0.92573148
14.025391 -12.8429 -0.28978449 0.92674446
12.035645 -12.816669 -0.26791528 0.93208075
11.732461 -12.812666 -0.26472804 0.93286073
11.436308 -12.80876 -0.26165873 0.93361312
11.146914 -12.804951 -0.25869688 0.93433887
10.58711 -12.797568 -0.25309324 0.93571496
10.316133 -12.793994 -0.25043914 0.93636721
10.050703 -12.790498 -0.24787767 0.93699688
9.792676 -12.789795 -0.24545874 0.93759197
9.5378704 -12.786748 -0.24308161 0.93817753
6.5359764 -9.2379198 -0.17242973 0.95573902
8.6515427 -14.018896 -0.25102732 0.93622267
8.4353123 -14.469999 -0.25522596 0.93519098
9.9509954 -18.652197 -0.32214344 0.91890514
9.5821486 -21.766737 -0.36240143 0.9092446
3.9141796 -9.2033691 -0.15239872 0.96078062
8.6130276 -21.753984 -0.35652801 0.91064793
8.2967768 -21.749804 -0.3547197 0.91107965
7.9836521 -21.745684 -0.35299096 0.91149384
7.6735153 -21.741602 -0.35133201 0.91189104
7.36625 -21.737549 -0.34974065 0.9122715
7.0616794 -21.733524 -0.34822142 0.91263562
6.8294725 -21.95376 -0.35035127 0.91212642
6.5475974 -22.019522 -0.35005644 0.91219616
0.92441404 -9.1639547 -0.14035095 0.96382445
-0.57527345 -9.1441994 -0.13961636 0.96401024
-1.8634961 -9.1431246 -0.14220333 0.96335942
-3.4603515 -8.7398529 -0.14323844 0.96309412
-3.4471092 -8.3966112 -0.1383099 0.96434051
-3.5766015 -8.4096479 -0.13925506 0.96410149
-3.9480078 -8.3900099 -0.14129429 0.96358532
-1.0394531 -0.92806637 -0.021234207 0.99444097
-1.0394921 -0.90491211 -0.021001205 0.99450177
-1.0395508 -0.88222653 -0.02077652 0.99456042
-1.0396484 -0.83829099 -0.020350609 0.99467158
-1.0396875 -0.81695312 -0.020148544 0.99472433
-1.0397656 -0.75544918 -0.019584961 0.99487168
-1.0398437 -0.71625978 -0.019240798 0.9949615
-1.0882226 -0.70994139 -0.019799462 0.99481559
-1.2178515 -0.70996094 -0.021480827 0.99437648
-1.2914063 -0.70994139 -0.022455864 0.99412191
-1.3307031 -0.70994139 -0.022983093 0.99398452
-1.4152734 -0.70994139 -0.024127236 0.99368584
-1.5592773 -0.70995116 -0.02610752 0.99316949
-1.7292968 -0.70996094 -0.028485946 0.9925496
-1.7758203 -0.70310545 -0.029103927 0.99238843
-1.7757812 -0.6519531 -0.028825721 0.99246097
-18.640528 -5.0366015 -0.29423487 0.92566317
-18.652597 -4.7892089 -0.29345056 0.92585337
-21.873203 4.4581151 -0.40201885 0.91456562
-21.814882 4.7325001 -0.40200913 0.91456777
-21.752968 5.006074 -0.40199879 0.91457045
-21.61916 5.550869 -0.40197653 0.91457474
-21.547089 5.8219333 -0.4019646 0.91457707
-21.471523 6.0920215 -0.40195206 0.91457975
-21.042988 7.4269333 -0.40188125 0.91459388
-1.7766211 0.65225583 -0.034084205 0.99245709
-1.7292968 0.70994139 -0.033665963 0.99254924
-1.6692773 0.70995116 -0.032668572 0.99276918
-1.5086914 0.70996094 -0.030028686 0.99335158
-1.4152734 0.70996094 -0.028515015 0.99368554
-1.3307031 0.70996094 -0.027163047 0.99398422
-1.253828 0.70995116 -0.025948791 0.99425215
-1.1833984 0.70996094 -0.024853554 0.9944942
-1.1503906 0.70996094 -0.024345664 0.99460638
-1.1186913 0.70997071 -0.02386154 0.99471331
-1.0391601 0.71582031 -0.022724876 0.99496454
-1.039121 0.73521483 -0.022924118 0.99492043
-1.0390821 0.7549414 -0.02313076 0.99487484
-1.0390429 0.77504879 -0.023344764 0.99482751
-1.0389843 0.79552734 -0.023566436 0.99477857
-1.0389062 0.8376953 -0.024034537 0.9946751
-1.0388671 0.85942382 -0.024281273 0.99462056
-1.0386914 0.92740232 -0.025077246 0.99444473
-16.775194 15.752949 -0.41443226 0.91204691
-16.574492 15.961113 -0.4143995 0.91205418
-11.304883 11.739306 -0.29350865 0.93687916
-15.533242 16.963427 -0.41422987 0.91208839
-14.400136 16.968037 -0.40079546 0.91481465
-13.746797 17.4942 -0.40068913 0.91483575
-13.524629 17.663897 -0.400653 0.91484338
-13.300332 17.830811 -0.4006165 0.91485095
-11.62293 16.42787 -0.36239561 0.9226473
-11.341484 16.464979 -0.36006331 0.9231298
-12.383046 18.469677 -0.40046728 0.91488123
-12.148945 18.622196 -0.40042922 0.91488826
-11.912773 18.771513 -0.4003908 0.91489643
-11.674766 18.91785 -0.40035212 0.91490453
-11.43498 19.061142 -0.40031314 0.91491276
-10.832656 20.304863 -0.41446418 0.91204125
-10.822167 20.913857 -0.42408213 0.91009408
-10.811132 21.551846 -0.43423188 0.90804487
-10.799589 22.221151 -0.44494385 0.90588582
-2.0145702 9.8843946 -0.18167056 0.96044654
-1.8886913 9.9009075 -0.18152352 0.96047789
-0.83492184 6.001699 -0.10912761 0.97604954
-0.67414063 5.9352732 -0.10757713 0.97638565
-0.59777343 5.92624 -0.10726864 0.97645259
-0.52429688 5.9452147 -0.10748462 0.9764058
-0.45052734 5.9643259 -0.107719 0.9763549
-0.55632812 22.132158 -0.39870948 0.91523814
0 22.134169 -0.39861938 0.91525638
0.83398438 22.110987 -0.39848435 0.91528374
1.4340234 22.793261 -0.41130298 0.9126817
1.7201171 22.770887 -0.41125667 0.912691
2.0058985 22.745039 -0.41121042 0.91269994
2.2913282 22.715498 -0.41116422 0.91270924
2.5762889 22.682207 -0.41111815 0.91271919
2.8608007 22.645655 -0.41107211 0.91272801
3.4282031 22.561552 -0.41098034 0.91274667
3.7110155 22.513994 -0.4109346 0.91275668
3.993242 22.463348 -0.41088894 0.91276497
4.8354297 22.289385 -0.41075274 0.91279298
5.4624023 20.216415 -0.37713608 0.9196344
5.7374606 20.221777 -0.37855288 0.91934532
6.2946482 20.234676 -0.38163605 0.91871589
6.8613868 20.247803 -0.38501707 0.91802657
6.7616992 17.078047 -0.33079299 0.92915142
6.3276758 13.897655 -0.2750091 0.94073725
6.5871482 13.131298 -0.26457268 0.9429208
6.5817184 12.719111 -0.25791174 0.94431657
6.5716209 11.953691 -0.24566351 0.94688952
6.3049607 11.134912 -0.23044717 0.95009577
6.3123436 10.828281 -0.22572412 0.9510929
6.3854685 10.644013 -0.22354135 0.95155489
6.7518749 10.639189 -0.22693141 0.95083821
6.9392967 10.636728 -0.22872029 0.95046031
7.7205467 10.626416 -0.23655301 0.94880837
8.1321478 10.621006 -0.24090488 0.94789106
7.5122266 9.0807123 -0.21224441 0.95394546
7.5061717 8.622695 -0.2058832 0.95529419
7.5005078 8.1910744 -0.2000183 0.95653999
7.5262108 8.0145502 -0.19800003 0.95696855
7.6254883 7.9185157 -0.19797897 0.95697308
7.8171287 7.9159961 -0.20035666 0.95646787
8.0134573 7.9133983 -0.20282391 0.95594382
8.2147455 7.9107418 -0.20538463 0.95539993
8.7312107 7.9950681 -0.21320742 0.95374155
8.9513283 7.9921775 -0.21611592 0.95312619
9.177578 7.9891891 -0.21913603 0.95248675
9.4102736 7.9861035 -0.2222759 0.95182222
9.8655462 7.9547558 -0.22823213 0.95056325
4.991992 3.8221776 -0.11322773 0.97516078
1.2700391 0.87480468 -0.027772864 0.99384934
1.2700585 0.85151362 -0.027537765 0.99390131
1.2700781 0.82858396 -0.027310677 0.99395156
1.2702539 0.76201171 -0.026676292 0.99409145
1.2702734 0.71927732 -0.026290054 0.99417698
1.3307812 0.70994139 -0.027162589 0.99398398
1.4152734 0.70995116 -0.028515052 0.99368554
1.4608203 0.70995116 -0.029249877 0.99352324
1.5592968 0.70995116 -0.03085514 0.99316907
1.6127343 0.70996094 -0.03173374 0.99297529
1.6693164 0.70993161 -0.032668378 0.99276906
1.8611327 0.70994139 -0.035873029 0.99206263
1.9337695 0.70995116 -0.037098005 0.99179262
20.947617 6.5164356 -0.3950831 0.91597575
21.103397 5.9875684 -0.39505842 0.91598094
21.375448 4.919199 -0.39501551 0.91598898
21.491171 4.3802443 -0.39499736 0.91599327
21.593632 3.8386328 -0.39498132 0.91599631
21.682539 3.2946582 -0.39496753 0.91599905
23.261719 -5.0463672 -0.42866781 0.90916687
21.87332 -5.0337892 -0.40421903 0.91411871
21.255196 -5.4574022 -0.39520714 0.91595072
21.185625 -5.724277 -0.3952187 0.91594809
21.036367 -6.2552342 -0.39524344 0.91594321
1.9998046 -0.67766601 -0.038025741 0.99158818
1.8611327 -0.70996094 -0.035872877 0.99206257
1.7293359 -0.70996094 -0.033665579 0.99254912
1.6692969 -0.70995116 -0.032668609 0.99276912
1.6127343 -0.70995116 -0.031733245 0.99297529
1.4607812 -0.70996094 -0.029249839 0.99352336
1.3720312 -0.70994139 -0.027819939 0.99383873
1.2914063 -0.70994139 -0.02653965 0.99412167
1.2703124 -0.7192871 -0.026289977 0.99417681
1.2702343 -0.76201171 -0.026676292 0.99409151
1.2701563 -0.80606443 -0.027091712 0.99399972
1.2701172 -0.82859373 -0.027310867 0.99395138
1.2700391 -0.87480468 -0.027772827 0.99384934
1.2699804 -0.89852536 -0.028016357 0.99379551
1.2698828 -0.94720703 -0.028530464 0.99368209
16.82168 -12.879766 -0.38154742 0.91873389
16.383476 -12.873984 -0.37524733 0.92002052
15.959394 -12.868388 -0.36921304 0.92125541
14.38957 -12.847705 -0.34740651 0.92572832
14.025391 -12.8429 -0.34248465 0.92674124
13.671328 -12.838232 -0.33775109 0.92771608
12.664824 -12.824951 -0.32460678 0.9304294
12.035645 -12.816669 -0.31663629 0.93207771
11.436308 -12.80876 -0.30924186 0.93361014
11.146914 -12.804951 -0.3057434 0.93433595
10.050703 -12.790498 -0.29295462 0.93699408
9.792676 -12.789775 -0.2900981 0.93758923
9.2879686 -12.783779 -0.28457445 0.93873996
8.8019724 -12.778233 -0.2794399 0.93981189
8.5844727 -12.803935 -0.27762097 0.94019169
8.1286325 -12.808603 -0.27320501 0.94111431
8.1873627 -14.459307 -0.2992616 0.93568504
9.9510155 -18.652216 -0.38072792 0.91890144
9.943574 -19.215918 -0.38965252 0.91708148
9.9357815 -19.806747 -0.3990685 0.91516501
9.9276171 -20.426962 -0.40901947 0.91314441
9.402832 -21.359365 -0.42029163 0.91086107
8.8649025 -21.59333 -0.42037898 0.91084373
8.5937891 -21.705479 -0.420423 0.91083413
8.2967577 -21.749813 -0.41922924 0.91107571
7.9836717 -21.745674 -0.41718 0.91148996
5.8118749 -22.635595 -0.42087445 0.91074312
5.242363 -22.779619 -0.42096677 0.91072398
3.5138476 -23.125069 -0.42124707 0.91066772
3.2233593 -23.169991 -0.42129415 0.91065818
0.92441404 -9.1639547 -0.16587277 0.96382278
2.056035 -23.313173 -0.42148331 0.9106198
1.4698827 -23.362724 -0.42157829 0.9106006
0.58847654 -23.409433 -0.42172107 0.91057181
0.29429686 -23.417597 -0.42176867 0.91056228
-0.88308591 -23.413349 -0.42195928 0.91052383
-1.7655078 -23.371317 -0.42210215 0.91049504
-2.0592773 -23.350088 -0.42214969 0.91048479
-2.6460156 -23.29619 -0.42224464 0.91046566
-2.9388671 -23.26372 -0.42229202 0.910456
-3.8148828 -23.144112 -0.42243373 0.91042763
-1.8634961 -9.143115 -0.16804695 0.96335781
-5.263535 -22.871639 -0.42266804 0.91038001
-5.5510936 -22.806103 -0.42271453 0.91037101
-6.1238279 -22.664375 -0.42280707 0.91035223
-6.6928515 -22.508095 -0.4228991 0.91033411
-6.9759569 -22.424892 -0.42294481 0.91032392
-7.2579684 -22.337694 -0.42299038 0.91031533
-7.5389256 -22.247227 -0.42303577 0.91030574
-7.8187108 -22.153095 -0.42308098 0.91029662
-8.0973434 -22.055439 -0.42312598 0.91028756
-8.3747654 -21.954287 -0.4231708 0.91027838
-3.4603515 -8.7398338 -0.16928558 0.96309251
-3.5766015 -8.4096289 -0.16457939 0.96409994
-3.7013671 -8.4080076 -0.16544577 0.96391457
-3.8274219 -8.4063282 -0.16634582 0.96372187
-10.278496 -21.148973 -0.42347819 0.91021645
-10.808887 -20.888165 -0.42356384 0.9101994
-11.071718 -20.75288 -0.42360625 0.91019028
-11.849472 -20.326807 -0.42373174 0.91016519
-12.358945 -20.026455 -0.42381388 0.91014868
-12.610898 -19.871552 -0.4238545 0.9101401
-13.10871 -19.552002 -0.42393479 0.91012418
-13.840156 -19.049355 -0.42405266 0.91010034
-14.079746 -18.875713 -0.42409128 0.91009229
-14.785 -18.336407 -0.42420489 0.91007
-15.243886 -17.962265 -0.4242788 0.91005462
-15.469844 -17.770947 -0.42431518 0.91004664
-15.693203 -17.576572 -0.42435119 0.91003966
-15.914102 -17.379354 -0.42438671 0.91003287
-16.132616 -17.179502 -0.42442188 0.91002548
-16.98086 -16.352451 -0.42455831 0.909998
-17.18627 -16.138954 -0.42459136 0.90999168
-1.0386328 -0.95106441 -0.025362357 0.99438179
-1.0388086 -0.88160157 -0.02453701 0.99456406
-1.0388281 -0.85943359 -0.024281273 0.99462062
-1.0388867 -0.83768553 -0.024034537 0.99467522
-1.0389843 -0.79552734 -0.023566283 0.99477857
-1.0588672 -0.70995116 -0.022959633 0.9949128
-1.1187109 -0.70996094 -0.023861464 0.99471325
-1.1504296 -0.70994139 -0.024345359 0.99460632
-1.2178515 -0.70996094 -0.025387153 0.99437624
-1.2537891 -0.70994139 -0.025948867 0.99425232
-1.2914063 -0.70995116 -0.026539803 0.99412161
-1.3307031 -0.70995116 -0.027162781 0.99398422
-1.4152734 -0.70994139 -0.028514976 0.99368554
-1.5087109 -0.70994139 -0.030028762 0.99335152
-1.7293164 -0.70994139 -0.033666 0.99254918
-21.052343 -7.4302244 -0.40205967 0.91455758
-21.233828 -6.8992968 -0.40208849 0.91455215
-18.634922 -5.035068 -0.34763938 0.92568135
-21.697266 -5.2812204 -0.40216181 0.91453683
-21.824276 -4.7345309 -0.4021818 0.9145326
-23.135977 -4.4134278 -0.42417681 0.91007531
-24.333866 9.7656248e-06 -0.50567293 0.90723252
-24.326035 0.6115039 -0.50567096 0.90723306
-24.316288 0.91712886 -0.50566912 0.9072336
-24.285313 1.5279101 -0.50566345 0.90723449
-24.264023 1.8329492 -0.50565964 0.90723509
-24.140018 3.0495899 -0.5056383 0.90723974
-24.099667 3.352705 -0.50563145 0.90724015
-20.051367 3.5644727 -0.42321357 0.92175066
-18.980976 3.6208203 -0.40155143 0.92560315
-18.933632 3.8589647 -0.4015435 0.92560452
-18.883204 4.0964942 -0.40153509 0.92560613
-18.773535 4.5695701 -0.40151682 0.92560905
-18.714102 4.8049607 -0.40150696 0.92561108
-18.586445 5.2734571 -0.40148577 0.92561489
-18.518202 5.5064454 -0.40147448 0.92561686
-18.447012 5.7385645 -0.4014627 0.92561895
-18.215937 6.4291406 -0.40142456 0.92562556
-1.7774999 0.6780566 -0.039534301 0.99241751
-1.7292968 0.70994139 -0.038846932 0.99254888
-1.6126952 0.70995116 -0.036616895 0.99297506
-1.4607617 0.70994139 -0.033751335 0.99352306
-1.3307031 0.70996094 -0.031343039 0.99398386
-1.2913867 0.70995116 -0.030623855 0.99412137
-1.2538086 0.70994139 -0.029941939 0.99425191
-1.2178124 0.70996094 -0.02929428 0.99437606
-1.1833984 0.70995116 -0.028678244 0.99449396
-1.1503906 0.70995116 -0.028092079 0.99460614
-1.1186913 0.70996094 -0.027533492 0.99471307
-1.0882226 0.70995116 -0.027000923 0.99481505
-1.0589062 0.70996094 -0.026492767 0.99491233
-1.0384766 0.71533203 -0.026204452 0.99496758
-1.0383203 0.77452147 -0.026918868 0.99483079
-1.0382812 0.79497069 -0.027174186 0.99478185
-1.038164 0.83709961 -0.02771347 0.99467862
-1.0380859 0.8587988 -0.027997818 0.9946242
-1.0380468 0.88095701 -0.028292693 0.99456769
-1.0380077 0.90358394 -0.028598364 0.99450916
-1.0378711 0.95037109 -0.029243888 0.99438554
-14.057734 13.201094 -0.40074405 0.92574698
-11.304883 11.739306 -0.33867484 0.93687588
-12.837265 14.377919 -0.40054518 0.92578238
-12.654629 14.537011 -0.40051544 0.92578775
-12.469999 14.693671 -0.40048537 0.92579347
-11.904609 15.149843 -0.40039337 0.92580956
-11.518359 15.441826 -0.40033048 0.92582059
-11.322499 15.584102 -0.4002986 0.92582631
-11.124824 15.723779 -0.4002665 0.92583251
-10.925468 15.861045 -0.40023407 0.92583829
-10.896093 16.251835 -0.40660468 0.92470288
-10.880351 17.144726 -0.42196837 0.92197186
-10.872031 17.617079 -0.43019843 0.92051232
-10.863359 18.108271 -0.43882343 0.91898477
-10.854277 18.619648 -0.44787505 0.9173848
-10.82371 20.288055 -0.47784534 0.91210622
-10.807148 21.543858 -0.50086784 0.90807259
-9.4777927 22.285116 -0.50324368 0.90765744
-8.0560932 22.825741 -0.5030129 0.90769792
-7.7679882 22.923193 -0.50296617 0.90770549
-7.1881051 23.106768 -0.50287205 0.90772218
-6.6039453 23.275829 -0.50277734 0.90773833
-6.3103123 23.354706 -0.50272965 0.90774691
-5.7203126 23.501318 -0.50263399 0.90776408
-1.8881445 9.8979778 -0.20939544 0.96048725
-1.7582617 9.8908491 -0.20875698 0.96060467
-3.9315429 23.851728 -0.50234395 0.9078145
-0.84085935 6.0444627 -0.12681709 0.97587973
-0.7560547 5.9850779 -0.12536301 0.97615314
-0.52648437 5.9701071 -0.12454399 0.97630692
-0.45240232 5.9893456 -0.12481746 0.9762556
-0.38097656 6.0556445 -0.12608932 0.97601658
-0.30935547 6.1494923 -0.1279525 0.97566658
-0.72304684 19.170498 -0.3986603 0.92611849
0.24095702 19.173183 -0.39846367 0.92615342
0.9630664 19.143311 -0.39831632 0.92618006
1.2033985 19.12746 -0.39826733 0.92618835
2.2330077 19.660069 -0.41117695 0.92388934
2.4796679 19.628672 -0.41113704 0.92389596
3.2167578 19.51545 -0.41101778 0.92391777
3.4614258 19.471689 -0.41097823 0.92392451
3.7054687 19.424755 -0.4109388 0.92393166
3.9488671 19.374794 -0.41089943 0.92393869
4.433672 19.265682 -0.41082102 0.92395294
4.6749997 19.206678 -0.41078201 0.92395967
4.9155078 19.144688 -0.41074312 0.92396629
5.1551952 19.079531 -0.41070437 0.92397344
5.8689451 18.86628 -0.41058907 0.92399436
6.1050391 18.789423 -0.41055092 0.92400062
