# .PCD v0.7 - Point Cloud Data file format
VERSION 0.7
FIELDS x y z intensity
SIZE 4 4 4 4
TYPE F F F F
COUNT 1 1 1 1
WIDTH 1083
HEIGHT 1
VIEWPOINT 0 0 0 1 0 0 0
POINTS 1083
DATA ascii
-9.1234369 1.8595117 -0.50349021 0.96338856
-9.0466404 2.201992 -0.50347513 0.96338946
-9.0181246 2.3154688 -0.50346953 0.96338999
-8.988203 2.4285936 -0.50346369 0.96339047
-8.8173828 2.9879785 -0.50343031 0.96339285
-1.7877734 0.68199217 -0.10347023 0.99236435
-1.7878906 0.70788085 -0.10398155 0.99232662
-1.7292968 0.70996094 -0.10108585 0.99253958
-1.6692773 0.70995116 -0.098091088 0.99275982
-1.5592968 0.70996094 -0.092646293 0.99316025
-1.4152734 0.70997071 -0.085619196 0.99367732
-1.3307421 0.70996094 -0.081559218 0.99397629
-1.2178515 0.70996094 -0.076228105 0.99436897
-1.1833984 0.70997071 -0.074625202 0.99448705
-1.1186719 0.70997071 -0.071646728 0.99470651
-1.0882031 0.70997071 -0.070261039 0.99480861
-1.0588672 0.70997071 -0.068938598 0.99490613
-1.0306641 0.70997071 -0.067675591 0.99499911
-1.0300976 0.72882813 -0.068235546 0.99495792
-1.0297265 0.78845704 -0.070130385 0.99481821
-1.0294532 0.83009762 -0.071510278 0.99471653
-1.0291601 0.87343746 -0.072991751 0.99460733
-1.0289843 0.89579099 -0.073773459 0.99454981
-6.7813282 6.3681054 -0.50303632 0.96342087
-6.7005467 6.4526267 -0.5030207 0.963422
-6.5358787 6.618535 -0.50298899 0.96342427
-6.4519529 6.6999216 -0.50297278 0.96342552
-6.3670311 6.780283 -0.50295645 0.96342665
-6.2811327 6.8595018 -0.50293988 0.96342784
-6.1942382 6.9376755 -0.50292313 0.96342897
-6.1063867 7.0147362 -0.5029062 0.96343011
-5.9277735 7.1654782 -0.50287181 0.96343261
-5.8370504 7.239121 -0.50285435 0.96343398
-5.7453904 7.3116598 -0.50283664 0.96343523
-5.559453 7.4532027 -0.50280088 0.96343774
-5.4651561 7.5222168 -0.5027827 0.96343899
-5.1772265 7.721992 -0.50272727 0.96344292
-4.8819337 7.9107323 -0.50267047 0.96344703
-4.781992 7.9711618 -0.50265121 0.96344829
-4.5797653 8.088213 -0.50261235 0.96345109
-4.4775977 8.1447849 -0.50259268 0.96345258
-4.3747654 8.2000685 -0.50257289 0.96345395
-4.2711716 8.2540722 -0.50255299 0.96345544
-3.9565625 8.4081831 -0.50249249 0.96345973
-3.7437108 8.5042572 -0.5024516 0.96346265
-2.5438671 6.9289646 -0.39913335 0.97086501
-2.368711 6.9900489 -0.39909676 0.97086769
-2.2805665 7.0188866 -0.39907581 0.97086924
-2.1032422 7.0732322 -0.39903373 0.97087228
-2.0140624 7.0987301 -0.3990126 0.97087377
-1.7448437 7.168447 -0.39894894 0.97087836
-1.6545117 7.1894336 -0.3989276 0.97087985
-1.2265625 6.0181251 -0.33211792 0.97569692
-1.1242578 5.8937206 -0.32444686 0.97625148
-0.98152339 5.954824 -0.32635009 0.97611392
-0.99203122 6.5288672 -0.35709831 0.97389305
-0.47431639 6.2794237 -0.34052315 0.97508949
-0.46285155 7.3573923 -0.39863631 0.97090095
-0.37037107 7.3622069 -0.39861169 0.97090256
-0.27781248 7.3658199 -0.39858702 0.97090435
-0.18519531 7.3682518 -0.39856231 0.9709062
1.953125e-05 7.3696971 -0.39851263 0.97090966
0.092617184 7.3686328 -0.39848778 0.9709115
0.2776953 7.3630567 -0.3984378 0.97091514
0.55498046 7.3462596 -0.39837769 0.97091937
0.64722657 7.3383689 -0.39835998 0.97092068
0.8313086 7.3191404 -0.3983247 0.97092324
1.0149413 7.2954588 -0.39829841 0.97092515
1.1065038 7.2819433 -0.39828795 0.97092587
1.380039 7.2342477 -0.39824316 0.97092909
1.4707421 7.2160058 -0.39822432 0.9709304
1.5612109 7.1966114 -0.39820552 0.97093177
1.6514453 7.176084 -0.39818683 0.97093314
1.9205078 7.1077929 -0.39813316 0.97093695
2.0095704 7.0827732 -0.39811599 0.97093827
2.1867578 7.0294528 -0.39808211 0.97094065
2.2748046 7.0011129 -0.39806533 0.9709419
2.4498436 6.9411621 -0.3980321 0.97094423
2.5367577 6.9095507 -0.39801636 0.97094542
2.7093749 6.8430762 -0.39798558 0.97094768
2.7950585 6.8082519 -0.39797038 0.9709487
2.8802733 6.7723336 -0.39795536 0.97094977
2.965039 6.7353516 -0.39794043 0.97095084
3.049336 6.6973047 -0.39792576 0.97095191
3.3815038 6.5347166 -0.39786875 0.97095597
3.4632225 6.4914746 -0.39785483 0.97095698
3.5443945 6.4472165 -0.39784113 0.97095799
3.705039 6.3556833 -0.3978141 0.97095996
3.7844532 6.3083982 -0.39780086 0.97096103
3.8633397 6.2601366 -0.39778772 0.97096187
4.0191603 6.1606932 -0.39776197 0.97096372
4.3231053 5.9502244 -0.39771256 0.97096723
4.3973827 5.8952637 -0.39770058 0.97096813
4.5439062 5.7825489 -0.39767721 0.97096974
4.6875 5.6662207 -0.39765456 0.97097141
4.828125 5.5463181 -0.39763266 0.97097307
4.8973045 5.4850388 -0.39762205 0.97097391
5.0333591 5.3599806 -0.39760131 0.97097528
5.1001954 5.2961717 -0.39759123 0.970976
5.1662107 5.2315331 -0.39758131 0.97097671
5.2958202 5.0998144 -0.39756218 0.97097796
5.4220114 4.9648728 -0.39754376 0.97097945
4.6625586 3.6638086 -0.32065344 0.9765259
4.7866797 3.6649609 -0.32599154 0.97613955
1.2589452 0.89073241 -0.083392754 0.99384129
1.2592578 0.84426755 -0.081979752 0.99394518
1.2596093 0.77734375 -0.080039099 0.99408823
1.2597656 0.75573242 -0.079436831 0.99413246
1.2598633 0.73443359 -0.078855969 0.99417531
1.2599609 0.7134375 -0.078295551 0.99421662
1.3307421 0.70995116 -0.081559293 0.99397629
1.4608008 0.70997071 -0.087826535 0.99351484
1.5593164 0.70997071 -0.092646517 0.99316013
1.6127148 0.70996094 -0.095283657 0.99296629
1.7293359 0.70997071 -0.10108601 0.99253947
1.7931249 0.70996094 -0.10428616 0.99230427
1.8611327 0.70997071 -0.10771347 0.99205232
1.933789 0.70996094 -0.11139186 0.99178195
2.0241406 0.71440428 -0.1160717 0.99143827
2.0241601 0.65768552 -0.115088 0.99151051
8.8959761 2.5240331 -0.50003433 0.96363521
8.9563665 2.2996192 -0.50002301 0.9636361
8.9844723 2.1868651 -0.5000177 0.96363646
9.0111713 2.0737793 -0.50001276 0.9636367
9.0364447 1.960371 -0.50000799 0.96363699
9.0826559 1.7326269 -0.49999937 0.96363777
9.1232224 1.5038086 -0.49999183 0.96363819
9.1732616 1.1588769 -0.4999826 0.96363884
9.1993942 0.92796874 -0.49997783 0.9636392
9.2103119 0.81230468 -0.49997589 0.96363926
9.2277145 0.58057618 -0.49997279 0.96363962
9.2393551 0.34848633 -0.49997079 0.9636398
9.2451954 -0.1161914 -0.49997017 0.9636398
9.2393942 -0.34846678 -0.49997154 0.96363962
9.2342968 -0.46455076 -0.49997264 0.96363956
9.2277346 -0.58055663 -0.49997401 0.96363956
9.2103119 -0.81225586 -0.49997759 0.96363926
9.1993942 -0.92794919 -0.49997982 0.9636392
9.1732807 -1.1588477 -0.49998507 0.96363878
9.1232815 -1.5037793 -0.49999502 0.96363801
9.0827732 -1.7326171 -0.50000304 0.96363735
9.0603514 -1.846621 -0.50000745 0.96363711
9.0112495 -2.0737598 -0.50001711 0.96363646
8.9564648 -2.2996192 -0.50002789 0.96363574
8.8960743 -2.5240233 -0.50003964 0.96363485
8.8637495 -2.6356347 -0.50004601 0.96363443
8.8300781 -2.7468457 -0.50005257 0.96363389
2.0241406 -0.68592775 -0.11556858 0.99147522
1.9337499 -0.70994139 -0.11139137 0.99178213
1.8611327 -0.70992184 -0.10771305 0.99205238
1.7931249 -0.70994139 -0.104286 0.99230427
1.7293359 -0.70992184 -0.10108558 0.99253953
1.6692969 -0.70995116 -0.098090932 0.99275976
1.2599609 -0.71341795 -0.078295633 0.99421668
1.2598828 -0.73440427 -0.078856044 0.99417531
1.259375 -0.82158202 -0.081309699 0.99399465
1.2592187 -0.84423828 -0.081979714 0.99394542
1.2589452 -0.89070308 -0.083392754 0.99384135
1.2586719 -0.93883789 -0.084909283 0.99372959
6.2791014 -4.8076758 -0.42763832 0.96881723
5.3603907 -5.0337009 -0.39763048 0.97097319
5.2968359 -5.1008301 -0.39764273 0.97097242
5.1013474 -5.2973633 -0.39768043 0.9709695
5.0345311 -5.3611913 -0.39769331 0.97096872
4.6887302 -5.6677051 -0.39775997 0.9709639
4.545156 -5.7841306 -0.39778763 0.97096193
4.4722657 -5.8409958 -0.39780167 0.97096092
4.3986716 -5.8969431 -0.39781582 0.9709599
4.2493944 -6.0060349 -0.39784458 0.97095788
4.0974216 -6.1113868 -0.39787382 0.97095573
3.9428515 -6.2128906 -0.39790356 0.97095358
3.8646288 -6.2621875 -0.39791861 0.97095245
3.7857811 -6.3104882 -0.39793381 0.97095138
3.5456445 -6.4494433 -0.39797994 0.9709481
3.3004296 -6.5792675 -0.39802715 0.9709447
2.9661326 -6.7378902 -0.39809144 0.97094011
2.8814061 -6.7749023 -0.39810768 0.97093886
2.7961328 -6.8108497 -0.39812407 0.97093773
2.6242969 -6.8795409 -0.39815712 0.97093534
2.5377343 -6.9122753 -0.39817375 0.97093415
2.3634374 -6.9744434 -0.39820719 0.97093177
2.2757421 -7.0038867 -0.39822409 0.97093052
2.0991797 -7.059453 -0.39825797 0.97092813
1.921289 -7.1106052 -0.39829215 0.97092557
1.8318359 -7.1344628 -0.39830932 0.9709245
1.7421484 -7.1572461 -0.39832655 0.97092319
1.6521094 -7.1788864 -0.39834383 0.97092193
1.5618359 -7.1993847 -0.39836115 0.97092074
1.408164 -6.9089551 -0.38128179 0.97214997
1.2341992 -6.9427929 -0.38131523 0.97214746
1.1468945 -6.9580369 -0.38133198 0.97214633
0.97175777 -6.9852734 -0.38136557 0.97214395
0.79599607 -7.0081153 -0.3813993 0.9721415
0.70789063 -7.0178809 -0.3814162 0.97214025
0.53136718 -7.034111 -0.38145009 0.97213769
0.44255859 -7.0344529 -0.38113996 0.97216022
0.27783203 -7.3661718 -0.39860755 0.97090298
0.092656247 -7.3714938 -0.39864308 0.97090042
0 -7.3724117 -0.39866081 0.97089911
-0.092636719 -7.372148 -0.39867857 0.97089785
-0.27789062 -7.368154 -0.3987141 0.97089529
-0.37046874 -7.3644137 -0.39873183 0.97089398
-0.55546874 -7.3534079 -0.39876732 0.97089154
-0.64785153 -7.3461914 -0.39878505 0.97089016
-0.74015623 -7.3377929 -0.3988027 0.97088891
-0.83234376 -7.3282418 -0.39882037 0.97088766
-0.92441404 -7.3175292 -0.39883804 0.97088635
-1.0163281 -7.3056641 -0.39885566 0.9708851
-1.108125 -7.2926269 -0.39887321 0.97088385
-1.2911328 -7.2630954 -0.39890829 0.9708814
-1.3823438 -7.2466407 -0.39892578 0.97088003
-1.4733593 -7.2290039 -0.39894322 0.97087884
-1.5641601 -7.2102342 -0.39896056 0.97087759
-1.6547265 -7.1903124 -0.39897791 0.97087634
-2.0142577 -7.0993357 -0.39904678 0.97087133
-2.1922264 -7.04707 -0.39908081 0.97086889
-2.4565625 -6.9603319 -0.39913145 0.97086525
-2.5439453 -6.9291797 -0.39914817 0.97086412
-2.6309373 -6.8969626 -0.3991648 0.97086287
-2.7175 -6.8636618 -0.39918137 0.97086161
-2.8036523 -6.829248 -0.39919785 0.97086042
-2.889375 -6.7937403 -0.39921424 0.97085929
-3.0594335 -6.7195311 -0.39924675 0.97085696
-3.1437304 -6.68082 -0.39926291 0.97085589
-3.2275782 -6.6410446 -0.39927894 0.97085476
-3.4760156 -6.5154881 -0.39932644 0.97085118
-3.5577343 -6.4715233 -0.39934203 0.97085017
-3.6389453 -6.4265623 -0.39935759 0.97084898
-3.7195506 -6.3805661 -0.39937299 0.9708479
-3.7995703 -6.3335743 -0.39938825 0.97084683
-3.8790038 -6.2855368 -0.39940345 0.97084582
-3.9578514 -6.2365527 -0.3994185 0.97084463
-4.1135936 -6.1355762 -0.39944831 0.9708426
-4.1905665 -6.0836325 -0.39946297 0.97084141
-4.342422 -5.9768457 -0.399492 0.97083932
-4.5650783 -5.8095603 -0.39953452 0.97083628
-4.7813282 -5.6339355 -0.3995758 0.97083324
-4.921699 -5.512373 -0.39960256 0.97083139
-4.9907422 -5.450254 -0.39961573 0.9708305
-5.0590234 -5.3872948 -0.39962876 0.97082949
-5.2589841 -5.1933007 -0.39966691 0.97082669
-5.3881249 -5.0598044 -0.39969152 0.97082508
-1.0286719 -0.94193357 -0.075423963 0.99442834
-1.0288281 -0.9185937 -0.074583702 0.99449021
-1.0290234 -0.89574218 -0.073773421 0.99454981
-1.0292969 -0.85151362 -0.072237931 0.99466306
-1.0294532 -0.83006835 -0.071510158 0.99471658
-1.0297265 -0.78843749 -0.07013046 0.99481827
-1.0298437 -0.76818359 -0.069476433 0.99486655
-1.03 -0.74833006 -0.068845026 0.99491298
-1.0589062 -0.70993161 -0.068938255 0.99490613
-1.0882031 -0.70993161 -0.070260771 0.99480873
-1.1503711 -0.70992184 -0.07309971 0.99459958
-1.1834179 -0.70993161 -0.074624978 0.99448705
-1.2178515 -0.70991212 -0.07622768 0.99436903
-1.2537891 -0.70992184 -0.077913433 0.99424493
-1.3307031 -0.70994139 -0.081558645 0.99397641
-1.3719921 -0.70993161 -0.083532907 0.99383092
-1.4152343 -0.70994139 -0.085619047 0.99367756
-1.4607421 -0.70993161 -0.087826192 0.99351513
-1.5087109 -0.70992184 -0.090164639 0.99334294
-1.5592773 -0.70992184 -0.092645794 0.99316037
-1.6692773 -0.70993161 -0.098090857 0.99275982
-1.7292968 -0.70992184 -0.10108547 0.99253964
-1.7878516 -0.70787108 -0.10398158 0.9923268
-1.7877929 -0.68197262 -0.10347007 0.99236435
-8.7791014 -3.0984862 -0.50342947 0.96339303
-8.9242182 -2.6536424 -0.50345683 0.96339095
-8.9882812 -2.4285839 -0.50346887 0.96339017
-9.0993357 -1.9739746 -0.50348967 0.96338868
-9.1234961 -1.8595117 -0.5034942 0.96338832
-9.2057028 -1.3988086 -0.50350946 0.96338719
-9.2226171 -1.2830077 -0.50351256 0.96338695
-9.2645311 -0.93451172 -0.50352025 0.96338654
-9.2851954 -0.70138669 -0.50352395 0.96338612
-9.3050976 -0.35092774 -0.5035274 0.96338588
-9.3087692 -0.23396485 -0.503528 0.96338588
-8.8522463 0.22254883 -0.5034399 0.96514457
-8.848711 0.33375975 -0.50343919 0.96514475
-8.8374805 0.55600584 -0.50343674 0.96514493
-8.8297653 0.66703123 -0.50343513 0.96514505
-8.8101559 0.88870114 -0.50343114 0.96514529
-8.7849607 1.1098242 -0.50342613 0.96514559
-8.7702541 1.2201074 -0.50342315 0.96514583
-8.754199 1.3302051 -0.50342 0.96514595
-8.7367382 1.4400976 -0.50341648 0.96514618
-8.7178516 1.5497656 -0.50341278 0.96514654
-8.6976366 1.6591797 -0.50340879 0.96514678
-8.6530466 1.8771973 -0.50339997 0.96514732
-8.6287107 1.9857714 -0.5033952 0.96514761
-8.5758591 2.2019141 -0.50338483 0.96514851
-8.5176363 2.4167187 -0.50337344 0.96514916
-8.3850393 2.8414745 -0.50334758 0.96515089
-8.3485546 2.9465625 -0.50334048 0.96515137
-1.7885547 0.65667969 -0.10832427 0.99239558
-1.7886719 0.68232423 -0.10883995 0.9923594
-1.7887499 0.7082324 -0.10937835 0.99232179
-1.6692969 0.70997071 -0.10313182 0.99275863
-1.5592968 0.70996094 -0.097407341 0.99315917
-1.4607812 0.70995116 -0.092339739 0.993514
-1.4152734 0.70997071 -0.090019375 0.99367636
-1.3719921 0.70996094 -0.087826304 0.99382991
-1.2914063 0.70995116 -0.083783835 0.99411315
-1.1833984 0.70997071 -0.078460351 0.99448621
-1.1503906 0.70995116 -0.076856419 0.99459863
-1.0294141 0.72835934 -0.071694337 0.99496049
-1.0290234 0.78792965 -0.073683739 0.99482089
-1.0288867 0.80850583 -0.074395403 0.99477106
-1.0287499 0.8295117 -0.075132519 0.99471939
-1.0285742 0.85093749 -0.075896531 0.99466592
-1.0280859 0.91795897 -0.078359179 0.99449325
-6.2944531 6.2158885 -0.5029431 0.96517831
-6.2156639 6.2942967 -0.5029279 0.96517932
-6.1358981 6.3717089 -0.50291252 0.9651804
-6.0551171 6.4481053 -0.50289696 0.96518153
-5.9734569 6.5234861 -0.50288123 0.96518254
-5.89082 6.5978026 -0.50286531 0.96518368
-5.7227926 6.7433395 -0.50283295 0.96518582
-5.5511327 6.8845606 -0.50279987 0.96518815
-5.3760157 7.0214157 -0.50276613 0.96519047
-5.1975389 7.1538281 -0.50273174 0.96519268
-5.0157423 7.2816892 -0.50269681 0.96519506
-4.547832 7.5808883 -0.50260675 0.9652012
-4.4520311 7.6371579 -0.50258833 0.96520251
-4.2583985 7.7460351 -0.50255108 0.96520507
-4.1605468 7.7986426 -0.50253224 0.96520638
-3.9629686 7.9001465 -0.50249428 0.96520889
-3.8632421 7.9490232 -0.50247508 0.9652102
-3.5604687 8.0880365 -0.50241691 0.96521419
-2.6971092 7.0705371 -0.43023711 0.97013617
-2.4193749 6.5898728 -0.39910987 0.97226667
-2.3362501 6.6195016 -0.3990939 0.97226775
-2.2528124 6.6480174 -0.39907536 0.972269
-2.1689844 6.675488 -0.39905539 0.97227031
-1.9155468 6.7514844 -0.39899531 0.97227442
-1.659453 6.8177929 -0.39893076 0.97227877
-1.5735742 6.8377051 -0.39890873 0.97228038
-1.1259961 5.9026756 -0.34164062 0.9762122
-0.98429686 5.9716797 -0.34409216 0.97604352
-0.99582028 6.5537109 -0.37687823 0.973791
-0.87898433 6.9579782 -0.39872825 0.97229266
-0.52812499 6.9916892 -0.39863572 0.97229916
-0.17613281 7.0077538 -0.39854205 0.9723056
-0.088085935 7.0090332 -0.39851844 0.97230703
0.17611328 7.0061622 -0.39845064 0.97231179
0.35212889 6.9989257 -0.39841691 0.97231412
0.52785152 6.9872851 -0.39838326 0.97231638
0.79074216 6.9618063 -0.39834723 0.97231883
0.87812495 6.9511328 -0.3983371 0.97231954
1.2261523 6.8973923 -0.39828885 0.97232282
1.3126757 6.8811326 -0.39827079 0.97232407
1.485039 6.8453612 -0.39823496 0.97232652
1.9115429 6.7371774 -0.39815059 0.9723323
2.080039 6.6864648 -0.39811829 0.97233456
2.1638281 6.6595311 -0.39810234 0.97233564
2.2472656 6.6315622 -0.39808646 0.97233665
2.3303125 6.602529 -0.39807075 0.97233778
2.6587305 6.4761524 -0.39801133 0.97234178
2.8204296 6.406826 -0.39798287 0.9723438
2.9803123 6.3334961 -0.39795485 0.97234565
3.0595703 6.2953219 -0.39794123 0.9723466
3.2943358 6.1748829 -0.39790118 0.97234946
3.3715429 6.132822 -0.39788812 0.9723503
3.4482617 6.0897851 -0.39787522 0.97235107
3.524375 6.0457711 -0.39786243 0.97235203
3.5999608 6.0008202 -0.3978498 0.97235286
3.6749609 5.9549022 -0.39783731 0.97235382
3.7493749 5.9080858 -0.397825 0.97235459
3.8232031 5.8602929 -0.39781284 0.97235554
3.8964453 5.8116503 -0.39780083 0.9723562
3.9690235 5.7620215 -0.397789 0.97235721
4.1123438 5.6601562 -0.39776576 0.97235864
4.3910546 5.4457617 -0.39772132 0.97236174
4.4590235 5.390029 -0.39771065 0.9723624
4.5928125 5.2759862 -0.39768976 0.97236389
4.6586328 5.2177048 -0.3976796 0.97236466
4.7880468 5.0987501 -0.39765984 0.97236592
4.8516016 5.0380468 -0.39765024 0.97236669
4.9144335 4.9765821 -0.39764082 0.97236723
5.0981641 4.7874804 -0.39761373 0.97236913
5.2166405 4.6576657 -0.39759657 0.97237027
4.6419921 3.7429199 -0.3390075 0.97639257
1.2578125 0.93822265 -0.089211881 0.99373281
1.2579687 0.91397458 -0.088401712 0.99378955
1.2582617 0.86672848 -0.08686474 0.99389726
1.2583984 0.84370112 -0.086135902 0.9939484
1.2585547 0.82108396 -0.08543247 0.99399751
1.2586914 0.79878902 -0.084753454 0.99404514
1.2590625 0.73397458 -0.082856022 0.99417806
1.2591797 0.71299803 -0.082267605 0.9942193
1.2914257 0.70996094 -0.083783984 0.99411303
1.3719921 0.70997071 -0.087826386 0.99382991
1.4152734 0.70997071 -0.090019569 0.99367636
1.6693358 0.70995116 -0.10313221 0.99275851
1.7293359 0.70997071 -0.10628086 0.99253827
1.8611327 0.70997071 -0.11324883 0.99205106
1.933789 0.70996094 -0.11711597 0.9917807
2.0240819 0.71437496 -0.12203231 0.9914372
8.399765 2.6130469 -0.5001294 0.96536976
8.431797 2.5072362 -0.50012338 0.9653703
8.4625587 2.4010644 -0.50011754 0.96537066
8.5200386 2.187578 -0.50010675 0.96537137
8.5467768 2.080332 -0.50010175 0.96537167
8.5721483 1.9727539 -0.50009698 0.96537209
8.5962105 1.8648731 -0.50009251 0.96537226
8.618906 1.7566797 -0.50008827 0.9653725
8.6401949 1.6482226 -0.50008428 0.96537292
8.6601562 1.5395117 -0.50008059 0.96537316
8.6787891 1.4305567 -0.50007713 0.96537328
8.6960154 1.3213769 -0.50007397 0.96537358
8.711875 1.2119824 -0.50007099 0.96537375
8.7394924 0.99266601 -0.50006592 0.96537411
8.7512503 0.88275391 -0.50006384 0.96537423
8.7616405 0.77271485 -0.50006193 0.96537429
8.778203 0.55230469 -0.50005901 0.96537459
8.7844534 0.44194335 -0.50005794 0.96537459
8.7927732 0.22104491 -0.50005656 0.96537465
8.7948437 0.11054687 -0.50005627 0.96537471
8.7948046 -0.11051758 -0.50005651 0.96537483
8.7927341 -0.22101562 -0.50005704 0.96537477
8.7892971 -0.33149412 -0.50005782 0.96537465
8.7844534 -0.44190428 -0.50005883 0.96537459
8.7782421 -0.55225587 -0.5000602 0.96537447
8.7706251 -0.66252929 -0.50006175 0.96537441
8.7395315 -0.99263668 -0.50006807 0.96537399
8.6960545 -1.3213378 -0.50007671 0.9653734
8.6788082 -1.4305273 -0.50008017 0.96537322
8.618926 -1.7566699 -0.50009197 0.96537244
8.5962496 -1.8648437 -0.50009644 0.96537215
8.4920311 -2.2944825 -0.50011688 0.96537077
8.4319143 -2.5072362 -0.50012869 0.96536988
8.3998432 -2.6130176 -0.50013489 0.96536946
2.0241015 -0.65765625 -0.12099777 0.99150944
2.0240819 -0.68587887 -0.1215036 0.99147421
2.0240624 -0.71437496 -0.12203213 0.99143732
1.7293359 -0.70992184 -0.10628036 0.99253839
1.6692969 -0.70995116 -0.10313182 0.99275863
1.4607812 -0.70993161 -0.09233959 0.993514
1.4152734 -0.70994139 -0.090019226 0.99367642
1.3719921 -0.70993161 -0.087825999 0.99382997
1.3307421 -0.70994139 -0.085750237 0.9939754
1.2914063 -0.70992184 -0.08378353 0.99411315
1.2590625 -0.73394531 -0.082855985 0.99417812
1.2589452 -0.75523436 -0.083466105 0.99413538
1.2586914 -0.79874998 -0.084753491 0.9940452
1.2585351 -0.82103515 -0.08543247 0.99399769
1.2582812 -0.86668944 -0.086864851 0.99389732
6.2791014 -4.8076563 -0.44961515 0.96881253
6.1157813 -4.8056931 -0.44220817 0.96931827
5.8045702 -4.8019629 -0.42830077 0.97026873
5.6561913 -4.8001561 -0.42176819 0.97071546
5.5134764 -4.7995214 -0.41559198 0.97113812
5.3779297 -4.8016405 -0.40988937 0.97152835
5.0385938 -4.852129 -0.39769199 0.97236371
4.7890038 -5.0997458 -0.39774013 0.97236055
4.7247267 -5.1596875 -0.39775252 0.9723596
4.5938282 -5.2771387 -0.39777774 0.97235793
4.3921094 -5.4470701 -0.3978166 0.97235519
4.0421095 -5.7130566 -0.39788398 0.9723506
3.6760547 -5.9566407 -0.39795446 0.97234583
3.6010351 -6.0025778 -0.39796889 0.97234488
3.4492967 -6.0916309 -0.39799803 0.97234285
3.2953711 -6.176836 -0.39802769 0.97234082
3.217617 -6.2180076 -0.39804262 0.97233975
3.0605664 -6.2973728 -0.39807284 0.97233772
2.981328 -6.3355856 -0.39808807 0.97233659
2.9016016 -6.3727832 -0.39810339 0.97233558
2.8213866 -6.4090037 -0.39811882 0.9723345
2.7407031 -6.4441991 -0.39813429 0.97233349
2.4961717 -6.5436816 -0.39818129 0.97233033
2.2480469 -6.6339159 -0.39822897 0.97232699
2.0807812 -6.6888571 -0.3982611 0.97232479
1.8274609 -6.76333 -0.39830977 0.97232151
1.7423828 -6.7860546 -0.3983261 0.97232038
1.6570312 -6.8076658 -0.39834252 0.97231936
1.5714452 -6.8282518 -0.39835891 0.97231811
1.0908593 -6.618125 -0.38134235 0.97348481
1.0076562 -6.6316013 -0.38135833 0.97348368
0.84076172 -6.6553807 -0.38139033 0.97348154
0.75710934 -6.6657028 -0.3814064 0.9734804
0.58890623 -6.6774411 -0.38111153 0.97350067
0.35226563 -7.0020213 -0.39859289 0.97230202
0.26425782 -7.0061817 -0.39860976 0.97230089
0.17623046 -7.0092478 -0.39862663 0.97229975
-0.17623046 -7.0104198 -0.39869422 0.97229517
-0.26429686 -7.0079684 -0.39871112 0.97229397
-0.44035155 -6.9996872 -0.39874485 0.97229171
-0.52832031 -6.993906 -0.39876175 0.97229052
-0.61619139 -6.9870114 -0.39877856 0.97228938
-0.70396483 -6.9790134 -0.3987954 0.97228819
-0.96664059 -6.9483981 -0.39884573 0.97228473
-1.2279882 -6.9078903 -0.3988958 0.97228134
-1.3147266 -6.8921971 -0.39891243 0.9722802
-1.401289 -6.8754196 -0.39892897 0.97227907
-1.4876562 -6.8575487 -0.39894554 0.97227794
-1.830664 -6.7752538 -0.39901122 0.97227341
-2.0005078 -6.7276754 -0.39904371 0.97227114
-2.2528906 -6.6482811 -0.39909205 0.97226793
-2.3363476 -6.6197262 -0.39910799 0.97226679
-2.4194531 -6.5901074 -0.39912391 0.97226572
-2.5021875 -6.559453 -0.39913979 0.97226453
-2.5844922 -6.5277343 -0.3991555 0.97226357
-2.6664257 -6.4949999 -0.39917117 0.9722625
-2.8290234 -6.426445 -0.39920226 0.97226036
-2.9096875 -6.390625 -0.39921767 0.97225928
-2.9898632 -6.3537989 -0.39923304 0.97225827
-3.148828 -6.2771482 -0.39926344 0.97225612
-3.2275782 -6.2372947 -0.39927849 0.97225517
-3.3058202 -6.1964941 -0.39929342 0.9722541
-3.3835547 -6.1546874 -0.39930832 0.97225308
-3.4607615 -6.1119041 -0.39932308 0.97225213
-3.5374217 -6.0681739 -0.39933771 0.97225106
-3.6890624 -5.9777732 -0.39936671 0.97224915
-3.7640233 -5.9311619 -0.39938101 0.97224814
-3.8383985 -5.8836131 -0.39939526 0.97224712
-3.9121678 -5.8351073 -0.39940932 0.97224623
-4.1297264 -5.6841211 -0.3994509 0.97224331
-4.2009764 -5.6319628 -0.39946449 0.97224241
-4.3414645 -5.5250001 -0.39949134 0.97224057
-4.4107423 -5.4701853 -0.39950454 0.97223955
-4.7462497 -5.1832519 -0.39956856 0.97223526
-5.0012889 -4.938838 -0.39961722 0.97223192
-5.0631056 -4.8757615 -0.39962903 0.97223109
-1.0279101 -0.94124997 -0.079241067 0.99443156
-1.0284179 -0.87278318 -0.076688081 0.99461049
-1.0288867 -0.80847657 -0.074395254 0.99477118
-1.0290234 -0.78788084 -0.073683962 0.99482101
-1.0291601 -0.76767576 -0.072997019 0.99486917
-1.0294141 -0.7283203 -0.071694143 0.99496055
-1.030625 -0.70993161 -0.071153104 0.99499857
-1.0589062 -0.70993161 -0.072481036 0.99490529
-1.1503711 -0.70992184 -0.076856114 0.99459875
-1.2178515 -0.70991212 -0.080144919 0.9943682
-1.2537891 -0.70992184 -0.08191742 0.99424404
-1.2913867 -0.70993161 -0.083783261 0.99411321
-1.3307421 -0.70994139 -0.085750312 0.9939754
-1.4607812 -0.70993161 -0.092339434 0.993514
-1.5087109 -0.70992184 -0.094798051 0.99334192
-1.5592773 -0.70992184 -0.097406767 0.99315929
-1.7292968 -0.70992184 -0.10628033 0.99253851
-1.7885938 -0.65664059 -0.10832424 0.99239546
-8.3486719 -2.9465625 -0.5033468 0.96515095
-8.4202929 -2.7359178 -0.50336027 0.96515006
-8.4541016 -2.6299024 -0.50336665 0.9651497
-8.5177736 -2.4167089 -0.50337863 0.96514869
-8.5475388 -2.3094823 -0.50338423 0.96514845
-8.6531057 -1.8771777 -0.50340402 0.96514714
-8.6976948 -1.6591699 -0.50341231 0.96514654
-8.7179298 -1.5497363 -0.50341606 0.9651463
-8.8298044 -0.66699219 -0.50343663 0.96514487
-8.8374996 -0.55598634 -0.50343794 0.96514487
-8.8487501 -0.33373046 -0.50343984 0.96514457
-8.8522263 -0.22251953 -0.50344044 0.96514463
-8.4349213 0.31816405 -0.50335979 0.96674198
-8.430234 0.42413086 -0.50335884 0.96674204
-8.4242182 0.53003907 -0.50335753 0.96674216
-8.408164 0.74154294 -0.50335425 0.96674246
-8.3981638 0.84714842 -0.50335222 0.96674252
-8.2483978 1.7894336 -0.50332254 0.96674448
-8.2251759 1.8929199 -0.50331795 0.96674484
-8.1477728 2.2015038 -0.50330275 0.96674573
-8.1193752 2.3037012 -0.50329721 0.96674603
-8.0896873 2.4055274 -0.50329143 0.96674645
-8.0264845 2.6079881 -0.50327909 0.96674728
-7.9582028 2.808789 -0.50326574 0.96674812
-1.789414 0.65698242 -0.11367553 0.99239069
-1.7895117 0.68264645 -0.11421695 0.99235457
-1.7896093 0.70858395 -0.11478199 0.99231684
-1.6692969 0.70997071 -0.10817455 0.99275744
-1.6127343 0.70996094 -0.10507831 0.99296397
-1.5592773 0.70996094 -0.10216983 0.99315816
-1.2913672 0.70997071 -0.087880209 0.99411225
-1.2178515 0.70996094 -0.084064253 0.99436718
-1.1503906 0.70995116 -0.080614433 0.99459773
-1.028457 0.76718748 -0.076514013 0.99487174
-1.0283203 0.78738278 -0.077233538 0.99482363
-1.028164 0.80794919 -0.077978663 0.99477386
-1.0273438 0.91728514 -0.082130469 0.99449635
-1.0271484 0.94057614 -0.083054081 0.99443471
-6.074492 5.8497558 -0.50290132 0.96677184
-6.000371 5.9254684 -0.50288701 0.96677262
-5.8492188 6.0740137 -0.50285786 0.96677458
-5.7722263 6.1468649 -0.50284302 0.9667756
-5.5359764 6.3594728 -0.50279754 0.96677852
-5.4554687 6.428359 -0.50278199 0.96677941
-5.3741016 6.496201 -0.50276631 0.96678042
-5.2918553 6.5629883 -0.50275052 0.96678162
-5.0402536 6.7571387 -0.50270206 0.96678472
-4.9548044 6.8197069 -0.50268561 0.96678573
-4.8685155 6.8812203 -0.50266898 0.96678686
-4.7815232 6.9416208 -0.50265223 0.96678787
-4.693789 7.0009179 -0.50263536 0.96678895
-4.6052341 7.0591211 -0.50261831 0.96679014
-4.5160155 7.1161718 -0.50260115 0.96679127
-4.3355079 7.2269039 -0.5025664 0.96679348
-4.0595899 7.3844137 -0.50251335 0.96679693
-3.8724608 7.4835644 -0.50247735 0.96679926
-3.7779882 7.5313768 -0.50245917 0.96680039
-3.5872459 7.6233687 -0.50242251 0.96680284
-3.3943357 7.7105465 -0.50238544 0.96680516
-3.2970312 7.752285 -0.50236672 0.96680647
-2.3097265 6.2912793 -0.39965561 0.97350228
-2.147578 6.3375387 -0.39903709 0.97354263
-2.0676563 6.3637009 -0.39901787 0.973544
-1.906875 6.4129882 -0.39897716 0.97354668
-1.8260937 6.4361134 -0.3989566 0.973548
-1.7449609 6.4582324 -0.39893591 0.97354931
-1.6635742 6.4792967 -0.39891514 0.97355074
-1.581953 6.4993553 -0.39889422 0.97355205
-1.5000781 6.5183592 -0.39887318 0.97355354
-1.1286328 5.9166698 -0.3591921 0.97615272
-0.54765624 6.2096677 -0.37173986 0.97533
-0.50347656 6.6654391 -0.39861298 0.97357035
-0.41968748 6.6708493 -0.39859071 0.97357184
-0.33580077 6.6752048 -0.39856842 0.97357339
-0.25187498 6.678535 -0.39854607 0.97357482
0.083984375 6.6814451 -0.39846864 0.97357988
0.25183594 6.6767087 -0.39843649 0.97358191
0.3357031 6.6727734 -0.39842182 0.97358286
0.41951171 6.6678514 -0.39841178 0.97358358
0.50326169 6.6618848 -0.3984018 0.97358423
0.58693355 6.6548634 -0.39839187 0.97358489
0.67046875 6.6468067 -0.39838204 0.97358549
0.75394529 6.6376953 -0.39837226 0.97358614
1.0863671 6.5907226 -0.39833033 0.97358894
1.2515625 6.5608006 -0.39829585 0.97359109
1.3338476 6.5442481 -0.39827871 0.97359228
1.4977539 6.5081248 -0.39824504 0.97359443
1.5793359 6.4885154 -0.39822912 0.97359556
1.6607031 6.4679098 -0.39821333 0.97359657
1.7417578 6.446279 -0.39819762 0.97359759
1.8225585 6.4236131 -0.39818197 0.97359866
1.9030468 6.3999805 -0.39816651 0.97359961
1.9832422 6.3752928 -0.39815116 0.97360069
2.1426756 6.3229685 -0.39812079 0.97360259
2.2219141 6.2953124 -0.3981058 0.97360355
2.3792186 6.2370214 -0.39807653 0.97360551
2.4573436 6.2064157 -0.3980625 0.97360641
2.5349998 6.1748438 -0.39804858 0.9736073
2.6123242 6.1422849 -0.39803481 0.9736082
2.7656641 6.0742869 -0.39800787 0.97360998
2.9172461 6.0024705 -0.39798149 0.97361171
2.9923437 5.9651365 -0.39796856 0.97361255
3.1410937 5.8876853 -0.39794323 0.97361422
3.2147655 5.8475585 -0.39793074 0.97361499
3.2878516 5.8065133 -0.39791843 0.97361588
3.3604491 5.7645702 -0.39790624 0.97361666
3.5040624 5.677959 -0.39788231 0.97361821
3.5749998 5.6333203 -0.39787054 0.97361898
3.784492 5.4941111 -0.39783621 0.97362113
3.9211328 5.3969727 -0.3978141 0.97362262
3.9885156 5.3471093 -0.39780322 0.97362339
4.0552735 5.2964354 -0.39779258 0.97362411
4.3158202 5.0854688 -0.39775145 0.97362679
4.3793359 5.0307031 -0.39774162 0.97362733
4.4420314 4.9751368 -0.39773193 0.97362816
4.6261134 4.8038669 -0.39770386 0.97362977
4.6859765 4.745244 -0.39769486 0.97363049
4.8035545 4.6257715 -0.39767742 0.97363156
4.6602149 3.8552442 -0.36067167 0.97605562
4.6399217 3.7412889 -0.35542563 0.97639912
4.7823439 3.6616697 -0.3591828 0.97615343
1.2569531 0.93758786 -0.093510248 0.99373609
1.2571094 0.91334957 -0.092661433 0.99379277
1.2574414 0.86615235 -0.091051482 0.9939003
1.2580078 0.77636719 -0.088153645 0.99409384
1.2914257 0.70996094 -0.087880358 0.99411207
1.3307421 0.70995116 -0.089943312 0.99397439
1.6127148 0.70995116 -0.1050785 0.99296409
1.6693358 0.70995116 -0.10817478 0.99275732
1.7293359 0.70997071 -0.11147739 0.99253708
1.8611327 0.70997071 -0.11878624 0.99204981
1.933789 0.70996094 -0.12284206 0.99177933
2.0240037 0.68587887 -0.12743984 0.99147314
2.0239844 0.65765625 -0.12690963 0.99150854
8.0094137 2.4916112 -0.50020432 0.9669469
8.0693359 2.2894824 -0.50019306 0.96694762
8.0973825 2.1878612 -0.50018781 0.96694797
8.1738472 1.8810742 -0.50017351 0.96694893
8.218359 1.6750391 -0.50016516 0.96694964
8.2919531 1.2599707 -0.50015152 0.96695036
8.333437 0.94654292 -0.50014389 0.96695077
8.3446283 0.841748 -0.5001418 0.96695095
8.3630466 0.63176757 -0.50013852 0.96695137
8.3703518 0.52664059 -0.50013727 0.96695125
8.3762503 0.42140624 -0.5001362 0.96695149
8.3861713 0.10540039 -0.50013465 0.96695149
8.3763084 -0.42137694 -0.50013709 0.96695125
8.3703709 -0.526582 -0.50013834 0.96695119
8.3630857 -0.63174802 -0.50013989 0.96695119
8.3446484 -0.84170896 -0.50014359 0.96695089
8.307148 -1.1556641 -0.50015116 0.9669503
8.275527 -1.3640624 -0.50015742 0.96695012
8.2578125 -1.4679492 -0.50016093 0.96694982
8.2387886 -1.5716113 -0.50016469 0.96694952
8.2184372 -1.6750293 -0.50016874 0.96694934
8.1967964 -1.7781934 -0.50017297 0.96694911
8.1496878 -1.9836524 -0.50018221 0.96694845
8.1242189 -2.0859082 -0.50018722 0.96694803
8.069375 -2.2894628 -0.50019795 0.9669475
8.0400782 -2.390703 -0.50020367 0.96694702
8.0094728 -2.4916015 -0.50020963 0.96694672
2.0240428 -0.6576367 -0.12690948 0.99150836
2.0240037 -0.68585938 -0.12743965 0.99147314
1.9337499 -0.70994139 -0.12284172 0.99177951
1.4152734 -0.70994139 -0.094420396 0.99367541
1.3719921 -0.70993161 -0.092119902 0.99382901
1.2914063 -0.70992184 -0.087879978 0.99411225
1.258164 -0.7547363 -0.087491259 0.99413812
1.257871 -0.79824215 -0.088840023 0.99404812
1.2577343 -0.82050776 -0.089551315 0.99400055
1.2575977 -0.84312499 -0.09028808 0.99395132
1.2574414 -0.86612302 -0.091051407 0.99390036
1.2569531 -0.93754882 -0.093510285 0.99373615
6.2791209 -4.8076658 -0.47159821 0.96880752
6.1157813 -4.8056931 -0.46382958 0.96931338
5.9577146 -4.8037891 -0.45638239 0.96979845
5.8046093 -4.8019433 -0.44924223 0.97026396
5.5122266 -4.7984276 -0.43581185 0.97113997
5.3724217 -4.7967482 -0.42949247 0.97155249
4.9796677 -4.7953415 -0.41225657 0.97267824
4.7391014 -4.7990427 -0.4022052 0.97333556
4.6268749 -4.8046484 -0.39777091 0.97362554
4.380156 -5.0316501 -0.39781845 0.97362244
4.3166795 -5.0864353 -0.39783069 0.97362173
4.2525783 -5.1404686 -0.397843 0.97362077
4.1877732 -5.1936717 -0.39785552 0.97361994
4.1223044 -5.2460351 -0.3978681 0.97361922
4.0561719 -5.2975879 -0.39788085 0.97361839
3.9894531 -5.3483105 -0.3978937 0.97361749
3.9220312 -5.3981934 -0.39790669 0.97361672
3.8540235 -5.4472265 -0.39791977 0.97361583
3.7853906 -5.49542 -0.39793301 0.97361493
3.646328 -5.5891991 -0.39795974 0.9736132
3.4334373 -5.7232323 -0.39800072 0.97361052
3.3613865 -5.7661228 -0.39801461 0.97360963
3.2156639 -5.8491797 -0.39804262 0.97360778
3.1419921 -5.8893456 -0.39805678 0.97360682
2.9932032 -5.9668846 -0.39808539 0.97360498
2.9181249 -6.0042286 -0.39809981 0.97360402
2.8425195 -6.0406442 -0.39811438 0.97360313
2.7664843 -6.0761132 -0.39812896 0.97360218
2.6900001 -6.1106348 -0.39814368 0.97360116
2.6131444 -6.1441894 -0.39815846 0.97360009
2.3799608 -6.2389841 -0.39820328 0.97359735
2.2225976 -6.2973142 -0.39823347 0.97359526
2.1433594 -6.3249707 -0.39824873 0.97359437
1.9839061 -6.3773336 -0.39827937 0.97359234
1.6612109 -6.4699903 -0.39834133 0.97358817
1.5798438 -6.4905858 -0.39835697 0.97358727
1.4982421 -6.5101953 -0.39837265 0.97358614
1.3342578 -6.5463085 -0.39840412 0.97358412
1.2519531 -6.5628319 -0.39841992 0.97358298
1.1602734 -6.5271192 -0.39533728 0.97378486
1.0725781 -6.5070505 -0.39327407 0.97391981
0.98855466 -6.5058203 -0.39241755 0.9739759
0.66572267 -6.5997458 -0.39556339 0.97377008
0.5869531 -6.6552439 -0.39841586 0.9735834
0.50347656 -6.6645703 -0.39856353 0.97357368
0.25195312 -6.6796188 -0.39861178 0.97357059
0.084023438 -6.6843848 -0.39864397 0.97356844
0 -6.6851754 -0.39866009 0.97356743
-0.083984375 -6.6849313 -0.39867619 0.97356629
-0.16802734 -6.6836228 -0.39869231 0.97356522
-0.25195312 -6.6812496 -0.3987084 0.97356421
-0.3359375 -6.6778026 -0.3987245 0.97356325
-0.41984373 -6.6733298 -0.39874056 0.97356218
-0.75472653 -6.6448631 -0.39880478 0.97355801
-0.92156249 -6.6243553 -0.39883673 0.9735558
-1.0047656 -6.6125193 -0.39885268 0.97355473
-1.0878124 -6.5996094 -0.39886859 0.97355384
-1.1707031 -6.5856934 -0.39888451 0.9735527
-1.253418 -6.5707321 -0.39890033 0.97355163
-1.4182616 -6.5376759 -0.39893189 0.9735496
-1.5822656 -6.5004687 -0.39896327 0.97354758
-1.826328 -6.4369822 -0.39901 0.97354448
-1.9071484 -6.4137597 -0.3990255 0.97354352
-1.9876758 -6.3895602 -0.39904091 0.97354239
-2.1477735 -6.3380661 -0.39907157 0.97354048
-2.2273438 -6.3108006 -0.3990868 0.97353953
-2.3065233 -6.2825389 -0.39910194 0.97353864
-2.3853905 -6.2533202 -0.39911705 0.9735375
-2.4638867 -6.2230859 -0.39913204 0.97353649
-2.6196876 -6.159658 -0.39916182 0.97353458
-2.6969922 -6.1264939 -0.39917663 0.97353357
-2.7738671 -6.0923243 -0.39919135 0.97353268
-3.0018358 -5.9841013 -0.39923495 0.97352982
-3.2255859 -5.8673434 -0.39927772 0.97352701
-3.2991991 -5.8265624 -0.39929178 0.973526
-3.3722851 -5.7848339 -0.39930576 0.97352511
-3.4447851 -5.7422071 -0.39931959 0.97352427
-3.5168359 -5.6986618 -0.39933342 0.97352332
-3.6591601 -5.6088672 -0.39936057 0.97352159
-3.7294726 -5.5626268 -0.39937401 0.9735207
-4.204668 -5.2146678 -0.39946476 0.9735148
-4.2700391 -5.161572 -0.39947721 0.97351396
-4.3346677 -5.1076756 -0.39948958 0.97351319
-4.5245314 -4.941123 -0.39952582 0.97351074
-4.5864062 -4.8840036 -0.39953762 0.97350997
-4.7676172 -4.708086 -0.39957216 0.97350776
-4.970664 -4.6677442 -0.40662441 0.97304648
-1.0271484 -0.94054687 -0.083054312 0.99443477
-1.0273438 -0.91725582 -0.082130581 0.99449646
-1.0276953 -0.87214839 -0.080380134 0.99461341
-1.0278516 -0.85031247 -0.079551049 0.99466884
-1.0280077 -0.82890624 -0.078750953 0.99472237
-1.0283203 -0.78733397 -0.077233538 0.99482375
-1.0284766 -0.76714844 -0.07651417 0.9948718
-1.0285938 -0.74730468 -0.07581985 0.99491829
-1.0882031 -0.70993161 -0.07748314 0.99480706
-1.1186719 -0.70994139 -0.079011492 0.9947049
-1.1503711 -0.70992184 -0.080613971 0.99459785
-1.1834179 -0.70993161 -0.082296252 0.99448532
-1.2537891 -0.70992184 -0.085922547 0.99424309
-1.3307421 -0.70994139 -0.089942738 0.99397439
-1.3719921 -0.70993161 -0.092120014 0.99382901
-1.4152343 -0.70994139 -0.094420008 0.99367553
-1.5087109 -0.70992184 -0.099432908 0.99334085
-1.6692578 -0.70994139 -0.10817409 0.99275762
-1.7896289 -0.70855469 -0.11478195 0.99231684
-1.7894921 -0.68263668 -0.11421661 0.99235469
-7.9583201 -2.8088086 -0.50327176 0.9667477
-8.0588284 -2.5069432 -0.50329071 0.96674645
-8.0897846 -2.405498 -0.50329655 0.96674609
-8.1194334 -2.3036914 -0.50330216 0.96674585
-8.1478319 -2.201494 -0.50330746 0.9667455
-8.2007809 -1.9960938 -0.50331742 0.96674472
-8.2484961 -1.789414 -0.50332636 0.96674412
-8.2703905 -1.6856347 -0.50333041 0.96674389
-8.3282032 -1.3727441 -0.50334114 0.96674329
-8.344883 -1.2679882 -0.50334424 0.96674293
-8.3741798 -1.0578907 -0.50334966 0.96674269
-8.3868361 -0.95257813 -0.50335199 0.96674258
-8.4082222 -0.74153316 -0.50335586 0.96674222
-8.4168749 -0.63581055 -0.50335735 0.96674222
-8.4302731 -0.42409179 -0.50335974 0.96674192
-8.4349213 -0.31810546 -0.50336051 0.96674198
-8.4402733 -0.10604492 -0.50336128 0.96674186
-8.0630665 0.10133789 -0.50328875 0.96819907
-8.0477343 0.50632811 -0.50328541 0.96819925
-8.0407028 0.60744137 -0.50328392 0.96819937
-8.0228901 0.80928707 -0.50328028 0.96819943
-8.0119925 0.91003907 -0.50327814 0.96819979
-7.9999218 1.0106446 -0.50327569 0.96819979
-7.9865232 1.1110938 -0.50327301 0.96820009
-7.9718747 1.2113281 -0.50327009 0.96820033
-7.9560156 1.3114258 -0.50326693 0.96820033
-7.9204102 1.5109081 -0.5032599 0.96820086
-7.8798437 1.7094629 -0.50325191 0.96820122
-7.857656 1.8083301 -0.50324756 0.96820158
-7.8342381 1.9069042 -0.50324291 0.96820188
-7.7565622 2.2007616 -0.50322777 0.96820283
-1.7902734 0.65730464 -0.11903347 0.9923858
-1.7904687 0.70890623 -0.1201926 0.99231189
-1.5087109 0.70996094 -0.10407002 0.99333966
-1.4152734 0.70997071 -0.098823465 0.99367428
-1.3719921 0.70996094 -0.096415862 0.99382788
-1.3307421 0.70996094 -0.094137266 0.99397337
-1.2914063 0.70995116 -0.09197811 0.99411118
-1.2537891 0.70996094 -0.089929692 0.99424207
-1.1503906 0.70995116 -0.084373355 0.99459684
-1.0882031 0.70997071 -0.081096686 0.99480611
-1.0279297 0.74684566 -0.079301566 0.99492067
-1.0277538 0.76665038 -0.08002758 0.99487442
-1.0272851 0.82834959 -0.082365304 0.99472511
-1.0271484 0.84975582 -0.083201826 0.99467152
-1.0266016 0.91663086 -0.085897632 0.99449939
-1.0264062 0.93990231 -0.086863056 0.99443775
-5.732461 5.6608982 -0.50283593 0.96822709
-5.6607227 5.7323241 -0.5028221 0.96822792
-5.5880466 5.8028417 -0.50280809 0.96822894
-5.5145311 5.8724313 -0.50279397 0.96822983
-5.3649216 6.0088282 -0.50276512 0.96823156
-4.8152733 6.4555469 -0.5026592 0.96823817
-4.6512499 6.5741014 -0.50262767 0.96824008
-4.5681052 6.6318064 -0.50261164 0.96824116
-4.4842577 6.6884861 -0.50259548 0.96824211
-4.1420116 6.9044333 -0.50252968 0.96824622
-4.0548048 6.9557028 -0.50251287 0.96824723
-3.966953 7.0058689 -0.502496 0.96824825
-3.8784764 7.0549316 -0.50247896 0.96824932
-3.699707 7.1496677 -0.50244462 0.96825147
-3.6094334 7.1953611 -0.50242722 0.96825254
-3.3353124 7.3255076 -0.50237453 0.96825588
-3.2428906 7.3665915 -0.50235677 0.96825695
-2.4437499 6.4062986 -0.42794576 0.97289449
-2.2819531 6.2155857 -0.41325772 0.97381252
-2.0516796 6.0545311 -0.39899361 0.9747048
-1.8987108 6.103652 -0.39895964 0.97470701
-1.8217968 6.126709 -0.39894012 0.97470826
-1.5893164 6.1901364 -0.3988809 0.97471184
-1.354707 6.244668 -0.39882061 0.97471571
-1.1313281 5.9306931 -0.37683302 0.97609288
-1.0540038 5.9292383 -0.37586895 0.97615331
-1.0390234 6.3035645 -0.39873877 0.97472078
-0.62691402 6.2150879 -0.38987535 0.97527564
-0.48105466 6.3681445 -0.3985922 0.9747299
-0.40097654 6.3733201 -0.39857095 0.97473133
-0.080234371 6.3843064 -0.39850047 0.97473568
0 6.3845506 -0.39848509 0.97473669
0.080273435 6.3838282 -0.39847171 0.97473752
0.16044922 6.3821583 -0.39846188 0.97473818
0.24066405 6.3795018 -0.39845213 0.97473872
0.32078123 6.3757911 -0.39844245 0.97473943
0.48085937 6.3654294 -0.39842325 0.97474056
0.56080079 6.3587403 -0.39841381 0.9747411
0.640625 6.3510251 -0.39840439 0.97474176
0.80003905 6.3326173 -0.39838585 0.97474295
0.84123045 6.0469823 -0.38104957 0.97582853
0.91789061 6.0408692 -0.38136202 0.97580904
0.99371094 6.0286427 -0.38134751 0.97580987
1.4446679 5.9353123 -0.38126114 0.9758153
1.6642773 6.1595311 -0.39822555 0.97475284
1.8184179 6.115283 -0.3981958 0.97475481
1.8950585 6.0917578 -0.39818111 0.97475559
1.9713671 6.0672069 -0.39816654 0.97475666
2.0473828 6.041748 -0.39815208 0.97475749
2.123086 6.0153317 -0.39813778 0.97475839
2.1983984 5.9879489 -0.39812353 0.97475934
2.2733984 5.9596481 -0.39810944 0.97476017
2.4961717 5.8691406 -0.39806953 0.97476268
2.9306054 5.6633692 -0.39799353 0.97476739
3.0014453 5.6259079 -0.39798152 0.97476822
3.0718164 5.5875778 -0.39796963 0.974769
3.1416991 5.5483885 -0.39795783 0.97476965
3.2110741 5.5083008 -0.39794621 0.97477043
3.4161327 5.3829002 -0.39791209 0.97477251
3.4833984 5.3393846 -0.397901 0.97477323
3.7468359 5.1570897 -0.39785811 0.97477591
3.81125 5.1094532 -0.39784774 0.97477663
3.9382422 5.011826 -0.39782754 0.97477782
4.1846876 4.807158 -0.39778885 0.9747802
4.3039842 4.7002439 -0.39777049 0.97478139
4.4205079 4.5903907 -0.39775276 0.97478259
4.4777732 4.5343847 -0.39774418 0.97478306
4.645195 4.3621387 -0.39771932 0.97478461
4.7531638 4.2438378 -0.39770371 0.97478563
4.8060155 4.1837111 -0.39769614 0.9747861
4.6378903 3.7396581 -0.37183753 0.97640532
4.7801952 3.6600194 -0.37575924 0.97616005
1.2560937 0.93694335 -0.097804107 0.99373931
1.2564257 0.88894528 -0.09606079 0.99385059
1.2566016 0.86557615 -0.095234185 0.99390334
1.2570703 0.79775387 -0.092922665 0.9940508
1.2573438 0.75429684 -0.091512792 0.99414086
1.2576171 0.71209961 -0.090200305 0.99422455
1.3307421 0.70995116 -0.094137415 0.99397337
1.4152734 0.70997071 -0.098823585 0.99367428
1.4608203 0.70996094 -0.10137092 0.99351168
1.50875 0.70996094 -0.10406993 0.99333954
1.6127148 0.70995116 -0.1099781 0.9929629
1.8611327 0.70997071 -0.1243251 0.99204844
1.9337499 0.70996094 -0.12857051 0.99177814
2.0239062 0.71432614 -0.13395809 0.99143511
2.0239453 0.68585938 -0.13337749 0.99147195
2.0239844 0.6576367 -0.13282268 0.99150711
7.7108593 2.1877735 -0.5002619 0.96838725
7.7376561 2.0906835 -0.5002569 0.96838754
7.7632422 1.9932617 -0.50025207 0.96838784
7.8107615 1.7975194 -0.50024319 0.96838832
7.8909764 1.4027734 -0.50022823 0.96838927
7.9079294 1.3034863 -0.50022507 0.96838945
7.9236326 1.2040136 -0.50022215 0.96838969
7.9380856 1.1043359 -0.50021946 0.96838987
7.9739842 0.80434567 -0.50021291 0.96839023
7.9916406 0.60372066 -0.50020975 0.96839035
7.9985547 0.50323242 -0.50020856 0.96839052
8.0086517 0.30207032 -0.50020683 0.96839058
8.013711 0.10073242 -0.50020605 0.96839058
8.0143557 9.7656248e-06 -0.50020605 0.96839058
8.0136909 -0.10068359 -0.50020629 0.9683907
8.011797 -0.20138672 -0.50020677 0.96839064
8.0086517 -0.30205077 -0.50020748 0.96839058
7.9916406 -0.6036914 -0.50021106 0.96839035
7.9632812 -0.90448242 -0.50021684 0.96839005
7.9513278 -1.0044628 -0.50021923 0.96838993
7.8910155 -1.4027344 -0.50023121 0.96838915
7.8728514 -1.5018066 -0.50023478 0.9683888
7.8533983 -1.6006151 -0.50023866 0.96838862
7.8327341 -1.6991992 -0.50024265 0.96838838
7.8108397 -1.7975 -0.500247 0.96838808
7.7377539 -2.0906835 -0.50026131 0.96838719
7.7109571 -2.1877539 -0.50026655 0.96838689
7.6828904 -2.2845311 -0.50027204 0.96838671
2.0239453 -0.65759766 -0.13282257 0.99150735
2.0239453 -0.68583006 -0.1333773 0.99147201
1.7931249 -0.70994139 -0.12036884 0.99230057
1.6692969 -0.70995116 -0.11321819 0.99275625
1.5592968 -0.70993161 -0.10693367 0.99315697
1.50875 -0.70994139 -0.10406978 0.99333954
1.4608008 -0.70994139 -0.10137051 0.9935118
1.4152734 -0.70994139 -0.098823167 0.99367434
1.3307421 -0.70994139 -0.094137073 0.99397337
1.2914063 -0.70992184 -0.091977805 0.99411124
1.257461 -0.73299801 -0.090844728 0.99418366
1.2573438 -0.75424802 -0.091512643 0.99414092
1.257207 -0.77583981 -0.092205085 0.9940967
1.2567577 -0.84256834 -0.094436072 0.9939543
1.2565625 -0.86554688 -0.095234141 0.99390352
1.2564453 -0.88891602 -0.09606079 0.99385059
1.2562695 -0.91269529 -0.096916921 0.99379599
5.957695 -4.8037987 -0.47766387 0.9697935
5.5122266 -4.7984276 -0.45613316 0.97113514
5.3724608 -4.7967286 -0.44951919 0.97154766
4.9761524 -4.7919626 -0.43117693 0.97269267
4.7292185 -4.7890038 -0.42007926 0.97338605
4.499043 -4.790957 -0.41020039 0.97400367
4.3885937 -4.7926364 -0.40559146 0.97429204
4.1247654 -4.8602929 -0.39786723 0.97477537
4.0634766 -4.9118748 -0.39787903 0.97477472
4.0015626 -4.9627147 -0.39789096 0.97477388
3.9390233 -5.012754 -0.39790303 0.97477311
3.8758202 -5.0620117 -0.39791518 0.97477239
3.747617 -5.1581249 -0.39793986 0.97477084
3.6826172 -5.2049804 -0.39795241 0.97477007
3.6170311 -5.2510056 -0.39796501 0.97476929
3.5508983 -5.2962108 -0.39797774 0.97476846
3.2807226 -5.4686522 -0.39802974 0.97476524
3.1424608 -5.549746 -0.39805633 0.97476357
3.072578 -5.5889745 -0.39806977 0.97476274
3.0022266 -5.6273437 -0.3980833 0.97476184
2.7160547 -5.7718649 -0.39813834 0.97475845
2.4968555 -5.8707614 -0.39818045 0.97475576
2.4229686 -5.901875 -0.39819464 0.97475493
2.3486719 -5.9320507 -0.39820892 0.97475415
2.2740428 -5.9613476 -0.39822325 0.97475308
2.199043 -5.9896579 -0.39823768 0.97475219
1.971953 -6.0689259 -0.39828131 0.97474957
1.8189062 -6.1170311 -0.39831072 0.97474772
1.7420117 -6.1396289 -0.3983255 0.97474676
1.5095117 -6.2016306 -0.39837012 0.9747439
1.4315234 -6.2203221 -0.39838511 0.97474307
1.2748632 -6.2548141 -0.39841521 0.97474116
1.1961719 -6.2705665 -0.39843029 0.97474027
1.1173828 -6.2853708 -0.39844543 0.97473913
1.0383203 -6.2991505 -0.3984606 0.97473824
0.80023438 -6.3345408 -0.39850628 0.97473538
0.72062498 -6.344336 -0.39852157 0.97473443
0.56101561 -6.360918 -0.39855215 0.97473258
0.40097654 -6.3734765 -0.39858288 0.97473073
0.32089844 -6.3782811 -0.39859825 0.97472966
0.24072266 -6.3820605 -0.3986136 0.9747287
-0.24076171 -6.3835349 -0.39870593 0.97472292
-0.48123047 -6.3706541 -0.39875206 0.97472006
-0.56126952 -6.3643456 -0.39876738 0.97471911
-0.72107422 -6.3487496 -0.39879799 0.97471708
-0.80083984 -6.3394237 -0.39881328 0.97471619
-0.88046873 -6.329082 -0.39882854 0.97471529
-1.1975585 -6.2778025 -0.39888927 0.97471148
-1.2763867 -6.2625098 -0.39890441 0.97471046
-1.4334766 -6.2289157 -0.39893448 0.97470862
-1.5896679 -6.1913962 -0.39896438 0.97470677
-1.6674218 -6.1711521 -0.39897925 0.97470582
-1.8990234 -6.104609 -0.39902362 0.97470307
-1.975664 -6.0804882 -0.39903831 0.97470212
-2.0519922 -6.0554099 -0.39905289 0.97470117
-2.2036328 -6.0023532 -0.39908192 0.9746995
-2.2790234 -5.9744139 -0.39909634 0.97469848
-2.4285936 -5.9156737 -0.39912495 0.9746967
-2.5028124 -5.8848925 -0.39913917 0.97469586
-2.8678906 -5.7171192 -0.39920896 0.97469151
-3.0816796 -5.6055565 -0.39924988 0.97468889
-3.1519921 -5.5665817 -0.39926329 0.97468799
-3.2217772 -5.5266991 -0.39927664 0.97468728
-3.2910936 -5.4859667 -0.39928988 0.97468638
-3.629668 -5.2693458 -0.39935455 0.97468227
-3.7611523 -5.1767869 -0.39937967 0.97468078
-3.8902733 -5.0809765 -0.39940438 0.97467923
-3.9539452 -5.031826 -0.39941651 0.97467852
-4.0170116 -4.981904 -0.39942855 0.97467762
-4.0794139 -4.9311523 -0.39944044 0.97467697
-4.1460156 -4.8853712 -0.39992046 0.97464699
-4.2627344 -4.7743359 -0.39947543 0.97467476
-4.3225193 -4.7205176 -0.39948684 0.97467405
-4.6127148 -4.6710353 -0.40973234 0.97403306
-4.7252927 -4.6662693 -0.41448942 0.97373551
-4.8405857 -4.6614356 -0.41943213 0.97342658
-4.9620118 -4.6596384 -0.42484584 0.9730882
-1.026582 -0.91659176 -0.085897826 0.99449956
-1.0267773 -0.8938086 -0.084966585 0.99455899
-1.0269531 -0.87154293 -0.084068224 0.99461633
-1.0273046 -0.82832026 -0.082365379 0.99472511
-1.0274609 -0.80736327 -0.081558265 0.99477667
