# .PCD v0.7 - Point Cloud Data file format
VERSION 0.7
FIELDS x y z intensity
SIZE 4 4 4 4
TYPE F F F F
COUNT 1 1 1 1
WIDTH 1105
HEIGHT 1
VIEWPOINT 0 0 0 1 0 0 0
POINTS 1105
DATA ascii
1.8611327 -0.70997071 0.052436866 0.99206114
1.7931249 -0.70996094 0.050768204 0.99231279
1.6692969 -0.70997071 0.047752608 0.99276775
1.5592968 -0.70997071 0.045101929 0.99316782
1.5087109 -0.70998043 0.043894079 0.99335021
1.4152734 -0.70996094 0.041680947 0.99368435
1.3719921 -0.70997071 0.040665474 0.99383771
1.3307421 -0.70998043 0.039704703 0.99398291
1.2977344 -0.77856445 0.039838865 0.99396276
1.2981836 -0.82387692 0.040474966 0.99386656
1.2986523 -0.87069333 0.041158713 0.99376327
1.2988867 -0.89473629 0.041519128 0.99370879
1.2993749 -0.9440918 0.042280614 0.99359381
16.432909 -12.912831 0.55016392 0.91977495
15.595488 -12.901738 0.53281945 0.92220318
15.196191 -12.896445 0.5246712 0.92334586
12.702656 -12.86333 0.47589937 0.93021643
12.383163 -12.859072 0.46994761 0.93105841
10.896231 -12.839316 0.44329759 0.93483788
10.346719 -12.832031 0.43392733 0.93617016
10.080488 -12.828486 0.42948854 0.93680185
9.8196287 -12.825009 0.42520869 0.93741167
9.5638666 -12.82163 0.42107731 0.93800044
9.3129883 -12.818291 0.41709331 0.93856895
8.5875978 -12.808642 0.40594974 0.94015974
8.1247072 -12.802509 0.39915782 0.94113111
7.4580274 -12.793672 0.38983256 0.94246578
7.2439256 -12.793232 0.38701487 0.94286954
7.0318165 -12.790889 0.38424075 0.94326729
6.6875196 -12.923613 0.38305721 0.94343698
6.4596481 -12.877177 0.37924442 0.94398391
7.2202735 -15.858203 0.45869145 0.93265271
6.3906837 -14.517148 0.41754642 0.93850404
5.440547 -12.792304 0.36593196 0.94589478
5.7302928 -14.473105 0.40977275 0.9396137
5.5198827 -14.470312 0.40769884 0.93991017
7.1614451 -20.290859 0.56643915 0.9175024
7.0738277 -21.771006 0.60260332 0.91247255
6.771328 -21.766972 0.60008997 0.91282135
6.4713082 -21.762987 0.59768826 0.91315424
5.5848045 -21.751211 0.59116185 0.91406089
5.2934179 -21.747343 0.58920056 0.91433322
4.4301171 -21.735878 0.58394718 0.91506356
3.9147265 -22.021807 0.58880508 0.91438901
3.6292577 -22.018017 0.5874325 0.91457903
3.3391991 -21.975664 0.5851385 0.91489822
-6.2250781 -8.7985153 0.28372714 0.95778978
-6.273242 -8.4100485 0.27619618 0.95888644
-6.4376168 -8.4078608 0.27876055 0.95851296
-6.6050777 -8.405654 0.28141627 0.95812607
-1.064414 -0.95036131 0.037563436 0.9943065
-1.0641406 -0.92635739 0.03713955 0.99437052
-1.0635742 -0.87991208 0.036337316 0.99449182
-1.0633203 -0.8574121 0.035957832 0.99454921
-1.0630859 -0.83540034 0.035591658 0.99460453
-1.0628515 -0.81381834 0.035238683 0.99465793
-1.0626172 -0.79266602 0.034898069 0.99470943
-1.0619922 -0.73154294 0.033946954 0.99485326
-1.0882226 -0.70996094 0.034204293 0.99481434
-1.1187109 -0.70997071 0.034878884 0.99471229
-1.1503906 -0.70997071 0.035586279 0.99460536
-1.2178906 -0.70996094 0.037109032 0.99437505
-1.6127343 -0.70997071 0.046385877 0.99297398
-1.7567577 -0.69556642 0.04973812 0.99246812
-1.7569531 -0.6702441 0.049501915 0.99250382
-21.522226 -4.9529881 0.58136886 0.91542226
-21.728397 7.6688766 0.54269409 0.91192853
-1.7613672 0.69735348 0.04461731 0.99244899
-1.6126952 0.70993161 0.041501045 0.9929747
-1.5087304 0.70992184 0.039271545 0.99335074
-1.4607812 0.70993161 0.038253136 0.99352264
-1.4152539 0.70993161 0.03729187 0.99368495
-1.2913867 0.70993161 0.034708403 0.99412107
-1.2537891 0.70993161 0.03393551 0.99425167
-1.1834179 0.70992184 0.032503355 0.9944936
-1.1503906 0.70993161 0.031838875 0.99460584
-1.1186719 0.70992184 0.031205863 0.99471289
-1.0595703 0.72982419 0.030302696 0.99486542
-1.0599219 0.77007812 0.030856933 0.99477172
-1.0603125 0.81182617 0.03145298 0.99467111
-1.0605469 0.83334959 0.031767234 0.99461788
-1.0607617 0.85529298 0.032093313 0.9945628
-1.0612109 0.90059566 0.032781675 0.99444652
-1.0617187 0.94793946 0.033522569 0.99432135
-3.8871875 5.9583201 0.16755645 0.97193664
-3.3248436 5.7034569 0.15548812 0.97393119
-3.2416406 5.7248926 0.15495083 0.9740203
-3.1589844 5.7462106 0.1544403 0.9741047
-3.0784764 5.7703028 0.15403621 0.97417158
-2.8919139 5.9503417 0.15581958 0.97387648
-2.8401952 6.0357227 0.15710892 0.97366327
-2.804004 6.158545 0.15937564 0.97328836
-4.0198436 15.65626 0.38070241 0.93737274
-3.7781639 15.522305 0.3762624 0.93808031
-3.4268749 15.796454 0.38069919 0.93737346
-3.2616601 16.00292 0.38465586 0.93674344
3.0671875 20.185488 0.48087528 0.92155629
3.3345702 20.230097 0.48289621 0.92123967
3.5973046 20.236084 0.48408046 0.92105442
3.861367 20.2421 0.48534778 0.9208563
3.749824 18.398096 0.44222826 0.92762643
3.7947655 17.492344 0.42157146 0.93088758
4.1549997 17.070381 0.41378641 0.93211919
4.5392184 16.799765 0.40986285 0.93274063
4.8548045 14.941513 0.37001818 0.93907571
4.7301364 13.958535 0.34712017 0.94273579
4.7652731 13.50164 0.3372204 0.94432259
5.3426561 13.493964 0.34181818 0.94358516
4.6912498 11.030439 0.28231379 0.95317221
4.6818943 10.635381 0.27368587 0.95457017
4.8386912 10.627373 0.27502298 0.95435339
4.9998631 10.625244 0.27657291 0.95410228
5.1628709 10.623075 0.27818331 0.95384127
4.7484374 9.1762991 0.24334544 0.959503
4.7410936 8.6239939 0.23178691 0.96138906
2.2347655 3.9467285 0.1068227 0.98201662
2.2497656 3.8592772 0.10521278 0.9822852
2.2348046 3.7252147 0.10231598 0.98276877
2.4743359 3.6905272 0.10464966 0.98237926
5.8097849 7.9964352 0.23279491 0.9612242
5.9632225 7.9944043 0.23490031 0.9608807
6.1194334 7.9923143 0.2370798 0.96052504
6.2786522 7.9902048 0.23933712 0.9601565
2.918828 3.6198633 0.1095203 0.98156667
2.9620116 3.5804198 0.10944416 0.98157936
6.7754297 7.983623 0.24662258 0.95896935
6.9478512 7.981318 0.24922611 0.95854491
7.1002927 7.9523926 0.2510902 0.95824152
8.269805 7.963779 0.27040547 0.95510268
8.4776564 7.9610252 0.27390522 0.95453453
8.690937 7.9581933 0.27754429 0.95394474
9.3667574 7.9492283 0.28934887 0.95203406
9.5203123 7.8758688 0.29100955 0.95176524
10.634375 7.9323826 0.3124676 0.94830167
1.2963672 0.94183594 0.037740018 0.99360919
1.2954687 0.8451367 0.036430854 0.99383032
1.295078 0.79921871 0.035843506 0.99392951
1.2949219 0.77681637 0.035565224 0.99397629
1.2945703 0.73300779 0.03503849 0.99406528
1.2943945 0.71158201 0.034789085 0.99410743
1.3307226 0.70993161 0.03552353 0.99398351
1.7931249 0.70993161 0.045422133 0.99231339
1.8611327 0.70994139 0.046914633 0.99206167
1.96875 0.72278321 0.049394418 0.99164385
1.968789 0.69484371 0.049173698 0.99168128
1.9688672 0.66718751 0.048961982 0.9917168
21.605644 6.7211328 0.53292179 0.9134444
22.552813 6.7061133 0.55415452 0.9101544
1.9688672 -0.667207 0.04896225 0.9917168
1.9687109 -0.72282225 0.049394567 0.99164397
1.8611327 -0.70997071 0.046914712 0.99206167
1.7292968 -0.70997071 0.044028241 0.99254835
1.6127343 -0.70997071 0.04150131 0.99297446
1.5592968 -0.70997071 0.040352553 0.99316823
1.5087109 -0.70998043 0.03927166 0.99335068
1.4608008 -0.70996094 0.038253173 0.99352252
1.4152734 -0.70996094 0.037291985 0.99368483
1.3307421 -0.70998043 0.035523567 0.99398333
1.2943945 -0.71161133 0.034789085 0.99410737
1.2949023 -0.77684569 0.035565071 0.99397635
1.295293 -0.82202148 0.036131822 0.99388063
1.2954882 -0.84517574 0.036430702 0.99383014
1.2958984 -0.89267576 0.037061844 0.99372363
1.2963672 -0.94187498 0.037740096 0.99360913
17.415625 -12.990703 0.51172519 0.91673934
16.43289 -12.912842 0.49222842 0.91978031
16.00746 -12.907197 0.48430666 0.92101902
15.595469 -12.901729 0.47671053 0.92220843
14.808788 -12.891279 0.46242076 0.92444944
14.432774 -12.886298 0.45569932 0.92550552
14.067461 -12.881435 0.4492428 0.9265216
13.030371 -12.867665 0.43131679 0.92934757
12.702656 -12.86332 0.42578372 0.93022108
12.071562 -12.854941 0.41533297 0.93187445
11.767402 -12.850898 0.41039118 0.93265694
9.3130074 -12.818291 0.37317073 0.938573
8.5875778 -12.808661 0.36320186 0.94016373
8.1247072 -12.8025 0.35712206 0.94113511
7.8989453 -12.799512 0.3542428 0.94159573
7.6767578 -12.796562 0.35146326 0.9420405
7.4580078 -12.793672 0.34878191 0.94246966
7.2439451 -12.793222 0.34626117 0.94287336
6.822578 -12.788301 0.34137768 0.94365585
6.4596286 -12.877168 0.33930895 0.94398773
6.239531 -12.838476 0.33619639 0.94448698
5.4405274 -12.792295 0.32739413 0.94589847
5.3082418 -14.458476 0.36275524 0.9402349
7.1614451 -20.290859 0.50678873 0.91750789
7.0738277 -21.770996 0.53914773 0.91247833
6.7713084 -21.766972 0.53689623 0.91282713
6.4712887 -21.762987 0.53474987 0.91316003
5.0038867 -21.743515 0.52549875 0.91459656
4.7161717 -21.739706 0.5239315 0.91483986
4.4301171 -21.735878 0.52245587 0.91506916
4.1456251 -21.732109 0.52107346 0.91528434
-6.2248826 -8.5678711 0.24943005 0.95851165
-6.273242 -8.4100685 0.24711201 0.95888919
-6.4376168 -8.4078808 0.24940479 0.9585157
-6.6051168 -8.405654 0.25178218 0.95812881
-1.0614452 -0.92404294 0.033145104 0.994385
-1.0611914 -0.90063477 0.032781754 0.99444652
-1.0609765 -0.87772459 0.03243126 0.9945057
-1.0607617 -0.85531247 0.032093238 0.9945628
-1.0605078 -0.83336914 0.031767309 0.99461794
-1.0603125 -0.81186521 0.031452712 0.99467105
-1.0601171 -0.79078126 0.031149672 0.99472225
-1.0599023 -0.77010739 0.030856971 0.99477172
-1.059746 -0.7497949 0.030574759 0.99481934
-1.0593749 -0.71028316 0.030039825 0.99490976
-1.0882226 -0.70996094 0.030602455 0.99481469
-1.1187109 -0.70997071 0.031205863 0.99471265
-1.2178906 -0.70996094 0.033201482 0.99437547
-1.2538086 -0.70997071 0.03393551 0.99425155
-1.3719921 -0.70998043 0.036383171 0.99383813
-1.4607812 -0.70997071 0.038253136 0.99352258
-1.5087304 -0.70998043 0.039271697 0.99335063
-1.5592968 -0.70996094 0.040352438 0.99316829
-1.7613672 -0.69737303 0.044617347 0.99244899
-21.728437 7.6688867 0.47882938 0.91193354
-1.7648242 0.69871092 0.039444007 0.99243468
-1.7647656 0.72450191 0.039643325 0.99239665
-1.6692969 0.70992184 0.037695885 0.99276876
-1.5592968 0.70994139 0.035603445 0.99316871
-1.5087304 0.70992184 0.034650266 0.9933511
-1.4607812 0.70993161 0.033751257 0.99352306
-1.1503906 0.70993161 0.028092002 0.9946062
-1.1186719 0.70992184 0.027533608 0.99471319
-1.0882422 0.70992184 0.02700096 0.99481505
-1.0588866 0.70994139 0.026492804 0.99491245
-1.0574609 0.76827145 0.027162055 0.99478418
-1.0579883 0.83134764 0.027961463 0.99463111
-1.058789 0.92168945 0.029171409 0.99439949
-14.294551 16.42079 0.45241824 0.91658288
-14.035468 16.538368 0.45096171 0.91687518
-3.6636131 5.7729492 0.14208432 0.97301555
-3.5423241 5.7399802 0.14016655 0.9733749
-3.3309374 5.7139258 0.13744186 0.9738856
-3.2475586 5.7353907 0.13696629 0.97397494
-2.9600389 5.9007616 0.13718539 0.97393376
-2.7863867 6.3295507 0.14371319 0.97271043
-4.0222654 15.665673 0.33610287 0.93734002
-3.7804296 15.531533 0.33217898 0.93804836
-3.2639453 16.014141 0.33962679 0.93670428
3.0730469 20.224131 0.42509562 0.92141682
3.861367 20.242109 0.42822886 0.92086095
4.3483591 16.935663 0.3633498 0.93243569
4.7262301 16.657743 0.35982203 0.93306917
4.8329101 15.535742 0.33810452 0.93697894
4.854785 14.941494 0.3264738 0.9390794
4.7652731 13.50164 0.29753596 0.94432586
4.9560156 13.499102 0.29882923 0.94409084
5.1484375 13.496543 0.30017987 0.94384515
5.3426561 13.493964 0.30159259 0.94358855
4.9752927 12.118886 0.27223599 0.94893688
4.6609373 10.95913 0.24747898 0.95347059
4.6793165 10.629482 0.24134357 0.95459747
4.9998631 10.625224 0.2440256 0.95410508
5.1628709 10.623075 0.24544521 0.95384407
4.7483983 9.1762886 0.21470799 0.95950556
4.7446485 8.8934174 0.20946933 0.96047401
2.233789 3.7235155 0.090233766 0.98277766
2.278203 3.6915917 0.090146936 0.98279411
2.3522656 3.7065625 0.091227107 0.98258972
2.4736719 3.6895115 0.092308879 0.98238504
5.4486718 7.9101071 0.19960132 0.96230036
5.963203 7.9944139 0.20725666 0.96088308
6.1194139 7.9923239 0.20917971 0.96052748
6.2786326 7.9902148 0.21117245 0.96015888
2.918828 3.6198633 0.096630819 0.9815678
2.9620116 3.5804198 0.096564747 0.98158044
6.7754102 7.983623 0.21759708 0.95897186
6.9478707 7.981318 0.21989727 0.95854735
7.1002731 7.9523926 0.22154155 0.95824409
7.2216601 7.8865428 0.2222169 0.95811921
7.4037108 7.8841305 0.22475208 0.95765162
7.8696094 7.9690914 0.23274028 0.95617992
8.0672264 7.966455 0.23560581 0.95565265
8.690937 7.9581738 0.24488132 0.9539476
8.9099998 7.9552636 0.24821727 0.95333505
9.1351557 7.9522753 0.25168628 0.95269859
9.3667965 7.9492087 0.25529522 0.95203686
9.5203123 7.8758593 0.25676173 0.95176816
9.7394533 7.8531151 0.25999081 0.95117682
9.989687 7.8497949 0.26401591 0.95043987
10.634375 7.9323926 0.27569583 0.94830471
1.2929688 0.89059567 0.032625388 0.99373829
1.2927734 0.86671871 0.032343522 0.9937923
1.2922266 0.79745114 0.031555213 0.99394321
1.291914 0.75309569 0.031075325 0.99403501
1.2917774 0.73141599 0.030848121 0.99407846
1.2916015 0.71005857 0.030629195 0.99412042
1.3307421 0.70993161 0.031342849 0.99398381
1.3719921 0.70993161 0.032101516 0.99383861
1.4152734 0.70991212 0.03290325 0.99368531
1.6127148 0.70992184 0.036617089 0.99297506
1.7293164 0.70992184 0.038846664 0.99254882
1.9337499 0.70992184 0.042807084 0.99179232
1.9708399 0.69557613 0.043431435 0.99167311
21.605625 6.7211227 0.47019276 0.91344953
22.552792 6.7061033 0.48894519 0.91015971
1.9708984 -0.66791993 0.043244589 0.99170876
1.9708203 -0.69561523 0.043431509 0.99167311
1.8611327 -0.70997071 0.041393775 0.99206215
1.4152734 -0.70996094 0.03290325 0.99368519
1.2917774 -0.73144531 0.030848045 0.9940784
1.2918946 -0.7531445 0.031075325 0.99403495
1.2920703 -0.77514648 0.031310882 0.99398983
1.2927539 -0.86676759 0.032343522 0.99379224
1.2929296 -0.89063478 0.032625657 0.99373835
1.2933203 -0.93967772 0.033221014 0.99362445
16.872461 -12.918701 0.44159594 0.91849452
16.43289 -12.912842 0.43430233 0.91978502
15.595508 -12.901718 0.42060825 0.92221296
14.432774 -12.886289 0.40207422 0.92550993
14.067461 -12.881426 0.39637598 0.92652595
13.030371 -12.867676 0.38055697 0.92935175
12.702637 -12.86332 0.37567905 0.93022525
12.383183 -12.859081 0.37097895 0.93106705
12.071562 -12.854941 0.36645207 0.93187851
11.767422 -12.850898 0.36209589 0.93266094
11.470351 -12.846943 0.35789371 0.93341565
11.180038 -12.843096 0.35384417 0.93414366
10.896231 -12.839326 0.34993967 0.93484604
9.8196287 -12.825019 0.33566174 0.93741959
9.5638866 -12.821621 0.33240038 0.93800825
9.3130074 -12.818281 0.32925388 0.9385767
9.0667963 -12.81502 0.32621914 0.93912554
8.825058 -12.811816 0.32328755 0.93965548
8.5875778 -12.808652 0.32045817 0.94016731
8.3541994 -12.805566 0.31773174 0.94066137
8.1247072 -12.8025 0.31509548 0.94113857
7.6767578 -12.796562 0.31010097 0.9420439
7.0317578 -12.790723 0.30331814 0.94327509
6.8225389 -12.788252 0.30120158 0.94365942
6.4596286 -12.877148 0.2993784 0.94399112
6.239531 -12.838496 0.2966325 0.94449019
6.6732616 -14.181386 0.32569551 0.93921983
7.2202735 -15.858203 0.36209255 0.93266124
5.440547 -12.792285 0.28887752 0.94590169
7.1980271 -17.533262 0.39386311 0.92697424
5.7408786 -14.499902 0.32407489 0.93951303
5.5300975 -14.497089 0.32243291 0.93980998
7.1614256 -20.2908 0.44714588 0.91751295
7.0738087 -21.770977 0.47569782 0.91248357
6.771328 -21.766972 0.47371647 0.9128322
6.1735935 -21.759024 0.47001588 0.91348249
5.0038867 -21.743496 0.46365482 0.91460168
4.1456637 -21.73209 0.45975024 0.9152894
3.6292577 -22.018026 0.46372432 0.91458964
3.345078 -22.014257 0.46272287 0.91476595
-1.0590234 -0.94555664 0.029502524 0.99433601
-1.0588086 -0.92171872 0.029171409 0.99439937
-1.0585938 -0.8983984 0.028852386 0.99446046
-1.0580078 -0.83137691 0.027961463 0.99463099
-1.0578125 -0.80994141 0.027685432 0.99468392
-1.0574609 -0.768291 0.02716217 0.99478412
-1.0572656 -0.74805665 0.02691452 0.99483168
-1.0571485 -0.72820312 0.026675301 0.99487734
-1.0589062 -0.70998043 0.026492767 0.99491233
-1.1187109 -0.70997071 0.027533531 0.99471295
-1.1503906 -0.70997071 0.02809185 0.99460608
-1.4607812 -0.70997071 0.033751257 0.99352294
-1.5087304 -0.70998043 0.034649964 0.99335104
-1.5592968 -0.70996094 0.035603523 0.99316871
-1.6127343 -0.70997071 0.036617201 0.99297488
-1.6692773 -0.70996094 0.037696227 0.99276876
-1.7648046 -0.69876951 0.039443586 0.99243468
-1.7648437 -0.64795899 0.039068792 0.99250644
-21.521679 -4.9528708 0.45892313 0.9154349
-1.7657031 0.6482324 0.033874433 0.99250329
-1.765664 0.67352539 0.034033697 0.99246824
-1.765625 0.72483397 0.034372788 0.99239337
-1.6692969 0.70992184 0.032668646 0.99276918
-1.6126952 0.70993161 0.03173374 0.99297547
-1.5592968 0.70994139 0.030855369 0.99316907
-1.4152539 0.70993161 0.028514862 0.99368566
-1.2537891 0.70993161 0.025948601 0.99425232
-1.2178515 0.70993161 0.025387306 0.9943763
-1.1834179 0.70992184 0.024853438 0.9944942
-1.0882422 0.70992184 0.023399962 0.99481535
-1.0547071 0.72650391 0.023065109 0.99488944
-1.0548828 0.74630857 0.023271369 0.99484372
-1.0549999 0.7664746 0.023485184 0.99479657
-1.0561719 0.91939449 0.02521801 0.99441361
-1.0563672 0.9431445 0.025503539 0.99435055
-14.294648 16.420908 0.39208284 0.91658658
-3.3370311 5.7243943 0.11933067 0.97383976
-3.2535546 5.7458787 0.11891689 0.97392923
-3.0897851 5.7915235 0.11821693 0.9740808
-3.02791 5.8514061 0.11865322 0.97398639
-2.8554296 6.0681152 0.12077735 0.97352684
-2.8145702 6.3935642 0.12580673 0.97243971
-4.0246873 15.675117 0.29145327 0.9373067
2.4631054 21.685703 0.39305568 0.91638863
2.5485547 20.173691 0.36620167 0.9218716
2.8073437 20.179579 0.36691806 0.9217245
3.0730662 20.22414 0.36840412 0.92142081
3.794785 17.492294 0.32235309 0.93089539
3.9422069 17.130096 0.31656483 0.93209285
4.1648631 17.110868 0.31715059 0.93197131
4.3483591 16.935663 0.31489262 0.93243921
4.55125 16.844208 0.31423151 0.9325763
4.8547654 14.941484 0.28293261 0.93908262
4.9879684 13.075878 0.25203922 0.94554967
4.9814062 12.581562 0.24369922 0.94730324
4.6793165 10.629482 0.20915736 0.95459986
4.8387108 10.627373 0.21029666 0.95435852
5.1628709 10.623075 0.21271212 0.95384645
4.7523437 9.4737206 0.19087887 0.95848405
4.7446485 8.8934078 0.18153286 0.96047616
4.7410936 8.6239748 0.1772335 0.96139348
2.2299609 3.938252 0.081506044 0.98205692
2.2471094 3.8547168 0.080355145 0.98230797
2.2327733 3.7218163 0.078163907 0.98278636
2.3514843 3.7053418 0.079034343 0.98259634
5.4486718 7.9101071 0.17298111 0.96230233
5.6590233 7.9984374 0.17645533 0.96156019
5.8097653 7.9964452 0.17800605 0.96122861
6.1194139 7.9923239 0.18128239 0.96052951
2.961992 3.5804296 0.083686098 0.98158145
7.2216601 7.8865428 0.19258015 0.95812142
7.4037108 7.8841405 0.19477969 0.95765382
7.8695898 7.9690914 0.20170146 0.9561823
8.9099998 7.9552636 0.21511592 0.95333749
9.989687 7.8497949 0.22880481 0.95044249
10.364804 7.9359469 0.23509417 0.94911557
10.634375 7.932373 0.23892696 0.94830745
1.2901562 0.91278321 0.02846241 0.99369729
1.2899804 0.88854492 0.028209915 0.99375302
1.2889843 0.72984374 0.026676331 0.99409151
1.3307421 0.70993161 0.027162705 0.9939841
1.4152734 0.70991212 0.028514899 0.9936856
1.4608008 0.70993161 0.029249877 0.9935233
1.6127148 0.70992184 0.031733587 0.99297541
1.6692969 0.70993161 0.032668725 0.99276912
1.7293164 0.70992184 0.033666153 0.99254924
1.8611327 0.70994139 0.035873145 0.99206263
1.9337499 0.70992184 0.037098311 0.99179274
23.677616 6.7179294 0.44324169 0.90622765
1.9729296 -0.66859376 0.037516136 0.99170071
1.8611327 -0.70997071 0.035873298 0.99206257
1.7931249 -0.70996094 0.034731902 0.99231422
1.7293359 -0.70995116 0.033666153 0.99254912
1.6692969 -0.70997071 0.032668531 0.99276906
1.4608008 -0.70996094 0.029250182 0.99352324
1.3719921 -0.70997071 0.027820243 0.99383885
1.3307421 -0.70998043 0.027162818 0.99398404
1.2914063 -0.70997071 0.026539803 0.99412161
1.2892578 -0.7734375 0.027075615 0.99400324
1.2893749 -0.79572266 0.027286567 0.99395674
1.2895117 -0.81837887 0.027505074 0.99390852
1.29 -0.88859373 0.028209876 0.99375284
1.2901952 -0.91283202 0.028462218 0.99369705
1.2903125 -0.93749022 0.028723754 0.99363959
16.872499 -12.918691 0.38270131 0.91849864
15.595508 -12.901738 0.3645148 0.92221689
15.196172 -12.896445 0.35893992 0.92335945
14.808827 -12.891289 0.35359064 0.92445767
14.432774 -12.886309 0.34845105 0.92551374
13.712304 -12.876719 0.33876514 0.92750746
13.366777 -12.872128 0.3341971 0.9284488
13.030371 -12.867676 0.32980487 0.92935538
12.702676 -12.86332 0.32557613 0.93022877
11.180058 -12.843096 0.30665454 0.93414706
10.080488 -12.828476 0.29382503 0.93681318
9.8196087 -12.825019 0.29089534 0.93742287
9.0667963 -12.81502 0.28271243 0.9391287
8.825078 -12.811816 0.2801716 0.93965858
8.5875778 -12.808652 0.27772105 0.94017041
8.3542185 -12.805566 0.27535686 0.94066447
7.4580469 -12.793642 0.26669672 0.94247609
6.8224998 -12.788183 0.2610313 0.94366264
6.6875 -12.923554 0.26205951 0.94344735
6.4596286 -12.877129 0.25945109 0.9439941
6.6732421 -14.181357 0.28225964 0.93922317
7.2202735 -15.858164 0.31380251 0.93266487
6.3906837 -14.51709 0.28565463 0.93851519
5.4405274 -12.792304 0.25034046 0.94590449
7.1980271 -17.533241 0.34133509 0.92697811
5.7409177 -14.499863 0.28085575 0.93951625
5.3082228 -14.458467 0.27737072 0.94024163
7.1614256 -20.290762 0.38751239 0.91751736
7.1506443 -21.101484 0.40125033 0.91472208
7.0738277 -21.770996 0.41225559 0.91248798
6.771328 -21.766972 0.41053569 0.91283667
6.4712887 -21.762987 0.40889484 0.91316956
5.5847654 -21.751211 0.40442806 0.91407609
5.2933984 -21.747343 0.40308842 0.9143483
5.0038867 -21.743496 0.4018214 0.91460603
4.7161717 -21.739668 0.40061998 0.9148494
4.4301367 -21.735878 0.3994967 0.91507852
4.1456447 -21.73209 0.39843661 0.91529375
3.3450584 -22.014238 0.40101063 0.91477042
-6.2250977 -8.7985249 0.19406338 0.95779729
-6.2249217 -8.5678711 0.19072399 0.95851624
-6.273242 -8.4100685 0.18895458 0.95889378
-6.4376168 -8.4078808 0.19070674 0.95852035
-6.6050777 -8.405654 0.19252484 0.95813358
-1.0563476 -0.94317383 0.025503464 0.99435055
-1.0561719 -0.91941404 0.025218047 0.99441355
-1.055957 -0.89618164 0.024942627 0.99447447
-1.0558203 -0.87345701 0.024677237 0.99453294
-1.0553125 -0.8080371 0.023936385 0.99469668
-1.0548438 -0.74636716 0.023271369 0.99484372
-1.2178906 -0.70996094 0.025387611 0.99437606
-1.2538086 -0.70997071 0.025948754 0.9942522
-1.4152734 -0.70997071 0.028515242 0.99368554
-1.4607812 -0.70997071 0.029250069 0.9935233
-1.5592968 -0.70996094 0.030855292 0.99316907
-1.6127343 -0.70997071 0.031733628 0.99297529
-1.7656446 -0.69909179 0.034199677 0.99243152
-1.7665429 0.64854491 0.028675765 0.99250007
-1.7664648 0.72519529 0.029098053 0.9923901
-1.6692969 0.70992184 0.027642021 0.99276948
-1.5086914 0.70992184 0.025408171 0.99335194
-1.4607812 0.70993161 0.024749259 0.99352366
-1.3719727 0.70994139 0.02353958 0.99383926
-1.2913867 0.70993161 0.022455977 0.99412203
-1.2178515 0.70993161 0.021481056 0.99437654
-1.1503906 0.70993161 0.020599555 0.99460673
-1.1186719 0.70992184 0.020189933 0.99471372
-1.0526953 0.78519529 0.020011825 0.99476004
-1.0528125 0.80608398 0.020205345 0.99470955
-1.0532227 0.87128901 0.020829201 0.99454665
-1.0535156 0.9170996 0.021284675 0.99442786
-14.294726 16.421015 0.33175525 0.9165898
-3.5607812 5.7698827 0.10331787 0.97324073
-3.3432031 5.734961 0.101156 0.97379333
-3.176367 5.7777343 0.10046997 0.97396857
-3.0954688 5.802207 0.10021141 0.97403485
-2.9710155 5.9226952 0.10096954 0.97384077
-2.8631053 6.0844235 0.10246742 0.97345787
-2.8269532 6.2089353 0.10395786 0.97307706
-3.7849219 15.549932 0.24387211 0.93798327
-3.5513279 15.431641 0.24129574 0.93861735
2.4631054 21.685741 0.33257717 0.91639221
2.5533984 20.212255 0.31044513 0.92173171
2.8126953 20.218174 0.31105641 0.92158431
3.0730662 20.224159 0.31171587 0.92142427
3.5973046 20.236103 0.31319582 0.92106658
3.7947655 17.492304 0.27274868 0.93089849
3.9422069 17.130096 0.26785275 0.93209589
4.1648631 17.110868 0.26835018 0.93197435
4.3483396 16.935673 0.2664403 0.93244219
4.8428907 16.286552 0.25891513 0.93428546
4.8548045 14.941484 0.23939967 0.9390853
4.6738281 13.79246 0.22191136 0.94340634
5.0317969 12.708916 0.20828792 0.9467867
5.0255857 12.241513 0.20164585 0.94843882
4.6793165 10.629482 0.17697449 0.95460194
4.9998631 10.625224 0.17893906 0.95410955
4.7410741 8.6239748 0.1499625 0.96139526
2.2286327 3.9359276 0.068923876 0.98206824
2.2457812 3.8524315 0.067951389 0.98231918
2.2764843 3.6887889 0.06605316 0.98280871
2.4160156 3.7033203 0.067378081 0.98246658
2.4723046 3.6875293 0.067654721 0.9823963
5.6590233 7.9984469 0.14930111 0.96156192
5.8097653 7.9964547 0.15061687 0.96123034
6.119453 7.9923534 0.15338673 0.96053112
2.9188085 3.619873 0.070858113 0.98156959
2.961992 3.5804296 0.070809439 0.98158228
7.1002927 7.952373 0.16245277 0.9582482
7.5900192 7.88166 0.16673648 0.95717084
8.690937 7.9581738 0.17956741 0.95395207
9.5202732 7.8758397 0.18827884 0.95177299
9.7394533 7.8531051 0.19064732 0.95118159
1.2873437 0.93528318 0.024247855 0.99365455
1.2870703 0.88654298 0.023814734 0.99376738
1.2869335 0.86279297 0.023609962 0.99382091
1.2865624 0.79394531 0.023037033 0.99397027
1.2864063 0.77171874 0.022859458 0.99401677
1.286289 0.74984372 0.022688178 0.99406141
1.2862109 0.72828126 0.022523079 0.99410444
1.3307421 0.70993161 0.022983169 0.9939844
1.4152734 0.70991212 0.024127388 0.9936859
1.4608008 0.70993161 0.024749527 0.9935236
1.5087109 0.70993161 0.025407981 0.99335182
1.8611327 0.70994139 0.030353202 0.99206299
1.9337499 0.70992184 0.031389769 0.9917931
20.714491 6.7305274 0.33189449 0.916556
21.598164 6.7187891 0.34467152 0.91348636
22.552753 6.7061033 0.35852954 0.91016841
1.9749414 -0.69705075 0.03191372 0.99165666
1.9337695 -0.70998043 0.031389847 0.99179298
1.8611327 -0.70997071 0.030353354 0.99206293
1.6127343 -0.70997071 0.026850814 0.99297559
1.5087109 -0.70998043 0.025408363 0.99335176
1.2914063 -0.70997071 0.022456169 0.99412185
1.2862109 -0.72831053 0.022522964 0.99410439
1.2863085 -0.74987304 0.022688178 0.99406129
1.2864063 -0.77175778 0.022859229 0.99401665
1.2865429 -0.79399413 0.02303711 0.99397022
1.2866796 -0.81657225 0.023221245 0.99392217
1.2867968 -0.83950192 0.023412017 0.9938724
1.2869335 -0.86283201 0.023609923 0.99382079
1.2873437 -0.93532223 0.024247512 0.99365449
16.0075 -12.907207 0.31334186 0.92103112
15.595508 -12.901738 0.30842739 0.92222035
14.808827 -12.891289 0.29918164 0.92446101
14.432774 -12.886309 0.29483256 0.92551708
14.067461 -12.881445 0.29065615 0.92653298
13.366757 -12.872138 0.28277439 0.92845201
12.702656 -12.86331 0.27547771 0.93023199
12.383183 -12.859062 0.27203465 0.93107373
11.767422 -12.850879 0.26551709 0.93266743
11.180058 -12.843085 0.25946787 0.93415004
10.89625 -12.839316 0.25660685 0.9348523
10.618515 -12.835644 0.25384426 0.93553019
10.346699 -12.832031 0.2511819 0.93618441
10.080468 -12.828496 0.24861424 0.93681598
9.8196087 -12.825039 0.24613537 0.93742561
9.0667963 -12.815039 0.23921001 0.93913138
8.8250389 -12.811835 0.23706341 0.93966132
8.3541794 -12.805566 0.23298587 0.94066715
8.1246872 -12.802519 0.23105595 0.94114429
7.6767969 -12.796572 0.22739169 0.94204944
7.4580469 -12.793662 0.22565685 0.94247866
6.4126563 -12.783535 0.21793468 0.94439214
6.395 -13.590137 0.22887111 0.94168419
6.3899608 -14.034531 0.23498477 0.9401741
6.3846483 -14.503447 0.24147174 0.93857396
5.4405079 -12.792304 0.21182269 0.94590694
7.1980271 -17.533241 0.28881413 0.92698133
5.7408981 -14.499883 0.23763706 0.93951893
5.5300779 -14.497089 0.23643467 0.93981582
5.3082032 -14.458467 0.2346883 0.94024432
7.1614256 -20.290722 0.32788554 0.91752112
7.0738087 -21.771015 0.34882152 0.9124918
6.7713084 -21.766993 0.34736651 0.91284049
5.8781247 -21.755136 0.34339404 0.91379267
5.0039258 -21.743496 0.33999103 0.91460979
3.914746 -22.021816 0.3408311 0.91440779
-6.2250977 -8.7985249 0.16421981 0.9577992
-6.2249217 -8.5678806 0.16137688 0.95851809
-6.4376168 -8.4078808 0.16136295 0.95852226
-1.0532031 -0.87130857 0.020829277 0.99454671
-1.0530859 -0.84913087 0.020613899 0.99460286
-1.0529492 -0.82742184 0.020405846 0.9946571
-1.0527734 -0.80613279 0.020205421 0.99470955
-1.0524414 -0.74463868 0.01964527 0.99485576
-1.0523242 -0.72488278 0.019471627 0.99490112
-1.0589062 -0.70998043 0.019426575 0.9949128
-1.0882226 -0.70996094 0.019799538 0.99481553
-1.1503906 -0.70997071 0.020599479 0.99460661
-1.2538086 -0.70997071 0.021955833 0.99425244
-1.2913867 -0.70996094 0.022456169 0.99412197
-1.3307226 -0.70998043 0.022983359 0.99398434
-1.4607812 -0.70997071 0.024749335 0.9935236
-1.5087109 -0.70996094 0.0254084 0.99335176
-1.6127343 -0.70997071 0.026850814 0.99297559
-1.6692773 -0.70996094 0.027642135 0.99276948
-1.7665234 -0.67387694 0.028810691 0.9924649
-21.589746 7.6199317 0.28543949 0.91248184
-1.7673827 0.64885741 0.023472404 0.99249679
-1.7673047 0.72552735 0.023818322 0.99238682
-1.5086914 0.70992184 0.020787964 0.99335217
-1.2537891 0.70993161 0.017963294 0.9942528
-1.2178515 0.70993161 0.017575035 0.99437678
-1.1503906 0.70994139 0.016853599 0.99460691
-1.1186913 0.70993161 0.016518822 0.99471384
-1.0882422 0.70993161 0.016199036 0.99481571
-1.0589062 0.70995116 0.015894203 0.9949131
-1.0502343 0.78336912 0.016334763 0.99477243
-1.0504297 0.8254199 0.016655616 0.99467009
-1.0508984 0.91481441 0.017371025 0.99444187
-1.0510547 0.93839842 0.017566642 0.9943794
-3.7196484 5.8611913 0.086546168 0.97261244
-3.4507227 5.7520118 0.083627276 0.97352397
-3.349375 5.7455468 0.082913473 0.97374654
-3.2654881 5.7670016 0.082625233 0.9738369
-3.1012499 5.8129296 0.082139432 0.97398835
-2.8708594 6.1008201 0.084061198 0.97338825
-2.834707 6.2259278 0.085287057 0.97300535
-2.8726561 6.5254588 0.088888779 0.97188157
-3.746953 15.394013 0.19752483 0.9385879
2.4812694 21.845547 0.27408573 0.91580588
2.5533984 20.212275 0.25399446 0.92173451
3.5973046 20.236113 0.25624606 0.92106944
3.8614061 20.242128 0.25691187 0.92087132
3.7498436 18.398075 0.23409663 0.92764038
3.9422069 17.130087 0.21914952 0.93209839
4.7262497 16.657734 0.2158739 0.93307811
4.8428516 16.286512 0.21183254 0.93428808
4.832871 15.535654 0.20284389 0.93698776
4.8548045 14.941484 0.19586666 0.93908757
4.6316795 13.668008 0.17991981 0.94390446
4.7652731 13.50164 0.17850409 0.94433337
4.9560156 13.499102 0.1792818 0.94409835
5.0317969 12.708897 0.17041226 0.94678873
4.679297 10.629492 0.14479278 0.95460361
4.8387108 10.627382 0.14558037 0.95436221
4.7483983 9.17626 0.12881275 0.9595111
4.7446485 8.8933983 0.12566943 0.96047944
4.7410545 8.6239548 0.12269371 0.96139681
2.2444532 3.8501561 0.055562094 0.9823302
2.2307422 3.7184472 0.054061089 0.98280323
2.275625 3.6874022 0.05402134 0.9828158
2.4152343 3.70208 0.055107001 0.98247296
2.4716797 3.686543 0.055332411 0.98240155
5.8097653 7.9964547 0.12322708 0.96123177
6.119453 7.9923534 0.12549533 0.96053261
6.9478512 7.981328 0.13192715 0.95855296
7.1002731 7.9523826 0.13291153 0.95824975
7.2216797 7.8865523 0.13331932 0.95812482
7.4037304 7.8841305 0.13483872 0.95765728
7.8695703 7.9691014 0.13963284 0.95618594
8.0672264 7.9664841 0.14135063 0.95565856
8.2698431 7.9637694 0.14313583 0.95511138
8.4776173 7.9610152 0.14499016 0.95454353
9.3667574 7.9492188 0.15316452 0.95204341
9.5202732 7.8758397 0.154043 0.95177478
9.989687 7.8497849 0.15839553 0.95044661
10.364843 7.9359469 0.16274802 0.94911963
10.634395 7.932373 0.16540252 0.94831169
1.2842773 0.90861326 0.019613227 0.99372649
1.283789 0.81471676 0.01895649 0.99393606
1.2835156 0.74822265 0.0185223 0.99407446
1.2834375 0.72668946 0.018387947 0.99411738
1.3719921 0.70993161 0.019259032 0.99383944
1.4152734 0.70991212 0.019740028 0.99368614
1.5592773 0.70993161 0.021360092 0.99316978
1.7931249 0.70993161 0.024043655 0.99231488
1.9769921 0.69774413 0.026137732 0.99164838
20.714491 6.7305174 0.27154398 0.9165591
21.598202 6.7187986 0.2819984 0.9134894
22.552734 6.7061133 0.29333958 0.91017175
1.8611327 -0.70997071 0.024834175 0.99206322
1.7931249 -0.70996094 0.02404396 0.99231482
1.7293359 -0.70995116 0.023305969 0.99254972
1.6692969 -0.70997071 0.022615509 0.99276966
1.6127343 -0.70997071 0.021968001 0.99297589
1.4152734 -0.70996094 0.019740028 0.99368608
1.3719921 -0.70997071 0.019259071 0.99383938
1.2914063 -0.70997071 0.018372841 0.99412209
1.2836132 -0.77006835 0.018661957 0.99402988
1.283711 -0.7922461 0.0188068 0.99398369
1.2838086 -0.81475586 0.018956374 0.99393588
1.2840234 -0.86088866 0.01927311 0.99383497
1.2841406 -0.88455075 0.019440306 0.99378169
1.2842773 -0.90865231 0.019613227 0.99372637
16.432909 -12.912842 0.26055607 0.91979557
16.007519 -12.907197 0.25636294 0.92103398
15.595488 -12.901748 0.25234219 0.92222327
14.432774 -12.886298 0.24122119 0.92551982
14.067461 -12.881435 0.23780246 0.92653567
13.366757 -12.872138 0.23135386 0.92845464
13.030371 -12.867685 0.22831394 0.9293611
12.702676 -12.86331 0.22538616 0.93023449
12.071523 -12.854941 0.21985324 0.93188769
11.767383 -12.850898 0.2172385 0.93267
11.470351 -12.846952 0.21471538 0.93342447
11.180038 -12.843105 0.2122874 0.93415242
10.34668 -12.832031 0.20550831 0.93618685
9.8196087 -12.825029 0.20137912 0.93742794
9.5638666 -12.82163 0.19942218 0.93801653
9.0667963 -12.815029 0.19571292 0.93913364
8.825058 -12.811807 0.19395344 0.93966359
8.5875978 -12.808661 0.19225918 0.94017524
8.3541794 -12.805556 0.19062077 0.94066942
7.8989453 -12.799512 0.18751499 0.94160706
7.0317187 -12.790664 0.18197422 0.94328302
6.8224802 -12.788144 0.18070461 0.94366747
6.6161523 -12.785742 0.179481 0.94403785
6.4126563 -12.783535 0.17830402 0.94439423
6.2395506 -12.838476 0.1779436 0.9444977
6.395 -13.590107 0.18725246 0.94168645
5.7408981 -14.499883 0.19442585 0.93952119
5.3082228 -14.458476 0.19202502 0.94024652
7.161406 -20.290722 0.26826426 0.91752416
6.771328 -21.766953 0.28420079 0.91284376
5.8781247 -21.755117 0.28095019 0.91379595
5.584785 -21.751211 0.27997485 0.914083
5.2933788 -21.747343 0.27904543 0.91435522
4.7161717 -21.739687 0.2773383 0.9148562
4.1456251 -21.73209 0.27582094 0.91530061
3.9147265 -22.021816 0.27885586 0.91441095
3.3450389 -22.014257 0.27760953 0.91477722
-6.2249022 -8.5678902 0.13203511 0.9585197
-1.0506641 -0.86919922 0.017000275 0.99456
-1.0504297 -0.82542968 0.016655503 0.99467009
-1.0500195 -0.74291015 0.016036224 0.9948678
-1.0882422 -0.70995116 0.016199226 0.99481571
-1.1187109 -0.70997071 0.016518746 0.99471366
-1.1503906 -0.70996094 0.016853675 0.99460685
-1.3307226 -0.70998043 0.018804206 0.99398458
-1.3719921 -0.70998043 0.0192593 0.99383932
-1.4607812 -0.70997071 0.020249138 0.99352384
-1.5087109 -0.70996094 0.020788193 0.99335206
-1.6127343 -0.70997071 0.021968231 0.99297589
-1.6692773 -0.70996094 0.022615585 0.99276978
-1.7673047 -0.72557616 0.023818016 0.9923867
-1.7673827 -0.67418945 0.023582878 0.99246156
-22.516367 7.6301465 0.23052654 0.90928137
-1.7682226 0.67448241 0.018350754 0.99245822
-1.768164 0.70005858 0.018440094 0.99242169
-1.768164 0.72588867 0.018533973 0.99238336
-1.6692969 0.70992184 0.01758953 0.99276996
-1.5592968 0.70994139 0.016613044 0.9931699
-1.5087109 0.70993161 0.016168136 0.99335229
-1.4607812 0.70994139 0.015748786 0.99352413
-1.4152734 0.70994139 0.015353012 0.99368632
-1.2913867 0.70994139 0.014289474 0.99412239
-1.2178515 0.70994139 0.013668938 0.9943769
-1.1834375 0.70993161 0.013381805 0.99449474
-1.1186913 0.70993161 0.01284748 0.99471402
-1.0589062 0.70995116 0.012361946 0.99491322
-1.0476172 0.74120116 0.012443581 0.99487966
-1.0477734 0.78155273 0.012675056 0.99478477
-1.0478516 0.80230469 0.012796859 0.99473476
-1.0479492 0.823457 0.012923241 0.99468285
-1.048125 0.86708003 0.013190193 0.99457335
-1.0482031 0.8895703 0.013330993 0.99451566
-1.0484179 0.9360742 0.013628578 0.99439353
-3.7510741 5.9107714 0.067883566 0.97238493
-3.579453 5.800127 0.066089131 0.97310418
-3.2715235 5.7776365 0.064381443 0.97379005
-3.1880078 5.798955 0.064167254 0.97387606
-3.0447459 5.8840036 0.064241067 0.97384644
-2.8785937 6.1173143 0.065555841 0.9733181
-2.8425 6.2430077 0.066514015 0.97293311
-3.7528515 15.418222 0.15386948 0.93849617
-3.4116406 15.726386 0.15603787 0.93765634
2.4834571 21.864853 0.21338573 0.91573715
2.5534179 20.212362 0.19754978 0.92173654
2.8126757 20.218086 0.19793293 0.92158985
3.0730469 20.224091 0.19835438 0.92142969
3.3345702 20.230127 0.19880977 0.92125696
3.7947655 17.492256 0.17356034 0.93090326
3.9422069 17.130077 0.17044319 0.93210047
4.1648827 17.11084 0.17075947 0.931979
4.3483591 16.935673 0.16955146 0.93244672
4.55125 16.844208 0.16918869 0.93258381
4.832871 15.535615 0.15776302 0.93698972
4.5903125 13.545791 0.13868412 0.94439346
4.7652731 13.501621 0.13883422 0.9443351
5.0384178 13.208164 0.13707596 0.94502044
4.5349607 11.046426 0.11578769 0.95335633
4.5260935 10.642138 0.11213783 0.95479304
5.1628513 10.623066 0.11452778 0.9538517
4.7523437 9.4736814 0.10277183 0.95848882
4.7446289 8.8933783 0.097740285 0.96048075
4.7410545 8.6239548 0.095426865 0.96139795
2.243125 3.8478906 0.043188322 0.98234105
2.2297461 3.7167382 0.042027816 0.98281151
2.2747459 3.6859863 0.042000007 0.98282284
2.3491797 3.7016895 0.042511825 0.98261529
2.4144139 3.7008398 0.042847212 0.98247933
5.4486718 7.9100976 0.093135871 0.96230662
5.6590233 7.9984469 0.095007591 0.96156454
5.8097653 7.9964352 0.095841594 0.96123302
6.119453 7.9923339 0.097605474 0.96053386
6.7753906 7.983613 0.10153328 0.95897871
6.9478512 7.981328 0.10260639 0.95855421
7.1002536 7.952373 0.10337391 0.95825112
7.2216406 7.8865333 0.10369022 0.95812625
7.8695703 7.9690819 0.10860046 0.95618731
8.4776564 7.9610152 0.11276726 0.95454478
8.9099998 7.9552536 0.11582249 0.9533428
9.3667574 7.9492188 0.11912575 0.95204484
9.7394724 7.8531346 0.12131546 0.95118475
10.634375 7.9323826 0.1286428 0.94831324
1.2814062 0.93099606 0.015358314 0.99368411
1.2811328 0.85892576 0.01495636 0.99384904
1.2914063 0.70993161 0.01428955 0.99412233
1.3307421 0.70993161 0.014624938 0.99398482
1.5087109 0.70993161 0.016168099 0.99335229
1.6127148 0.70992184 0.017085914 0.99297625
1.6692969 0.70993161 0.01758953 0.99276996
1.7931249 0.70993161 0.018700104 0.99231511
1.8611327 0.70994139 0.01931469 0.99206352
1.9337499 0.70992184 0.01997444 0.99179369
1.9790233 0.698457 0.020349845 0.99164009
22.552773 6.7061033 0.22814441 0.91017425
23.669413 6.7155957 0.23856968 0.90626884
24.436445 3.3995116 0.23923182 0.90602195
1.9790624 -0.67067379 0.020261994 0.99167597
1.9790233 -0.69850582 0.020349961 0.99164003
1.9337695 -0.70998043 0.01997444 0.99179351
1.8611327 -0.70997071 0.019315071 0.99206346
1.7293359 -0.70995116 0.018126449 0.99254996
1.5592968 -0.70997071 0.016613159 0.99316984
1.5087109 -0.70997071 0.016168099 0.99335223
1.4607812 -0.70996094 0.015748825 0.99352407
1.4152539 -0.70996094 0.01535305 0.99368632
1.3307226 -0.70997071 0.014625053 0.99398482
1.2914063 -0.70996094 0.014289589 0.99412227
1.2806835 -0.72518551 0.014270821 0.99413002
1.2807422 -0.74662107 0.014374771 0.99408734
1.2808007 -0.76838863 0.01448307 0.99404311
1.2812109 -0.88255858 0.015085601 0.99379599
16.87248 -12.918672 0.2060551 0.91850775
16.432909 -12.912851 0.20265147 0.91979796
16.007481 -12.907207 0.1993877 0.92103642
15.196152 -12.896425 0.19326098 0.92336804
14.808808 -12.891289 0.19038105 0.92446607
14.432793 -12.886289 0.18761364 0.92552197
14.067461 -12.881445 0.18495472 0.92653787
13.712285 -12.876719 0.18239643 0.92751557
13.366777 -12.872128 0.179939 0.92845672
13.030371 -12.867676 0.17757259 0.92936325
12.071562 -12.854921 0.1709922 0.93188965
10.618554 -12.835644 0.16152942 0.93553442
10.080507 -12.828496 0.15820163 0.93682009
9.8196087 -12.825029 0.1566238 0.93742979
9.5638866 -12.821611 0.15510406 0.93801838
9.3130074 -12.818291 0.15363544 0.93858671
9.0667963 -12.81502 0.15221694 0.93913549
8.825058 -12.811796 0.1508501 0.93966544
8.1246872 -12.8025 0.147029 0.94114828
7.8989453 -12.799512 0.14584064 0.94160879
7.6767969 -12.796562 0.14469627 0.94205332
7.2439451 -12.793222 0.14255676 0.94288611
7.0317187 -12.790645 0.14153126 0.94328475
6.4126563 -12.783535 0.13867752 0.9443959
6.2395701 -12.838457 0.13840763 0.94449937
6.3949804 -13.590077 0.14563835 0.94168836
6.3899412 -14.034492 0.14952861 0.94017828
6.3846288 -14.503359 0.15365577 0.93857837
5.440547 -12.792275 0.1348011 0.94591063
5.7408981 -14.499873 0.15121773 0.93952304
7.1613865 -20.290684 0.20864445 0.91752678
6.4712887 -21.762987 0.22015834 0.9131791
5.8781247 -21.755117 0.21851322 0.91379845
5.0039062 -21.743515 0.21634738 0.91461533
4.7161717 -21.739677 0.21570446 0.91485876
4.1456251 -21.7321 0.21452892 0.91530305
3.9147265 -22.021816 0.21688198 0.91441345
-6.2250977 -8.7985353 0.10450637 0.95780206
-6.2249413 -8.5679007 0.1026907 0.95852083
-6.2732029 -8.410058 0.10173672 0.95889854
-6.4376168 -8.4078903 0.10268082 0.958525
-1.0483984 -0.93609375 0.013628387 0.99439353
-1.0480273 -0.84505856 0.013054237 0.99462909
-1.0479296 -0.82348633 0.012923202 0.99468285
-1.0477734 -0.78156251 0.012675056 0.99478477
-1.0476953 -0.76120114 0.012557258 0.99483305
-1.0476172 -0.74122071 0.012443733 0.9948796
-1.047539 -0.721582 0.012334213 0.9949246
-1.0882422 -0.70995116 0.012599068 0.99481583
-1.1187109 -0.70997071 0.012847404 0.99471384
-1.1503906 -0.70996094 0.013108101 0.99460703
-1.2178515 -0.70995116 0.013669014 0.9943769
-1.2913867 -0.70996094 0.014289589 0.99412233
-1.3307421 -0.70998043 0.014624824 0.9939847
-1.3719727 -0.70995116 0.014979057 0.99383962
-1.415293 -0.70996094 0.015353241 0.9936862
-1.4607812 -0.70996094 0.015748786 0.99352407
-1.5087109 -0.70995116 0.016168213 0.99335223
-1.7681836 -0.70008785 0.018440437 0.99242157
-21.45793 -4.9382029 0.21350467 0.9156881
-23.517109 7.6412206 0.17126198 0.90582258
-22.516367 7.630156 0.16465774 0.90928334
-21.589766 7.6199317 0.15857288 0.91248631
-1.7690625 0.64947265 0.013052101 0.99249011
-1.769043 0.67482418 0.013113708 0.99245489
-1.7690234 0.72623044 0.013244667 0.99237984
-1.5592968 0.70994139 0.011866111 0.99317002
-1.4607812 0.70994139 0.011248893 0.99352425
-1.3719921 0.70993161 0.010699081 0.99383974
-1.3307226 0.70995116 0.01044609 0.993985
-1.2913867 0.70994139 0.010206452 0.99412251
-1.2538086 0.70994139 0.0099792099 0.99425304
-1.2178515 0.70994139 0.0097634504 0.99437702
-1.1503906 0.70994139 0.0093628308 0.99460721
-1.0454687 0.73967773 0.0088699339 0.99489027
-1.0454687 0.75958008 0.008950348 0.99484414
-1.0455078 0.77984375 0.0090336222 0.99479622
-1.0455273 0.80048823 0.0091199875 0.99474663
-1.0455469 0.84302735 0.009302292 0.99464196
-1.0455859 0.86497068 0.0093986131 0.99458659
-1.0456445 0.8874023 0.0094987489 0.99452913
-1.0457031 0.9103027 0.0096026994 0.99446958
-14.295 16.421318 0.15079318 0.91659564
-14.035605 16.538486 0.15039818 0.91688985
-3.7831054 5.9611816 0.048899841 0.97215325
-3.3617773 5.7668161 0.046231687 0.97365206
-3.277539 5.7883105 0.046070594 0.9737429
-3.0504491 5.8949413 0.045970649 0.97379899
-2.9244335 6.0173044 0.046337165 0.97359306
-2.8503125 6.2601562 0.047641333 0.9728604
-4.0344138 15.712958 0.11235885 0.9371686
-3.75875 15.442461 0.11007709 0.9384039
-3.5740623 15.53038 0.11037567 0.9382425
-3.4130077 15.732577 0.11149845 0.93763393
2.4856446 21.88413 0.15254726 0.91566795
2.5533984 20.21245 0.14110385 0.92173791
3.3345702 20.230097 0.14200523 0.92125881
3.5973437 20.236122 0.14235179 0.92107344
3.7498436 18.398085 0.13004802 0.92764407
3.7947655 17.492275 0.12397052 0.93090469
4.1648827 17.11084 0.12197059 0.93198049
4.3483591 16.935682 0.12111423 0.93244815
4.55125 16.844208 0.12084679 0.9325853
4.7262497 16.657734 0.1199255 0.93308163
4.8328514 15.535585 0.11268688 0.93699127
4.5761328 13.504121 0.098752975 0.944561
4.7652731 13.501621 0.09916649 0.94433635
5.0384178 13.208144 0.097909085 0.94502169
5.0317774 12.708838 0.094669759 0.94679177
4.5013866 10.964609 0.082090721 0.95369464
4.5216212 10.631592 0.080018654 0.9548378
4.679297 10.629482 0.080437161 0.95460606
4.8386912 10.627373 0.080875888 0.95436472
4.9998436 10.625224 0.081331134 0.95411372
5.1628513 10.623075 0.081804387 0.95385271
4.7523241 9.4736814 0.073407665 0.95848984
4.741035 8.6239452 0.068161584 0.9613989
2.2418358 3.8456347 0.030830383 0.98235166
2.2287109 3.7150488 0.030006027 0.98281974
2.2739062 3.6845996 0.029988442 0.98282963
2.4703124 3.6845605 0.030721664 0.98241192
5.4486718 7.9101071 0.066524923 0.96230745
5.8097653 7.9964352 0.068457641 0.96123385
5.963203 7.9944043 0.069076344 0.96089047
7.1002536 7.952373 0.073836632 0.95825201
7.2216406 7.8865523 0.074064061 0.95812714
7.4037108 7.8841305 0.074908443 0.95765954
7.5899997 7.8816504 0.075784758 0.95717478
7.8695703 7.9690914 0.077569999 0.95618826
8.4776564 7.9610252 0.080547296 0.9545458
9.7394724 7.8531151 0.086653404 0.95118588
9.989707 7.8497949 0.087993048 0.95044911
10.364843 7.9359374 0.090411946 0.94912231
1.2785351 0.9536621 0.011047325 0.99364001
1.2783984 0.90448242 0.010846023 0.9937554
1.2782812 0.85700196 0.010658951 0.99386287
1.2782031 0.83386719 0.010570221 0.99391383
1.278164 0.81112301 0.010484505 0.99396288
1.2780468 0.76668942 0.010322265 0.99405611
1.2779297 0.72360349 0.010171508 0.99414277
1.2914063 0.70993161 0.010206756 0.99412251
1.3307421 0.70993161 0.010446319 0.99398494
1.5087109 0.70993161 0.0115485 0.99335247
1.6692969 0.70994139 0.012563667 0.99277014
1.7931249 0.70994139 0.01335701 0.99231529
1.8611327 0.70994139 0.013795891 0.9920637
1.9337499 0.70993161 0.01426712 0.99179387
1.9810938 0.6991992 0.014550628 0.99163157
1.9811327 0.6713379 0.014487647 0.99166757
20.714491 6.7305274 0.15085235 0.91656333
21.598202 6.7187891 0.15666157 0.91349387
22.552773 6.7061133 0.16296047 0.91017622
24.329512 3.6968553 0.17044295 0.90625238
24.325371 3.3840723 0.17009918 0.90643054
1.9811327 -0.67136717 0.0144878 0.99166751
1.9810938 -0.69921875 0.014550437 0.99163157
1.8611327 -0.70996094 0.013796119 0.9920637
1.7931249 -0.70996094 0.013357162 0.99231523
1.6692969 -0.70996094 0.012563705 0.99277008
1.6127148 -0.70998043 0.012204132 0.99297631
1.5592968 -0.70996094 0.011866149 0.99317002
1.3307226 -0.70997071 0.010446205 0.99398494
1.2914063 -0.70996094 0.010206642 0.99412245
1.2779297 -0.72362304 0.010171699 0.99414277
1.2780468 -0.76671875 0.010322418 0.99405605
1.278164 -0.81114256 0.010484543 0.99396288
1.2782031 -0.83390623 0.010570106 0.99391377
1.2783788 -0.90450191 0.010846253 0.9937554
16.872499 -12.918691 0.14718109 0.91850942
16.43289 -12.912851 0.14475006 0.91979975
15.595469 -12.901738 0.14018477 0.92222732
15.196172 -12.896425 0.13803974 0.92336971
13.712304 -12.876719 0.13028213 0.92751712
13.366757 -12.872128 0.12852478 0.92845839
13.030391 -12.867676 0.12683628 0.92936474
12.702656 -12.8633 0.12520973 0.93023819
12.383183 -12.859072 0.12364395 0.9310798
12.071562 -12.854912 0.12213844 0.9318912
10.896211 -12.839345 0.11663147 0.93485814
10.618535 -12.835634 0.11537696 0.93553591
10.080488 -12.828476 0.11300045 0.93682158
9.5638666 -12.821621 0.11078617 0.93801981
9.0668163 -12.81502 0.1087233 0.9391368
7.6767969 -12.796562 0.10335331 0.94205463
7.0317187 -12.790664 0.10109115 0.94328594
6.6161523 -12.785762 0.099706531 0.94404072
6.2395506 -12.838496 0.098848417 0.94450051
6.3949609 -13.590058 0.10402489 0.94168973
6.3899608 -14.034492 0.1068037 0.94017959
6.3846288 -14.503349 0.109753 0.9385798
7.1613669 -20.290596 0.14902724 0.91752893
7.1505857 -21.101318 0.15431216 0.91473401
7.0738277 -21.770996 0.15854637 0.91249949
6.771328 -21.766993 0.15788269 0.91284811
6.4712887 -21.762987 0.15725452 0.91318101
5.5847654 -21.75123 0.15553375 0.91408736
5.2933984 -21.747343 0.15501937 0.91435963
4.7161717 -21.739668 0.154071 0.91486067
3.345078 -22.014238 0.15422215 0.91478163
-6.2732224 -8.4100485 0.072668649 0.9588995
-1.0458008 -0.9337402 0.00970993 0.99440759
-1.0456641 -0.88742185 0.0094986344 0.99452901
-1.0454687 -0.75959957 0.0089503098 0.99484408
-1.0454491 -0.73969728 0.0088699339 0.99489027
-1.0882422 -0.70995116 0.0089992136 0.99481595
-1.1187109 -0.70997071 0.0091767497 0.99471396
-1.1503906 -0.70996094 0.0093626017 0.99460715
-1.1834179 -0.70996094 0.0095581049 0.99449492
-1.2178515 -0.70995116 0.0097634504 0.99437702
-1.253828 -0.70996094 0.0099792862 0.99425292
-1.2913867 -0.70996094 0.010206565 0.99412251
-1.3307421 -0.70998043 0.010446205 0.99398488
-1.5087109 -0.70995116 0.011548461 0.99335241
-1.5592968 -0.70995116 0.01186634 0.99317002
