# .PCD v0.7 - Point Cloud Data file format
VERSION 0.7
FIELDS x y z intensity
SIZE 4 4 4 4
TYPE F F F F
COUNT 1 1 1 1
WIDTH 1083
HEIGHT 1
VIEWPOINT 0 0 0 1 0 0 0
POINTS 1083
DATA ascii
-1.3719531 -0.70994139 -0.019259224 0.99383956
-1.4152734 -0.70995116 -0.019740218 0.99368608
-1.4607617 -0.70992184 -0.020249138 0.99352401
-1.5087109 -0.70994139 -0.020788154 0.99335206
-1.5592773 -0.70994139 -0.021360321 0.99316972
-1.6127148 -0.70995116 -0.021968383 0.99297595
-1.7292968 -0.70996094 -0.023306349 0.99254984
-1.7749609 -0.67708004 -0.023684502 0.99242932
-21.753906 -5.006289 -0.27829942 0.91457385
-22.504726 7.6262498 -0.36208692 0.90932006
-21.578632 7.616035 -0.34869719 0.91252166
-1.7758203 0.65197265 -0.028826179 0.99246079
-1.7758007 0.67742187 -0.028962364 0.99242544
-1.6692969 0.70996094 -0.027642058 0.99276942
-1.5087109 0.70996094 -0.025408057 0.99335176
-1.4152539 0.70995116 -0.024127426 0.9936859
-1.2913867 0.70996094 -0.022456245 0.99412197
-1.253828 0.70995116 -0.021955833 0.99425244
-1.2178711 0.70995116 -0.021481093 0.99437642
-1.0398632 0.71629882 -0.019241257 0.99496138
-1.0397851 0.75544918 -0.019584998 0.99487162
-1.0397265 0.79607421 -0.019954413 0.99477512
-1.0396093 0.86003906 -0.020559996 0.99461693
-14.663008 16.422773 -0.33543026 0.91569233
-14.386406 16.526367 -0.33391792 0.91607785
-3.7627733 5.9292383 -0.10700981 0.97229803
-3.501914 6.0073047 -0.10595909 0.97256613
-3.4374609 6.0707812 -0.10630779 0.9724769
-3.3539648 6.286777 -0.10857853 0.97189718
-5.1167188 9.8880959 -0.16965389 0.95643806
-4.9649997 9.8976269 -0.16873315 0.95666915
-4.868125 10.016669 -0.16970743 0.95642483
2.1914842 21.725311 -0.33273238 0.91635412
2.2960546 20.214882 -0.31001872 0.92183512
2.5543749 20.219902 -0.31056309 0.92170328
3.3358593 20.237812 -0.31254706 0.92122304
3.5987108 20.243877 -0.31331462 0.92103744
3.3548827 17.586817 -0.27283326 0.93088073
3.5332615 17.335537 -0.26959404 0.93167061
3.8799608 16.859619 -0.26362389 0.93313134
3.2900195 13.51665 -0.21198136 0.94586861
3.4698827 13.514267 -0.21261247 0.94571221
3.8329883 13.509443 -0.21398307 0.94537157
3.3350976 10.72083 -0.17108661 0.95607817
3.6053514 10.639199 -0.17117837 0.95605564
3.7542968 10.637207 -0.17189144 0.95587665
4.0561719 10.633203 -0.17341948 0.95549321
4.2091794 10.631171 -0.17423475 0.95528859
4.3636718 10.629121 -0.17508638 0.95507509
4.5196872 10.62705 -0.1759727 0.95485258
1.8860546 3.880703 -0.065748937 0.98288709
1.8663671 3.7205663 -0.06343136 0.98348618
1.9658593 3.6848242 -0.063640937 0.98343116
4.8833985 7.9130468 -0.14169326 0.96348464
5.0206251 7.9112496 -0.1427782 0.96320999
5.1599998 7.9093747 -0.143904 0.96292549
5.3621874 7.9978418 -0.14672832 0.96221185
2.570703 3.6333885 -0.067822114 0.98235214
2.6040626 3.5841992 -0.0675098 0.98243284
6.1159763 7.9878221 -0.15330181 0.96055305
6.4373436 7.9835544 -0.15627515 0.95980322
6.6027341 7.9813476 -0.15784375 0.95940816
8.2651558 7.9592772 -0.17484918 0.95513451
8.4728127 7.9565039 -0.17711389 0.95456696
8.6860151 7.953691 -0.17946666 0.95397747
1.2707226 0.94784176 -0.02415718 0.99367815
1.2707813 0.9232617 -0.023935584 0.99373591
1.2708985 0.85207027 -0.023316002 0.99389756
1.2709765 0.80658203 -0.02293808 0.99399614
1.2710546 0.7409668 -0.022419509 0.99413157
1.2710937 0.71974605 -0.022258796 0.99417347
1.2914063 0.70994139 -0.022456283 0.99412191
1.4607812 0.70994139 -0.024749603 0.99352366
1.7293359 0.70995116 -0.028486136 0.99254948
1.793164 0.70994139 -0.02938797 0.99231446
1.8611327 0.70996094 -0.030353583 0.99206293
1.9977343 0.70507812 -0.032281991 0.99156082
1.9976171 0.64905274 -0.032006759 0.99163258
22.41453 6.6650391 -0.35632178 0.91069359
23.579784 6.6902146 -0.37348998 0.90660048
1.9976758 -0.67695314 -0.032140996 0.99159747
1.8611523 -0.70995116 -0.030353583 0.99206287
1.7931249 -0.70995116 -0.029387588 0.99231458
1.7293164 -0.70993161 -0.028485794 0.99254954
1.6127343 -0.70995116 -0.026850661 0.99297565
1.5087109 -0.70996094 -0.025408553 0.99335176
1.4152734 -0.70994139 -0.024127388 0.99368584
1.3307421 -0.70994139 -0.022983436 0.99398434
1.2914063 -0.70994139 -0.022456283 0.99412191
1.2710937 -0.71972656 -0.022258872 0.99417353
1.2709765 -0.80656248 -0.022937965 0.9939962
1.2709374 -0.8291406 -0.023123549 0.99394774
1.2708985 -0.85206056 -0.023315962 0.99389762
1.2708203 -0.89910156 -0.023721427 0.99379176
16.013281 -12.911816 -0.31345713 0.92100388
15.201679 -12.901054 -0.30381852 0.92333633
14.814179 -12.895918 -0.29929048 0.92443484
14.438007 -12.890918 -0.29494074 0.92549121
14.072538 -12.886054 -0.29076087 0.92650753
13.717265 -12.881348 -0.28674003 0.92748553
13.035117 -12.872285 -0.27915564 0.92933393
12.707265 -12.867929 -0.27557775 0.93020767
11.77166 -12.855508 -0.26561326 0.93264401
11.474511 -12.851562 -0.26253197 0.93339884
10.900175 -12.843925 -0.25670031 0.93482965
10.622382 -12.840234 -0.25393617 0.93550771
10.350469 -12.83664 -0.25127205 0.93616211
10.084141 -12.833086 -0.24870393 0.93679392
9.5673437 -12.826221 -0.24383302 0.93799263
9.0700979 -12.819619 -0.239297 0.93911016
8.127656 -12.807118 -0.23113738 0.94112366
7.6795702 -12.801162 -0.22747514 0.94202924
7.0328121 -12.792568 -0.2224502 0.94327259
6.2135935 -12.78497 -0.21660866 0.94472033
6.0150781 -12.782637 -0.21527311 0.94505209
5.8189645 -12.780322 -0.21398412 0.94537157
5.6252341 -12.778261 -0.21274924 0.94567811
5.4577146 -12.832656 -0.21250857 0.94574094
5.0646873 -12.791865 -0.20964342 0.94644874
5.5318556 -14.501659 -0.23650602 0.9397974
6.7727733 -21.771542 -0.34743884 0.91282302
6.4726758 -21.767559 -0.34605083 0.91315591
5.8794141 -21.759687 -0.34346625 0.91377538
5.5859766 -21.755781 -0.34227061 0.91406256
5.004961 -21.748085 -0.34006271 0.91459256
4.4310741 -21.740438 -0.33809569 0.91506523
3.8634374 -21.732929 -0.33636215 0.91548175
3.6300585 -22.022577 -0.34010994 0.91458088
3.3457615 -22.018808 -0.33937606 0.91475725
0.8125 -9.2125778 -0.14092796 0.96367842
-6.443574 -9.1073437 -0.17000143 0.95635086
-6.7794528 -8.4078903 -0.1645824 0.95771259
-6.9536719 -8.4055662 -0.16623402 0.95729738
-7.7210546 -9.09793 -0.18183076 0.95338547
-1.0394336 -0.95177734 -0.021476174 0.99437773
-1.0395312 -0.8822363 -0.02077671 0.99456048
-1.0397656 -0.75544918 -0.019585075 0.99487168
-1.0398437 -0.73569334 -0.019410171 0.99491721
-1.0589062 -0.70994139 -0.019426804 0.99491292
-1.0882226 -0.70994139 -0.019799652 0.99481559
-1.1187109 -0.70993161 -0.020189933 0.99471354
-1.1833984 -0.70993161 -0.02102932 0.9944945
-1.3307421 -0.70994139 -0.022983359 0.99398434
-1.4607617 -0.70992184 -0.024749259 0.99352378
-1.6693164 -0.70994139 -0.027641982 0.99276936
-1.7292968 -0.70994139 -0.028485794 0.9925496
-1.7758594 -0.7030859 -0.029104499 0.99238831
-1.7757812 -0.6519531 -0.028826179 0.99246097
-23.499374 3.5707324 -0.42806533 0.90928942
-21.581211 4.1168551 -0.39566931 0.91585636
-21.528046 4.3877831 -0.39567569 0.91585535
-21.471661 4.6580467 -0.39568248 0.91585368
-21.411678 4.9275584 -0.39568976 0.91585273
-21.348652 5.1963573 -0.39569736 0.91585052
-21.281952 5.4642868 -0.39570549 0.91584945
-21.138866 5.9976659 -0.39572287 0.91584581
-21.062538 6.2630177 -0.39573219 0.91584313
-20.899336 6.7906151 -0.39575213 0.91583991
-1.7766405 0.65226561 -0.034084473 0.99245697
-1.7766601 0.67775387 -0.034245756 0.99242145
-1.6692969 0.70996094 -0.032668762 0.99276912
-1.6126952 0.70995116 -0.031733703 0.99297547
-1.5592577 0.70995116 -0.030855332 0.99316925
-1.5087109 0.70996094 -0.030029029 0.99335146
-1.4152539 0.70995116 -0.028514938 0.9936856
-1.3307421 0.70996094 -0.027163085 0.99398404
-1.2913867 0.70996094 -0.026539879 0.99412167
-1.253828 0.70995116 -0.025948904 0.99425215
-1.2178711 0.70995116 -0.025387572 0.99437618
-1.1833984 0.70994139 -0.024853477 0.99449426
-1.1503906 0.70995116 -0.024345588 0.99460644
-1.0391797 0.71581054 -0.022725219 0.99496448
-1.0390625 0.77504879 -0.023345031 0.99482745
-1.0389843 0.79553711 -0.023566894 0.99477851
-1.0389649 0.81640625 -0.023796767 0.99472767
-1.038789 0.88162106 -0.024537429 0.99456406
-1.0387499 0.90425777 -0.024802741 0.99450547
-1.0386719 0.92741209 -0.025077704 0.99444479
-1.0386328 0.95110351 -0.025362892 0.99438167
-16.043339 15.065683 -0.39635345 0.91571754
-15.85371 15.267021 -0.39637706 0.91571265
-15.661523 15.465947 -0.39640102 0.91570795
-15.466952 15.662578 -0.39642525 0.91570258
-15.269804 15.85663 -0.3964498 0.91569787
-15.070371 16.048309 -0.39647469 0.91569251
-14.868379 16.237383 -0.39649984 0.9156878
-14.248574 16.789442 -0.39657715 0.9156723
-13.992499 17.353485 -0.40146288 0.91467863
-13.961055 19.215742 -0.42775482 0.90935177
-13.935801 20.231318 -0.44242561 0.90639335
-3.9409764 6.0408692 -0.12989208 0.97155678
-3.786289 5.966289 -0.1272586 0.97212607
-3.5905077 5.9850879 -0.12569591 0.97246379
-3.5167968 6.032793 -0.12575905 0.97245002
-3.4073045 6.1979098 -0.12737499 0.97210097
-4.9632421 9.8941889 -0.19934985 0.95668197
-5.761621 21.323915 -0.39779976 0.91542333
-4.0346484 15.713925 -0.29217711 0.9371565
-5.2248044 21.465508 -0.39786705 0.91540998
-4.9551172 21.531485 -0.39790088 0.91540241
-4.6845508 21.593885 -0.39793479 0.91539556
-4.4132032 21.652773 -0.39796883 0.91538906
-4.1410937 21.708399 -0.39800292 0.91538209
-3.8683202 21.760586 -0.39803717 0.91537511
-3.5948436 21.809355 -0.39807147 0.9153682
-3.3208203 21.854677 -0.39810583 0.91536123
-3.0461915 21.896553 -0.39814034 0.91535431
-2.7710741 21.935156 -0.39817485 0.91534674
-2.4953907 21.970127 -0.39820945 0.91533983
-2.2193358 22.001631 -0.39824408 0.91533291
-1.4338671 22.790928 -0.41125843 0.91269022
-0.2870703 22.842051 -0.41140246 0.91266149
0.57421875 22.842676 -0.41151068 0.91263944
1.4351367 22.810848 -0.41161886 0.91261733
2.2960546 20.214991 -0.36639929 0.92183125
3.5987108 20.243837 -0.37029305 0.9210341
3.6956248 17.035225 -0.31392866 0.93263888
3.2900195 13.51665 -0.25053105 0.94586617
3.4698827 13.514267 -0.25127655 0.94570982
3.4725389 12.851874 -0.23975264 0.94813383
3.5996485 12.687031 -0.2375019 0.94860786
3.2545311 10.944961 -0.20564032 0.95534593
3.3108983 10.643085 -0.20073506 0.95638764
3.7543359 10.637207 -0.2031512 0.95587462
4.0561719 10.633203 -0.20495592 0.95549124
4.5196872 10.62705 -0.20797539 0.95485055
4.6773047 10.624941 -0.20906684 0.95461887
4.4089842 9.6835155 -0.19160137 0.95832634
1.8688281 3.9714062 -0.079045221 0.98259383
1.8652734 3.7183397 -0.074915312 0.98349518
2.0282812 3.6894042 -0.075822525 0.98329759
2.0885937 3.6885545 -0.076336861 0.98318493
4.7482028 7.9148436 -0.16622192 0.96374804
4.8833985 7.9130468 -0.16746135 0.96348304
5.0206251 7.9112496 -0.16874391 0.96320832
5.3621874 7.9978223 -0.1734107 0.96221018
5.5077734 7.9958887 -0.17485867 0.96190137
2.6040626 3.5841992 -0.079786412 0.98243207
6.1160154 7.9878221 -0.18118042 0.9605512
6.2750778 7.9856834 -0.182905 0.96018314
6.4373045 7.9835348 -0.18469445 0.95980155
6.6027341 7.9813476 -0.18654926 0.95940632
6.7541599 7.9586229 -0.18798748 0.95909989
7.0395703 7.8844042 -0.19035327 0.95859575
7.2174997 7.882041 -0.19247077 0.9581449
7.3994918 7.8796191 -0.19466652 0.95767748
7.6723046 7.9671483 -0.19919603 0.95671469
8.2651558 7.9592772 -0.20664559 0.95513248
9.49125 7.8518457 -0.22183992 0.95191425
10.098007 7.9349313 -0.23128597 0.94991875
10.358945 7.9314742 -0.23496112 0.94914359
1.2698632 0.94720703 -0.028530501 0.99368215
1.27 0.87481445 -0.027773017 0.9938494
1.2703124 0.71927732 -0.026290169 0.99417681
1.2914063 0.70994139 -0.026539916 0.99412167
1.3307226 0.70995116 -0.027163047 0.99398416
1.3719921 0.70997071 -0.027820511 0.99383885
1.5592968 0.70995116 -0.030855292 0.99316907
1.6127343 0.70995116 -0.03173374 0.99297529
1.6692969 0.70994139 -0.032668725 0.99276912
1.7293359 0.70995116 -0.03366619 0.99254912
1.9337499 0.70996094 -0.037098695 0.99179268
1.9998437 0.70581055 -0.038192712 0.99155158
1.9997656 0.67767578 -0.038026121 0.99158835
21.345917 6.3472557 -0.40106058 0.91476059
21.499844 5.8091502 -0.40108049 0.91475618
21.571562 5.5386424 -0.40108979 0.91475457
21.70496 4.995029 -0.40110713 0.91475075
21.766426 4.7219825 -0.40111515 0.91474921
22.021738 3.3462012 -0.40114871 0.91474265
22.062344 3.069248 -0.4011541 0.91474158
23.478006 -5.0932908 -0.43265861 0.90836221
22.075665 -5.0803514 -0.40795755 0.9133597
1.9996874 -0.64972657 -0.037866782 0.99162352
1.9998242 -0.70581055 -0.038192786 0.99155164
1.8611523 -0.70995116 -0.035873376 0.99206251
1.7931249 -0.70995116 -0.034731828 0.99231422
1.7293164 -0.70993161 -0.033666153 0.99254918
1.6692969 -0.70996094 -0.032668799 0.99276912
1.50875 -0.70994139 -0.030028991 0.9933514
1.3719921 -0.70993161 -0.027820587 0.99383891
1.3307421 -0.70994139 -0.027162971 0.9939841
1.2914063 -0.70994139 -0.026540069 0.99412167
1.2703124 -0.71927732 -0.02629013 0.99417681
1.2702539 -0.74049801 -0.026479721 0.99413496
1.2701757 -0.78386718 -0.026880417 0.99404651
1.2701172 -0.80604488 -0.027091751 0.9939999
1.2700976 -0.82859373 -0.02731079 0.99395144
1.2700391 -0.85151362 -0.027537726 0.99390137
1.2700391 -0.8747949 -0.02777298 0.99384934
1.2699023 -0.92262691 -0.028269157 0.99373996
15.601132 -12.906367 -0.36464772 0.92219001
15.201679 -12.901054 -0.35907096 0.92333293
14.814179 -12.895918 -0.35371888 0.9244315
14.437968 -12.890898 -0.3485758 0.92548811
13.371601 -12.876758 -0.33431843 0.92842394
13.035117 -12.872285 -0.32992294 0.92933077
12.707265 -12.867929 -0.32569212 0.93020457
12.075937 -12.85955 -0.31769606 0.93185836
11.474531 -12.851562 -0.31027627 0.9333958
11.184121 -12.847714 -0.30676571 0.93412405
10.350469 -12.83664 -0.29696834 0.93615925
9.070117 -12.819619 -0.2828134 0.93910742
8.3572264 -12.810165 -0.27545565 0.94064379
8.127656 -12.807118 -0.27317199 0.94112104
7.9018164 -12.804111 -0.27097014 0.94158185
7.6795506 -12.801152 -0.26884347 0.94202667
7.032793 -12.792559 -0.26290309 0.94327015
6.61832 -12.789804 -0.25934663 0.94401586
6.4146094 -12.787363 -0.25764245 0.94437343
6.2135739 -12.784961 -0.25600094 0.94471794
5.6252341 -12.778261 -0.2514396 0.94567567
5.4456444 -12.804277 -0.25058296 0.9458552
5.2556052 -12.801738 -0.24922265 0.94614142
3.3972266 -9.2532806 -0.17751949 0.96133226
6.8064256 -20.947998 -0.39667478 0.91565245
6.4726758 -21.767578 -0.4089835 0.91315204
6.1749411 -21.763613 -0.40741956 0.91346949
5.8793945 -21.759706 -0.40592903 0.91377157
5.2945509 -21.751934 -0.40317237 0.91433102
4.7171874 -21.744257 -0.40070593 0.91483217
4.1465039 -21.736689 -0.3985227 0.91527659
3.0626757 -22.015059 -0.40029204 0.91491628
2.6448047 -23.285488 -0.42205191 0.91050488
0.81255859 -9.2133398 -0.16657199 0.96367383
1.7648633 -23.362421 -0.42194143 0.91052753
1.4710156 -23.380878 -0.4219045 0.91053438
0.29429686 -23.417049 -0.42175674 0.9105643
-0.58835936 -23.405312 -0.42164579 0.91058683
-0.88234371 -23.393906 -0.42160884 0.9105947
-1.1761132 -23.378954 -0.42157194 0.91060209
-2.055918 -23.312012 -0.42146131 0.91062403
-2.348496 -23.282177 -0.42142451 0.91063195
-2.9323437 -23.211952 -0.42135108 0.91064608
-3.5141406 -23.126816 -0.42127791 0.91066122
-4.3821678 -22.971992 -0.42116866 0.91068327
-4.6700778 -22.913143 -0.42113242 0.91069061
-5.528945 -22.71501 -0.42102432 0.91071248
-6.3794923 -22.484823 -0.42091718 0.910734
-7.4986129 -22.12829 -0.42077622 0.9107632
-7.7754493 -22.030575 -0.42074129 0.91076994
-8.0510349 -21.929384 -0.4207066 0.91077673
-8.5981245 -21.716406 -0.42063767 0.91079128
-8.8697262 -21.605078 -0.42060336 0.91079742
-9.675312 -21.250235 -0.42050177 0.91081828
-9.9408588 -21.125448 -0.42046833 0.91082442
-10.986191 -20.592636 -0.42033637 0.91085196
-11.2433 -20.451473 -0.42030391 0.91085804
-12.252871 -19.854549 -0.42017645 0.9108845
-12.500507 -19.697578 -0.42014515 0.91089064
-12.746172 -19.537676 -0.42011413 0.91089624
-13.231113 -19.2083 -0.42005283 0.91090912
-6.5630274 -8.7985935 -0.19767624 0.9570362
-6.5712891 -8.58251 -0.19466822 0.95767742
-6.6086326 -8.4101753 -0.19262688 0.95811152
-6.7794528 -8.4079103 -0.19451202 0.95771062
-6.9536719 -8.4055853 -0.19646522 0.95729536
-7.7210546 -9.09793 -0.21489842 0.95338339
-15.739804 -17.189024 -0.41973549 0.91097295
-15.953496 -16.98876 -0.4197084 0.91097862
-16.37332 -16.58041 -0.4196552 0.91098928
-16.579315 -16.372265 -0.41962913 0.91099477
-16.983496 -15.948554 -0.41957787 0.9110049
-1.0386914 -0.92740232 -0.025077552 0.99444473
-1.0389062 -0.8376953 -0.024034882 0.9946751
-1.0389453 -0.8163867 -0.023796424 0.99472779
-1.0389843 -0.79551756 -0.023566855 0.99477857
-1.0391601 -0.71579099 -0.022725143 0.9949646
-1.0589062 -0.70994139 -0.022959823 0.99491268
-1.1187109 -0.70993161 -0.02386158 0.99471331
-1.1503906 -0.70994139 -0.024345588 0.99460644
-1.2538086 -0.70993161 -0.025948867 0.99425226
-1.2913672 -0.70994139 -0.026540108 0.99412179
-1.3307421 -0.70994139 -0.027162971 0.9939841
-1.4152734 -0.70995116 -0.028515318 0.99368554
-1.4607617 -0.70992184 -0.029250145 0.99352348
-1.5087109 -0.70994139 -0.030028876 0.99335152
-1.5592773 -0.70994139 -0.030855332 0.99316919
-1.6693164 -0.70994139 -0.032668915 0.99276906
-1.7767187 -0.70343751 -0.034413755 0.99238431
-1.7766601 -0.65224606 -0.034084395 0.99245697
-20.822147 -7.0560055 -0.39593768 0.915802
-20.991913 -6.5302048 -0.39591578 0.91580582
-21.420918 -4.9296579 -0.39586017 0.91581804
-23.994453 1.953125e-05 -0.4986214 0.90846533
-23.986855 0.60299802 -0.4986217 0.90846545
-23.977383 0.90436524 -0.49862257 0.90846545
-23.902225 2.1079979 -0.49863073 0.90846336
-23.873827 2.4081933 -0.49863398 0.90846342
-23.806288 3.0074511 -0.49864182 0.90846151
-23.766796 3.3063965 -0.49864647 0.90846086
-20.004961 3.5562303 -0.42223582 0.92192453
-19.199179 3.6624413 -0.4061639 0.92478091
-18.673866 3.8060448 -0.39603493 0.92658675
-18.624882 4.0404587 -0.39604083 0.92658556
-18.518085 4.5073924 -0.39605376 0.92658317
-18.39957 4.9714842 -0.39606816 0.92658085
-18.128124 5.8901854 -0.3961013 0.92657471
-18.053085 6.1176562 -0.39611048 0.9265731
-17.975214 6.3441696 -0.39612001 0.92657143
-1.7774999 0.6780566 -0.039534569 0.99241751
-1.777539 0.70377928 -0.039728776 0.99238038
-1.5592577 0.70995116 -0.035603561 0.99316883
-1.3307421 0.70996094 -0.031343002 0.99398375
-1.253828 0.70995116 -0.029942131 0.99425185
-1.2178711 0.70995116 -0.02929428 0.99437588
-1.1833984 0.70994139 -0.028678169 0.99449396
-1.1503906 0.70995116 -0.028091926 0.99460614
-1.1187109 0.70994139 -0.027533568 0.99471301
-1.0882422 0.70996094 -0.027001036 0.99481493
-1.0589062 0.70996094 -0.026492804 0.99491233
-1.0382812 0.79499024 -0.027174797 0.99478179
-1.0382422 0.8158496 -0.027439574 0.99473101
-1.038164 0.8371191 -0.027713852 0.99467856
-1.0381249 0.85880858 -0.027998313 0.99462408
-1.0380664 0.88097656 -0.028293075 0.99456763
-1.0380077 0.90359372 -0.028598899 0.9945091
-1.0378906 0.95039058 -0.029244041 0.99438548
-14.048008 13.191962 -0.4004657 0.92579639
-14.042402 13.522783 -0.40511897 0.92496741
-14.036679 13.861396 -0.40994677 0.92410803
-14.024726 14.563701 -0.42015937 0.92229319
-14.012109 15.302285 -0.43116707 0.9203403
-14.005507 15.686357 -0.43699455 0.91930813
-13.99875 16.081015 -0.44305548 0.91823637
-13.992324 16.487518 -0.44937515 0.91711986
-13.980547 17.338652 -0.46284893 0.91474396
-13.974375 17.783798 -0.47000435 0.91348428
-13.967968 18.242989 -0.47746143 0.91217351
-13.961426 18.717079 -0.48524302 0.91080856
-13.893164 19.636553 -0.49986967 0.90824747
-13.39707 19.982119 -0.49993163 0.90823597
-3.5317967 6.0585055 -0.14572982 0.97233278
-3.4668553 6.1226854 -0.14621456 0.97224218
-3.4276171 6.2348828 -0.14785293 0.97193545
-5.1148438 9.8843946 -0.23127526 0.95644969
-9.9774017 21.913731 -0.50035924 0.90816098
-9.7018557 22.038769 -0.50039375 0.90815544
-9.4248047 22.160448 -0.50042844 0.90814948
-8.8661909 22.393505 -0.50049835 0.90813696
-8.5846872 22.504707 -0.50053358 0.90813088
-8.3017969 22.612333 -0.50056905 0.90812498
-7.7320309 22.817099 -0.50064039 0.90811241
-7.4452538 22.91416 -0.50067633 0.90810585
-5.4564452 18.350126 -0.3978298 0.92626649
-4.0346093 15.713916 -0.33713776 0.93715328
-4.2945118 18.661093 -0.39792675 0.92624915
-4.0599217 18.714512 -0.39794636 0.92624557
-3.5886717 18.81251 -0.39798564 0.92623854
-3.3521483 18.85704 -0.3980054 0.92623508
-3.115078 18.898495 -0.39802516 0.92623198
-2.8774998 18.93709 -0.398045 0.92622846
-2.6394336 18.972803 -0.39806488 0.92622453
-1.9227734 19.061611 -0.39812472 0.92621404
-0.99453121 19.768202 -0.4113169 0.92386448
-0.74609375 19.780615 -0.4113481 0.923859
-0.49748045 19.790009 -0.41137928 0.92385316
-0.24882811 19.796181 -0.41141051 0.92384768
0.74640626 19.789667 -0.41153556 0.9238255
0.99511719 19.780233 -0.41156685 0.92381996
1.2436719 19.767607 -0.41159812 0.92381459
1.9883202 19.71122 -0.4116917 0.92379773
2.2360156 19.68627 -0.41172287 0.92379183
2.4833984 19.657978 -0.41175395 0.92378676
3.2232811 19.554901 -0.41184703 0.92376995
3.3753123 17.693876 -0.37432253 0.93046826
3.5332811 17.335546 -0.36764997 0.93166393
3.7084765 17.09453 -0.36349785 0.93240899
3.2179687 13.983056 -0.29817259 0.94421005
3.4698827 13.514267 -0.28994587 0.94570696
3.4725389 12.851874 -0.27664688 0.94813108
3.4575391 10.641162 -0.23251078 0.95622236
3.6053319 10.639189 -0.23343892 0.95605141
4.0561914 10.633213 -0.23649545 0.95548886
4.2091794 10.631182 -0.2376096 0.95528424
4.3636522 10.62913 -0.23876983 0.95507073
4.4089646 9.683506 -0.22110578 0.95832419
1.9017187 3.6750293 -0.085988462 0.98358101
2.1392188 3.6696093 -0.088268049 0.98314941
4.7482028 7.9148436 -0.19180213 0.96374613
4.8833985 7.9130468 -0.19323103 0.96348107
5.1599998 7.9093747 -0.19624734 0.96292186
5.3621874 7.9978223 -0.20009738 0.96220821
5.5077734 7.9958887 -0.20176496 0.96189934
2.6040626 3.5841992 -0.092064247 0.98243111
5.9598436 7.9898925 -0.20713979 0.96090472
6.1160154 7.9878221 -0.20906077 0.96054912
6.7541795 7.9586229 -0.21691425 0.95909774
7.2174997 7.882041 -0.22209041 0.95814276
7.6723046 7.9671578 -0.22984922 0.95671237
7.8651366 7.9645996 -0.2326093 0.95620418
9.1300001 7.9478025 -0.25154173 0.95272464
9.49125 7.8518553 -0.25597906 0.95191169
1.2689843 0.94655269 -0.032898635 0.99368614
1.2690625 0.92202145 -0.032597084 0.99374372
1.2691797 0.87422848 -0.032025527 0.99385309
1.2691991 0.85093749 -0.031754341 0.99390513
1.2692969 0.82804686 -0.031492844 0.99395502
1.2693164 0.8055371 -0.031240577 0.99400336
1.2694336 0.76154298 -0.030762022 0.99409485
1.2695312 0.71883786 -0.030316619 0.99418008
1.2914063 0.70994139 -0.030624161 0.99412131
1.3307226 0.70995116 -0.031342886 0.99398381
1.3719921 0.70997071 -0.032101668 0.99383849
1.4152734 0.70996094 -0.032903366 0.99368519
1.5592968 0.70995116 -0.035603523 0.99316871
1.6127343 0.70995116 -0.036617164 0.99297494
1.6692969 0.70994139 -0.037696343 0.99276876
1.793164 0.70994139 -0.040076826 0.99231368
1.9337499 0.70996094 -0.042807542 0.99179226
2.0019531 0.70658201 -0.044116285 0.99154216
2.0018554 0.6783691 -0.043923605 0.99157912
2.0017967 0.65042967 -0.043739431 0.99161428
18.550566 5.2632713 -0.40071052 0.92575306
18.846289 4.0884767 -0.40074888 0.92574608
18.896484 3.8514159 -0.40075549 0.92574489
19.839922 3.0146778 -0.41701907 0.92285055
23.418827 2.9584863 -0.49052653 0.90988213
24.130234 2.7407618 -0.5046652 0.90740854
24.191797 2.1335351 -0.50467354 0.9074074
24.238163 1.5249316 -0.50468004 0.90740597
24.255409 1.2202442 -0.50468254 0.90740597
24.268847 0.91535157 -0.50468451 0.90740591
24.284452 0.30516601 -0.50468713 0.90740496
24.284492 -0.30518553 -0.50468779 0.90740478
24.278711 -0.61031246 -0.50468737 0.9074049
24.2691 -0.91535157 -0.50468647 0.90740502
24.255585 -1.2202344 -0.5046851 0.90740538
24.19207 -2.1335351 -0.50467813 0.90740639
24.130547 -2.7407908 -0.50467104 0.9074074
24.093906 -3.0437596 -0.50466675 0.90740848
24.053593 -3.3462791 -0.50466198 0.90740907
24.009237 -3.6482031 -0.50465679 0.90741056
23.909571 -4.2503319 -0.50464487 0.90741205
23.853867 -4.5503712 -0.5046382 0.90741354
23.794531 -4.8497071 -0.50463104 0.90741456
23.45664 -5.0886326 -0.49878225 0.90843701
18.638964 -5.0361619 -0.40122011 0.92566204
18.490625 -5.4982615 -0.40087554 0.92572343
18.419647 -5.7300587 -0.40086687 0.92572504
2.0018554 -0.67835939 -0.043923225 0.99157917
2.0019336 -0.70654297 -0.044116057 0.99154234
1.8611523 -0.70995116 -0.041393697 0.99206209
1.7931249 -0.70995116 -0.040076673 0.9923138
1.7293164 -0.70993161 -0.038846817 0.99254882
1.50875 -0.70994139 -0.034650266 0.99335104
1.4608008 -0.70994139 -0.03375145 0.99352294
1.2694336 -0.7400195 -0.030535277 0.99413842
1.2693945 -0.76152343 -0.030762061 0.99409503
1.2693554 -0.78334957 -0.030996742 0.99405003
1.2693164 -0.8055371 -0.031240463 0.99400336
1.2691406 -0.8742187 -0.032025412 0.99385327
1.2691015 -0.89790034 -0.032306213 0.99379951
1.2690625 -0.92200196 -0.032597274 0.99374378
16.191015 -12.396914 -0.42375702 0.92165393
15.71 -12.996455 -0.4236972 0.92166483
15.376953 -13.385839 -0.42365578 0.92167211
14.437988 -12.890918 -0.40221882 0.92548412
14.072519 -12.886074 -0.39651603 0.9265005
12.707265 -12.867929 -0.37581342 0.93020099
12.387695 -12.863691 -0.37111461 0.93104297
12.075937 -12.859541 -0.36658707 0.93185484
11.77166 -12.855497 -0.36222678 0.93263757
10.622402 -12.840244 -0.34630004 0.93550146
10.08416 -12.833096 -0.33916423 0.93678778
9.8231831 -12.829618 -0.33578277 0.93739778
9.5673628 -12.82624 -0.33252174 0.93798655
9.3163862 -12.8229 -0.32937309 0.93855518
9.070117 -12.819619 -0.32633597 0.93910426
8.8282814 -12.816416 -0.32340476 0.93963438
8.5907221 -12.813251 -0.3205741 0.94014639
8.3572454 -12.810146 -0.31784564 0.94064069
7.4607224 -12.798242 -0.30784836 0.94245303
7.2451758 -12.79539 -0.30556294 0.9428674
7.032793 -12.792559 -0.30336192 0.94326717
6.61832 -12.789804 -0.29925781 0.94401294
6.2135739 -12.784961 -0.29539704 0.94471508
5.8189454 -12.780313 -0.2918162 0.94536632
5.6252341 -12.778261 -0.29013216 0.94567287
3.397207 -9.2532806 -0.20483865 0.96133024
6.282793 -19.336483 -0.42250478 0.92187661
6.0389061 -19.412579 -0.42247424 0.92188174
5.7940621 -19.485468 -0.42244357 0.9218874
5.5483594 -19.555389 -0.42241278 0.92189252
5.0544333 -19.685722 -0.42235082 0.92190367
4.8063278 -19.746191 -0.42231974 0.92190933
4.5574608 -19.803545 -0.42228854 0.92191494
4.0577731 -19.908974 -0.42222586 0.92192566
3.5556054 -20.001543 -0.42216286 0.92193735
3.30375 -20.043163 -0.42213127 0.92194289
2.7985938 -20.116846 -0.42206785 0.9219541
2.2918553 -20.177813 -0.42200428 0.92196524
2.0379491 -20.203516 -0.42197239 0.92197084
0.81255859 -9.2133589 -0.19219749 0.9636718
1.2747265 -20.261309 -0.42187655 0.92198807
0.76503903 -20.283926 -0.42181253 0.92199922
0.51007813 -20.290312 -0.4217805 0.92200518
1.953125e-05 -20.293564 -0.42171642 0.92201686
-0.50990236 -20.284237 -0.42165232 0.92202759
-0.76468748 -20.274609 -0.42162031 0.92203361
-1.273789 -20.245975 -0.42155632 0.92204469
-1.5279688 -20.226875 -0.42152435 0.92205024
-2.0354881 -20.17909 -0.42146057 0.92206138
-2.2886913 -20.150282 -0.42142871 0.92206746
-2.5415235 -20.11832 -0.42139688 0.92207342
-2.7939453 -20.083399 -0.42136514 0.92207867
-3.5480859 -19.959238 -0.42127025 0.92209584
-3.7983983 -19.911728 -0.42123878 0.9221009
-4.296875 -19.806913 -0.42117602 0.92211252
-5.2850585 -19.560175 -0.42105159 0.92213476
-5.5300975 -19.491014 -0.42102072 0.92213941
-5.7741599 -19.418514 -0.42098999 0.92214507
-6.0172262 -19.342968 -0.42095935 0.92215067
-6.2593555 -19.264296 -0.42092887 0.92215657
-6.5004687 -19.182793 -0.42089847 0.92216182
-6.7405467 -19.09828 -0.42086822 0.92216694
-7.4539647 -18.826582 -0.4207783 0.9221831
-7.6894727 -18.730244 -0.42074859 0.92218781
-8.6183596 -18.315001 -0.42063144 0.9222092
-8.8472261 -18.203983 -0.42060256 0.92221439
-9.0746479 -18.090136 -0.42057386 0.92221951
-9.3006639 -17.973555 -0.42054534 0.92222416
-10.189277 -17.478857 -0.42043319 0.92224419
-10.623886 -17.214979 -0.4203783 0.92225415
-10.838691 -17.079042 -0.42035115 0.92225885
-11.051797 -16.94043 -0.42032427 0.92226344
-11.472539 -16.655254 -0.42027107 0.92227292
-11.885957 -16.359648 -0.4202188 0.92228228
-6.5630274 -8.798584 -0.22810446 0.95703399
-12.291875 -16.053858 -0.42016745 0.92229116
-6.6086326 -8.4101753 -0.22227104 0.95810938
-12.689824 -15.737929 -0.42011714 0.92230052
-12.885839 -15.576327 -0.42009231 0.92230481
-13.271679 -15.245839 -0.42004356 0.92231339
-13.834531 -14.732265 -0.41997221 0.92232609
-14.198809 -14.378398 -0.41992611 0.92233425
-14.7283 -13.8308 -0.41985896 0.92234617
-1.0379297 -0.92671871 -0.028915366 0.99444848
-1.0380077 -0.90360349 -0.028598594 0.9945091
-1.0380468 -0.88097656 -0.028292999 0.99456769
-1.0381055 -0.8587988 -0.027998161 0.99462414
-1.0381836 -0.8371191 -0.027713699 0.9946785
-1.0382422 -0.81583005 -0.027439307 0.99473107
-1.0382812 -0.79498047 -0.027174721 0.99478179
-1.0383984 -0.75444335 -0.026672477 0.99487793
-1.1833984 -0.70993161 -0.02867832 0.99449396
-1.3719531 -0.70994139 -0.032101706 0.99383873
-1.4152734 -0.70995116 -0.03290306 0.99368519
-1.4607617 -0.70992184 -0.03375141 0.99352312
-1.6127148 -0.70995116 -0.036616895 0.992975
-1.777539 -0.70378906 -0.039728813 0.99238032
-1.777539 -0.6780566 -0.039534722 0.99241734
-1.7774999 -0.65257812 -0.03934845 0.99245298
-18.344042 -5.204668 -0.39624709 0.92654854
-18.407578 -4.9736328 -0.39623886 0.92655015
-19.582148 -4.5064745 -0.41756701 0.92275327
-23.723906 -3.6048338 -0.49865919 0.90845895
-23.767069 -3.3063965 -0.49865347 0.9084599
-23.806444 -3.0074315 -0.49864823 0.90846097
-23.842342 -2.7080469 -0.49864337 0.90846103
-23.874102 -2.4081836 -0.49863905 0.90846246
-23.926836 -1.8074511 -0.49863181 0.9084633
-23.964413 -1.2055762 -0.49862644 0.90846437
-23.977539 -0.90433592 -0.49862447 0.90846485
-23.992558 -0.30149412 -0.49862194 0.90846533
-21.185722 9.7656248e-06 -0.49897429 0.91872686
-21.170702 0.79849607 -0.49897534 0.91872674
-21.158964 1.0644825 -0.4989765 0.91872686
-21.104139 1.8612109 -0.49898258 0.91872567
-21.07918 2.1262794 -0.49898544 0.91872531
-21.050898 2.3910351 -0.49898869 0.91872495
-21.019413 2.6553807 -0.49899238 0.91872412
-20.984472 2.9193163 -0.49899647 0.91872376
-20.946367 3.1828125 -0.499001 0.91872293
-20.904921 3.4458008 -0.49900591 0.91872215
-20.004648 3.5561719 -0.47854486 0.92192107
-18.604101 3.791826 -0.44717985 0.92684639
-17.43293 4.2432323 -0.42257574 0.93072861
-16.716368 4.7428708 -0.4092499 0.93283772
-1.6692969 0.70996094 -0.042723846 0.99276829
-1.5592577 0.70995116 -0.040352326 0.99316841
-1.5087109 0.70996094 -0.039271582 0.99335074
-1.4152539 0.70995116 -0.037292022 0.99368489
-1.2178711 0.70995116 -0.033201445 0.99437553
-1.1503906 0.70995116 -0.031838723 0.99460578
-1.0589062 0.70996094 -0.030026512 0.99491203
-1.0377734 0.71487302 -0.029680289 0.99497062
-1.0377344 0.73422849 -0.029940147 0.99492663
-1.0376953 0.75392574 -0.030209579 0.99488109
-1.0376172 0.77399415 -0.030488852 0.99483395
-1.0375781 0.79443359 -0.030778008 0.99478507
-1.0375 0.8152734 -0.031077575 0.99473447
-1.0374218 0.83652341 -0.031388167 0.99468201
-1.0373828 0.85820311 -0.031710166 0.99462754
-1.0372266 0.90294921 -0.032389563 0.9945128
-1.0371094 0.94967771 -0.033119965 0.9943893
-14.036074 13.180791 -0.45349586 0.92585254
-14.016992 14.555683 -0.47593653 0.92232972
-14.011933 14.921191 -0.48209354 0.92136562
-14.006719 15.296367 -0.48848867 0.92036504
-13.115879 16.691319 -0.49997047 0.91857159
-12.90582 16.855732 -0.49999666 0.91856736
-11.825156 17.637558 -0.50013161 0.91854638
-3.8185546 6.0171385 -0.1678471 0.97188872
-3.7120702 6.0150876 -0.16647579 0.97211516
-9.0475979 19.227226 -0.50047892 0.91849214
-8.3180466 19.558134 -0.50057024 0.91847783
-7.8248825 19.763397 -0.50063199 0.9184683
-5.6216016 15.927832 -0.39781725 0.93465126
-5.4211717 15.997783 -0.39783397 0.93464905
-5.0178905 16.130478 -0.39786759 0.93464309
-4.2949219 15.137705 -0.37060228 0.93898267
-4.0632029 15.038075 -0.36688396 0.93957597
-3.5197656 15.294492 -0.36963668 0.93913645
-3.3856444 15.606484 -0.37611896 0.93810284
-3.374824 16.558231 -0.39800468 0.93462175
-3.166621 16.600058 -0.39802203 0.93461901
-2.9579101 16.639345 -0.39803946 0.93461597
-2.7487109 16.67584 -0.39805692 0.93461353
-2.5390429 16.709795 -0.39807442 0.93461072
-2.3289843 16.741201 -0.39809194 0.93460768
-2.1185155 16.769882 -0.39810956 0.93460488
-1.7523047 17.371786 -0.41122422 0.93252516
-1.5339843 17.393593 -0.4112516 0.93252081
-1.3153906 17.412754 -0.41127905 0.9325161
-1.0965625 17.429024 -0.41130653 0.93251193
-0.8775 17.44249 -0.41133404 0.93250799
-0.65828121 17.45336 -0.41136158 0.9325034
-0.43894529 17.461426 -0.41138911 0.93249905
-0.21949218 17.466787 -0.41141668 0.93249446
0.65851563 17.460361 -0.41152701 0.9324773
0.87796873 17.451942 -0.41155452 0.93247265
1.0972656 17.440674 -0.41158217 0.93246841
1.3164452 17.42667 -0.41160971 0.93246406
1.5354296 17.409893 -0.41163725 0.93245977
1.9727148 17.368174 -0.41169223 0.93245089
2.6264453 17.284903 -0.41177443 0.93243802
3.0603905 17.215693 -0.41182905 0.93242943
3.2766795 17.177021 -0.41185626 0.93242514
3.7078319 17.091591 -0.41191053 0.9324162
3.2179492 13.983027 -0.33794293 0.94420683
3.1740234 10.674277 -0.26228446 0.95642102
3.3108983 10.643095 -0.26251984 0.95638269
3.4575391 10.641162 -0.26352227 0.95621973
3.6053319 10.639189 -0.26457566 0.95604879
3.7543163 10.637217 -0.26567817 0.95586962
4.0561914 10.633213 -0.26804006 0.95548618
4.3636522 10.62913 -0.27061614 0.95506805
4.6773243 10.62497 -0.27341798 0.95461363
4.4089451 9.683506 -0.25059605 0.95832175
1.8630078 3.9590819 -0.10305389 0.98264545
1.882207 3.8728125 -0.10141567 0.98291892
1.8630469 3.713906 -0.097855948 0.98351282
1.9010156 3.6736913 -0.097421914 0.98358601
1.9640039 3.6812987 -0.098270379 0.98344415
2.0872655 3.6862109 -0.099771805 0.98319358
2.1386719 3.6686327 -0.10001503 0.98315281
4.8833985 7.9130468 -0.21900477 0.96347886
5.3621874 7.9978223 -0.22678691 0.96220589
2.570703 3.6333885 -0.10482734 0.98234934
6.2750778 7.985703 -0.23920338 0.96017855
7.0395703 7.8844137 -0.2489429 0.95859104
7.2174997 7.8820505 -0.25171211 0.95814019
7.6723046 7.9671578 -0.26050729 0.95670974
7.8651366 7.9645996 -0.26363394 0.95620155
8.2651558 7.9592872 -0.2702499 0.95512742
8.4728518 7.9565134 -0.27375022 0.95455968
9.2557421 7.8549805 -0.28591651 0.95258892
9.49125 7.8518553 -0.29012081 0.95190883
10.358945 7.9314742 -0.30728087 0.94913787
1.2681249 0.94591796 -0.037261009 0.99369001
1.2682031 0.92139643 -0.036919706 0.99374759
1.2682617 0.89731443 -0.036590766 0.99380314
1.2683789 0.85038084 -0.035965994 0.99390864
1.2684375 0.82750976 -0.035670128 0.99395865
1.2685547 0.78285152 -0.035108682 0.99405342
1.2685937 0.76104492 -0.034842644 0.99409837
1.2686328 0.73956054 -0.034585953 0.99414176
1.2687109 0.71838868 -0.034338646 0.99418342
1.3307226 0.70995116 -0.035523567 0.99398345
1.4607812 0.70994139 -0.038253095 0.99352264
1.6127343 0.70995116 -0.041501045 0.99297452
1.6692969 0.70994139 -0.042723961 0.99276829
1.8611327 0.70996094 -0.046914939 0.99206167
1.9337499 0.70996094 -0.048516996 0.99179173
2.0039649 0.67907226 -0.049834136 0.99156982
2.0038867 0.65109372 -0.049624976 0.99160504
16.296368 4.8457813 -0.40042773 0.934237
16.413633 4.4348927 -0.40044287 0.93423456
16.468397 4.2283692 -0.40044996 0.93423325
16.56996 3.8133006 -0.40046322 0.93423134
16.660976 3.3957911 -0.40047508 0.93422973
16.702696 3.1862109 -0.40048057 0.93422836
17.166952 3.0517089 -0.41066352 0.93261415
19.78746 3.0067089 -0.47139272 0.923042
21.275351 2.4165039 -0.50430679 0.91789496
21.304218 2.1489844 -0.50431073 0.91789424
21.32955 1.8811229 -0.50431418 0.91789424
21.41291 9.7656248e-06 -0.50432664 0.91789216
21.385859 -1.0758789 -0.50432438 0.91789216
21.304335 -2.1489844 -0.50431532 0.91789383
21.275547 -2.4165137 -0.50431198 0.91789418
21.243399 -2.6836524 -0.50430822 0.9178946
21.207655 -2.950371 -0.50430405 0.91789585
21.168808 -3.2166014 -0.5042994 0.91789621
21.080858 -3.7474706 -0.50428891 0.91789782
20.979511 -4.2759571 -0.50427675 0.91789979
20.923906 -4.5391994 -0.50427002 0.91790056
20.864922 -4.8016891 -0.50426292 0.91790169
17.679296 -5.0160837 -0.43282571 0.92910933
16.846523 -5.0093555 -0.41394442 0.93209404
16.240898 -5.0522656 -0.40059239 0.93421072
2.0039454 -0.67908204 -0.04983402 0.99156988
2.0040233 -0.70730466 -0.050053254 0.99153298
1.8611523 -0.70995116 -0.046915166 0.99206161
1.6127343 -0.70995116 -0.04150131 0.99297452
1.5592773 -0.70995116 -0.040352631 0.99316835
1.4608008 -0.70994139 -0.038253095 0.99352252
1.4152734 -0.70994139 -0.03729206 0.99368483
1.3307421 -0.70994139 -0.035523489 0.99398339
1.2914063 -0.70994139 -0.034708709 0.99412096
1.2687109 -0.71835935 -0.034338646 0.99418348
1.2686328 -0.73956054 -0.03458599 0.99414176
1.2685937 -0.76104492 -0.034842681 0.99409837
1.2685547 -0.78286129 -0.035108641 0.99405342
1.2684765 -0.80500972 -0.035384253 0.99400693
1.2684375 -0.82750976 -0.035670128 0.99395865
1.2682617 -0.89729488 -0.036590539 0.9938032
1.2681249 -0.94590819 -0.037261009 0.99369001
14.13832 -11.109815 -0.42349774 0.93058264
13.997031 -11.286122 -0.42348015 0.93058544
13.707812 -11.63331 -0.42344415 0.93059117
13.559921 -11.804121 -0.42342579 0.93059421
13.409902 -11.973027 -0.42340714 0.93059731
13.257773 -12.140029 -0.42338815 0.9306004
13.103203 -12.304746 -0.4233543 0.93060541
12.946953 -12.467852 -0.42333484 0.93060845
12.628398 -12.788086 -0.42329514 0.93061459
12.466054 -12.945117 -0.4232749 0.93061805
12.301875 -13.100137 -0.42325446 0.93062103
10.350469 -12.836631 -0.38837314 0.93615216
9.8231831 -12.829609 -0.38057053 0.93739408
9.5673237 -12.826211 -0.37687045 0.93798304
8.8282614 -12.816406 -0.3665396 0.93963087
8.3572073 -12.810156 -0.36023867 0.94063723
8.127656 -12.807109 -0.35725257 0.94111449
7.4607615 -12.798242 -0.34890652 0.94244957
7.2452145 -12.79539 -0.34632152 0.94286388
6.6183004 -12.789804 -0.33917183 0.94400966
6.4146094 -12.787363 -0.33694115 0.94436723
6.0150781 -12.782627 -0.33272746 0.9450435
5.8189454 -12.780313 -0.33073941 0.94536304
5.4456639 -12.804257 -0.3277128 0.94584918
5.2556052 -12.801738 -0.3259317 0.9461354
5.0646677 -12.791855 -0.32402295 0.94644046
5.5324411 -14.503144 -0.36559263 0.93978196
5.9698434 -16.914589 -0.42246291 0.93074626
5.1111326 -17.188808 -0.42235529 0.93076319
4.2399607 -17.419403 -0.4222461 0.93078047
4.0204492 -17.470156 -0.42221859 0.93078488
3.3585155 -17.605791 -0.42213553 0.93079805
3.1367967 -17.645439 -0.42210773 0.93080246
2.691992 -17.716377 -0.42205191 0.93081123
2.2456641 -17.776073 -0.42199591 0.93082005
0.81255859 -9.2133589 -0.21784149 0.96366966
1.3492968 -17.861679 -0.42188337 0.93083787
1.124668 -17.876036 -0.42185515 0.93084234
0.67500001 -17.8962 -0.42179865 0.93085146
0.22503906 -17.905058 -0.42174217 0.93086058
-0.44988281 -17.897276 -0.42165732 0.93087381
-0.89939451 -17.87789 -0.42160082 0.93088287
-1.3482226 -17.847403 -0.4215444 0.93089122
-1.5722656 -17.827772 -0.42151627 0.93089598
-1.7960546 -17.805429 -0.42148811 0.93090039
-2.0195117 -17.780293 -0.42146 0.93090475
-2.9095311 -17.651552 -0.42134804 0.93092293
-3.3517773 -17.570625 -0.42129236 0.93093139
-4.0108399 -17.428358 -0.42120939 0.93094462
-4.4469528 -17.319794 -0.4211545 0.93095332
-4.6639647 -17.261415 -0.42112717 0.93095767
-5.0956054 -17.1366 -0.42107281 0.93096608
-5.5239649 -17.000977 -0.42101887 0.93097448
-5.7367773 -16.929111 -0.42099205 0.93097889
-6.1596093 -16.777479 -0.42093876 0.9309873
-6.3695898 -16.697754 -0.42091227 0.93099123
-6.5784569 -16.615294 -0.42088595 0.9309957
-6.7862496 -16.530233 -0.42085975 0.93100011
-7.1986523 -16.35248 -0.42080772 0.93100816
-7.4031248 -16.259756 -0.42078194 0.93101215
-7.6063867 -16.164473 -0.42075628 0.93101621
-8.2087498 -15.863418 -0.42068031 0.93102825
-8.4069729 -15.758124 -0.42065528 0.931032
-8.6037502 -15.650195 -0.42063046 0.93103647
-8.7992573 -15.54 -0.42060578 0.93104005
-8.9932814 -15.427265 -0.42058128 0.9310441
-9.3771095 -15.194697 -0.42053279 0.93105149
-9.5667572 -15.074746 -0.42050883 0.93105549
-9.7549019 -14.952587 -0.42048508 0.93105888
-9.9413862 -14.827851 -0.42046151 0.93106323
-6.4435935 -9.1073532 -0.2627576 0.95634389
-10.491543 -14.440391 -0.42039195 0.93107355
-11.026484 -14.032344 -0.42032433 0.93108475
-11.201426 -13.89206 -0.42030218 0.93108779
-11.715176 -13.457831 -0.42023715 0.93109846
-11.882852 -13.308926 -0.42021593 0.9311015
-12.048476 -13.157822 -0.42019495 0.9311052
-12.212265 -13.004736 -0.42017424 0.93110853
-12.37416 -12.849668 -0.42015374 0.93111151
-12.534003 -12.69251 -0.42013347 0.93111491
-12.691953 -12.533457 -0.42011344 0.93111783
-1.0371484 -0.92605466 -0.032747954 0.99445224
-1.0372461 -0.90292966 -0.032389641 0.9945128
-1.0373242 -0.88033199 -0.032043684 0.99457121
-1.0374609 -0.83652341 -0.03138813 0.99468189
-1.0375586 -0.79442382 -0.030778008 0.99478513
-1.0376172 -0.7739746 -0.030488815 0.99483401
-1.0376953 -0.75392574 -0.030209731 0.99488109
-1.0589062 -0.70994139 -0.030026549 0.99491209
-1.1187109 -0.70993161 -0.031206245 0.99471271
-1.1503906 -0.70994139 -0.031838797 0.99460584
-1.1833984 -0.70993161 -0.032503393 0.99449366
-1.3307421 -0.70994139 -0.035523415 0.99398339
-1.4152734 -0.70995116 -0.037291791 0.99368483
-1.6693164 -0.70994139 -0.042724151 0.99276823
-1.7292968 -0.70994139 -0.044028472 0.99254841
-1.7783984 -0.70413083 -0.045049477 0.99237621
-1.7783203 -0.65288085 -0.04461807 0.99244905
-15.877382 -5.6037402 -0.39655742 0.93485141
-16.012383 -5.2027245 -0.39654002 0.93485457
-16.076172 -5.0010056 -0.39653179 0.93485582
-16.196289 -4.5953026 -0.39651626 0.93485767
-18.566542 -4.5191603 -0.45005539 0.92639399
-20.701054 -4.4908595 -0.49889961 0.91873842
-20.76123 -4.2314649 -0.49903211 0.91871828
-20.860508 -3.7082908 -0.49901912 0.91872019
-20.905233 -3.4458494 -0.49901322 0.91872102
-21.019648 -2.6553807 -0.49899799 0.91872323
-21.14414 -1.3302441 -0.49898094 0.91872609
-21.17078 -0.7984668 -0.49897704 0.9187265
-21.179024 -0.53238279 -0.49897569 0.91872692
-18.963827 0.23833007 -0.49925321 0.92692041
-18.959335 0.47661132 -0.49925354 0.92692041
-18.951952 0.71480465 -0.49925423 0.92692
-18.928085 1.1908593 -0.4992567 0.9269197
-18.911621 1.4286133 -0.49925849 0.92691976
-18.892265 1.6661524 -0.49926069 0.9269194
-18.869921 1.9034473 -0.49926323 0.9269191
-18.844765 2.1404297 -0.49926615 0.92691815
-18.816366 2.3770702 -0.49926949 0.92691821
-18.785194 2.6133592 -0.49927315 0.92691749
-18.751036 2.8492382 -0.49927717 0.9269169
-18.673866 3.3196094 -0.49928638 0.92691553
-18.584961 3.7879393 -0.49929702 0.92691398
-18.190586 3.9462597 -0.48999766 0.9282254
-17.792969 4.0947657 -0.4806346 0.92954731
-17.410234 4.2377243 -0.47169644 0.93081099
-17.120508 4.3958302 -0.46530777 0.93171543
-16.902967 4.5671091 -0.46091661 0.93233722
-16.689413 4.7352147 -0.45668143 0.93293786
-16.479765 4.9003124 -0.45259234 0.93351763
-1.7791797 0.65320313 -0.049893338 0.99244487
-1.7792187 0.67871094 -0.050129507 0.99240923
-1.7792578 0.70445311 -0.050375897 0.99237204
-1.7292968 0.70994139 -0.049210548 0.99254787
-1.5592577 0.70995116 -0.045101624 0.99316794
-1.4607812 0.70995116 -0.042755622 0.99352217
-1.4152539 0.70995116 -0.041681059 0.99368447
-1.3307421 0.70996094 -0.039704666 0.99398297
-1.2913867 0.70996094 -0.038793981 0.9941206
-1.2178515 0.70996094 -0.037109297 0.99437517
-1.1833984 0.70994139 -0.036328927 0.99449325
-1.1187109 0.70994139 -0.034878995 0.99471235
-1.0882422 0.70996094 -0.034204483 0.99481428
-1.0369726 0.75342774 -0.033742368 0.99488425
-1.0368359 0.7938965 -0.034376714 0.99478835
-1.0367968 0.81471676 -0.034711301 0.99473768
-1.0365624 0.87970704 -0.03578949 0.99457473
-1.0364257 0.92538083 -0.036575735 0.99445581
-13.678711 13.172529 -0.49990347 0.92682862
-13.344453 13.513212 -0.49994513 0.9268229
-13.174101 13.6804 -0.49996635 0.9268201
-13.001758 13.845488 -0.49998781 0.92681688
-12.827305 14.008408 -0.50000954 0.92681372
-12.650879 14.169111 -0.50003159 0.9268105
-12.472304 14.327568 -0.50005382 0.92680764
-12.109414 14.637793 -0.50009912 0.92680126
-11.169024 15.372861 -0.50021648 0.92678475
-3.6374609 6.0633202 -0.18613321 0.97210383
-3.3291016 6.2401266 -0.18618387 0.97209638
-5.1128907 9.880703 -0.29286492 0.95646012
-4.8398633 9.9585152 -0.29147378 0.95666248
-7.8804102 17.307978 -0.50062764 0.92672676
-7.6626949 17.406591 -0.50065488 0.92672294
-5.9139843 13.905566 -0.39778849 0.94132704
-5.739121 13.97955 -0.39780852 0.94132388
-5.2087302 14.18749 -0.39785269 0.94131762
-5.0301952 14.252275 -0.39786759 0.94131583
-4.8508983 14.314931 -0.39788252 0.94131356
-4.4899802 14.433398 -0.39791262 0.94130927
-4.3084373 14.489297 -0.39792773 0.94130683
-3.5755272 14.689687 -0.39798886 0.94129825
-3.3907812 14.734023 -0.39800426 0.94129604
-3.2055078 14.776034 -0.39801973 0.94129384
-3.0196874 14.815752 -0.39803523 0.94129157
-2.083828 14.978974 -0.39811337 0.94128072
-1.7630078 15.521533 -0.41122481 0.93940651
-1.5679101 15.543447 -0.41124931 0.93940276
-1.176914 15.579784 -0.41129839 0.93939584
-0.98113281 15.594257 -0.41132301 0.93939239
-0.58898437 15.615829 -0.41137221 0.93938547
-0.39273438 15.622978 -0.41139689 0.93938178
0 15.629814 -0.41144621 0.93937463
0.39283201 15.626719 -0.41149557 0.93936771
0.58917969 15.621484 -0.41152027 0.93936419
1.3736719 15.57581 -0.41161886 0.93935037
1.9601171 15.515791 -0.41169262 0.9393397
2.1550391 15.490829 -0.41171715 0.9393363
2.349668 15.463506 -0.41174161 0.9393326
3.1243749 15.329551 -0.41183913 0.93931866
3.2900391 13.51666 -0.36620903 0.94585639
3.4699218 13.514277 -0.36729667 0.94569999
3.5237498 13.041513 -0.3556205 0.94737959
3.1740234 10.674248 -0.29315373 0.95641816
3.4575391 10.641162 -0.29453924 0.95621675
3.6053319 10.639189 -0.29571521 0.95604581
3.7543163 10.637217 -0.29694748 0.95586663
3.9045897 10.635224 -0.29823869 0.95567918
4.2091794 10.631182 -0.30099848 0.95527852
4.3636913 10.62913 -0.30246845 0.95506495
4.5196872 10.62706 -0.30400068 0.95484239
4.6773243 10.62497 -0.30559963 0.95461053
4.4089451 9.6834955 -0.28009129 0.95831895
1.8605273 3.9537988 -0.1150291 0.98266721
1.8809375 3.8701952 -0.11327568 0.98292917
1.8619336 3.7116797 -0.10931717 0.98352146
1.9633789 3.6801171 -0.10980194 0.98344833
2.0263672 3.6858983 -0.11072487 0.98331028
2.0866015 3.6850488 -0.11147708 0.98319769
2.1380858 3.6676464 -0.11175667 0.98315614
4.7482028 7.9148536 -0.24297062 0.96374142
5.0206251 7.9112401 -0.24665567 0.9632017
5.1599998 7.9093847 -0.24860147 0.96291709
5.5077734 7.9958982 -0.25559103 0.96189445
5.9598436 7.989902 -0.26239797 0.96089971
6.2751169 7.9857125 -0.26735601 0.96017575
6.6027341 7.9813571 -0.27268207 0.95939893
6.7541599 7.9586229 -0.27478462 0.95909256
6.8655076 7.8867188 -0.27525747 0.95902324
7.2174997 7.8820505 -0.28133774 0.95813733
7.3994918 7.8796287 -0.28454843 0.95766985
7.6723242 7.9671383 -0.29116929 0.95670682
8.6860151 7.9536815 -0.31003398 0.95396715
9.1300001 7.9478025 -0.3186495 0.95271862
9.2557421 7.8549805 -0.31956768 0.95258576
10.358965 7.9314842 -0.34344807 0.94913435
1.2674609 0.87306637 -0.040515099 0.99386054
1.2676171 0.82699215 -0.039842222 0.99396211
1.2676562 0.8044824 -0.039523277 0.99401039
1.2677929 0.76056641 -0.038918801 0.9941017
1.2678516 0.73908204 -0.038632356 0.99414498
1.2914063 0.70994139 -0.038793791 0.9941206
1.3307226 0.70995116 -0.039704476 0.99398303
1.3719921 0.70997071 -0.040665589 0.99383771
1.4152734 0.70996094 -0.041680984 0.99368435
1.4607812 0.70994139 -0.042755432 0.99352217
1.50875 0.70997071 -0.043893889 0.99335009
1.793164 0.70994139 -0.050768357 0.99231267
1.9337499 0.70996094 -0.054227445 0.99179119
2.0059764 0.65177733 -0.055523489 0.99159575
14.625937 4.149756 -0.40021858 0.94097942
14.677187 3.9657128 -0.40022522 0.94097841
14.726132 3.7810254 -0.40023154 0.94097733
15.112305 3.0801365 -0.40600279 0.94015229
16.049179 3.061543 -0.43010452 0.93671429
18.356367 3.0257127 -0.48974162 0.92826128
18.963671 2.6381836 -0.5040161 0.92624938
19.024239 2.1608105 -0.50402421 0.92624843
19.09248 1.4422852 -0.50403357 0.92624724
19.12289 0.96204102 -0.50403792 0.92624652
19.133554 0.72167969 -0.50403953 0.92624623
19.145761 0.24061523 -0.50404155 0.92624581
19.133633 -0.72164059 -0.50404108 0.92624593
19.050196 -1.9216113 -0.50403184 0.9262473
