# .PCD v0.7 - Point Cloud Data file format
VERSION 0.7
FIELDS x y z intensity
SIZE 4 4 4 4
TYPE F F F F
COUNT 1 1 1 1
WIDTH 1085
HEIGHT 1
VIEWPOINT 0 0 0 1 0 0 0
POINTS 1085
DATA ascii
-2.0167773 5.49333 -0.38151434 0.97681594
-1.8764843 5.5374999 -0.38118476 0.97683567
-1.8192577 5.5990524 -0.38381988 0.97667748
-1.8157812 5.8369336 -0.3985306 0.97579449
-1.7422656 5.8592381 -0.39852744 0.97579473
-1.6684766 5.8806348 -0.39852431 0.97579485
-1.594414 5.9010839 -0.39852118 0.97579509
-1.2958984 5.9735742 -0.39850935 0.97579575
-1.0698047 6.0180469 -0.39850172 0.97579622
-0.99408203 6.0309763 -0.39849949 0.9757964
-0.61343747 6.0813379 -0.39848942 0.975797
-0.46039063 6.0947948 -0.39848587 0.97579718
-0.23033203 6.1077247 -0.39848113 0.97579753
0 6.112031 -0.39847675 0.97579765
0.15359375 6.1100388 -0.39847404 0.97579789
0.23039062 6.1075974 -0.39847273 0.97579801
0.38378906 6.0998631 -0.39847031 0.97579807
0.46039063 6.0945215 -0.39846915 0.97579825
0.68976563 6.0728025 -0.3984659 0.97579837
0.76601559 6.0636325 -0.39846492 0.97579849
0.84214842 6.0535154 -0.39846396 0.97579849
0.91816401 6.0424609 -0.39846304 0.97579849
0.99402344 6.0304294 -0.39846221 0.97579855
1.0697266 6.0174413 -0.3984614 0.97579861
1.3706836 5.9560547 -0.39845866 0.97579879
1.5199219 5.9197068 -0.39845759 0.9757989
1.6682031 5.8796387 -0.39845672 0.9757989
1.1947851 3.8406444 -0.26222864 0.98400635
1.4499804 3.6622167 -0.25679669 0.98433524
1.4976367 3.6479394 -0.25709218 0.98431718
2.462461 5.5936718 -0.3984552 0.97579896
2.8088086 5.4280176 -0.39845625 0.97579896
3.0114257 5.3183103 -0.39845747 0.9757989
3.0780272 5.2800684 -0.39845794 0.97579879
3.1441405 5.2409863 -0.39845848 0.97579873
3.2097654 5.2010641 -0.39845908 0.97579873
3.2748828 5.1603222 -0.3984597 0.97579867
3.3394139 5.1187696 -0.39846033 0.97579879
3.403496 5.0763965 -0.39846107 0.97579873
3.4670312 5.0332618 -0.39846182 0.97579861
3.6542969 4.8990331 -0.39846435 0.97579849
3.8958788 4.7092967 -0.39846832 0.97579819
3.9547656 4.6599803 -0.39846945 0.97579807
4.0130076 4.6099219 -0.39847061 0.97579807
4.1839452 4.4554396 -0.39847431 0.97579783
4.2396092 4.4025388 -0.39847559 0.97579777
4.3489256 4.2946286 -0.39847839 0.97579765
4.4555273 4.1840234 -0.39848128 0.97579741
4.5592966 4.0707421 -0.39848441 0.9757973
4.6601954 3.9549413 -0.39848763 0.975797
4.7095313 3.8960838 -0.39848933 0.97579694
4.7581248 3.8365917 -0.39849105 0.97579694
4.8059959 3.7765234 -0.39849284 0.97579676
4.8531251 3.7158689 -0.39849463 0.97579652
1.2556055 0.88835937 -0.10027587 0.99385351
1.2562695 0.79725581 -0.097001992 0.99405354
1.2564062 0.77537107 -0.096253775 0.99409932
1.2565234 0.75380856 -0.09553127 0.99414361
1.2568359 0.71165037 -0.094162211 0.99422717
1.2914063 0.70996094 -0.096077457 0.99411011
1.3719921 0.70996094 -0.10071285 0.99382681
1.50875 0.70996094 -0.10870796 0.99333835
1.5592968 0.70995116 -0.11169986 0.99315572
2.0238671 0.68583006 -0.13931739 0.99147075
7.3458591 2.2851758 -0.50155652 0.96963292
7.3740234 2.1926856 -0.5015561 0.9696328
7.4267969 2.0066795 -0.50155544 0.9696328
7.4971094 1.7253222 -0.50155449 0.96963298
7.5182028 1.6309863 -0.50155431 0.96963298
7.5380859 1.536377 -0.50155401 0.96963304
7.5742965 1.3464649 -0.5015536 0.9696331
7.5906248 1.2512012 -0.50155348 0.9696331
7.619668 1.060039 -0.50155312 0.9696331
7.6542187 0.77209961 -0.50155288 0.96963304
7.6711912 0.57948244 -0.50155282 0.9696331
7.6778512 0.48304686 -0.50155276 0.96963316
7.6875777 0.2899414 -0.50155282 0.9696331
7.6930466 1.953125e-05 -0.501553 0.9696331
7.6924605 -0.096660152 -0.50155312 0.96963304
7.6906443 -0.19333008 -0.50155324 0.96963298
7.6833396 -0.38652343 -0.5015536 0.9696331
7.6712108 -0.57948244 -0.50155401 0.96963304
7.6439257 -0.86821288 -0.50155479 0.96963298
7.6324019 -0.96418941 -0.50155509 0.96963304
7.6197653 -1.0600293 -0.50155538 0.96963274
7.5743551 -1.3464649 -0.50155652 0.96963286
7.5381637 -1.5363867 -0.50155729 0.96963274
7.4749022 -1.8194042 -0.50155866 0.96963274
7.4268165 -2.0066893 -0.50155967 0.96963274
2.0238867 -0.65759766 -0.13873821 0.99150604
2.0238671 -0.68582028 -0.13931771 0.99147081
2.0238671 -0.7142871 -0.13992405 0.9914338
1.8611718 -0.70994139 -0.12986511 0.99204695
1.7931249 -0.70995116 -0.12573364 0.9922992
1.7293359 -0.70994139 -0.121875 0.99253458
1.6693164 -0.70994139 -0.11826431 0.99275494
1.6127343 -0.70994139 -0.11487927 0.99296159
1.5592968 -0.70996094 -0.11169975 0.99315572
1.5087109 -0.70994139 -0.10870785 0.99333853
1.4608203 -0.70993161 -0.10588852 0.9935106
1.3719921 -0.70994139 -0.10071289 0.99382687
1.3307421 -0.70994139 -0.098332711 0.99397236
1.25625 -0.79722655 -0.097001798 0.99405366
1.2560937 -0.81944335 -0.097777553 0.99400628
1.2557812 -0.86500973 -0.099413529 0.9939062
1.2554492 -0.91208982 -0.10116874 0.99379897
6.1085935 -4.6771193 -0.50158501 0.96963125
6.0493751 -4.7535157 -0.50158608 0.96963114
5.8572068 -4.8454981 -0.49559787 0.96998823
5.7072263 -4.8435059 -0.48801917 0.97044033
5.4208202 -4.8399611 -0.47378147 0.97129011
5.2837696 -4.8382907 -0.46708122 0.97169036
5.1505466 -4.8366599 -0.4606401 0.97207528
5.0208983 -4.8350878 -0.45444494 0.97244567
4.7717576 -4.8320508 -0.44274622 0.97314531
4.6518555 -4.830615 -0.43722194 0.97347593
4.4207811 -4.8277731 -0.42677349 0.97410148
4.3092966 -4.8264356 -0.42183357 0.97439736
4.2009373 -4.8258009 -0.41713172 0.97467917
4.0968356 -4.827363 -0.4127835 0.9749397
3.9948046 -4.828867 -0.40858695 0.97519135
3.8947852 -4.8303027 -0.40453497 0.97543436
3.6549609 -4.8999414 -0.39853728 0.97579408
3.5931249 -4.9454784 -0.39853835 0.97579402
3.5307031 -4.9902635 -0.39853945 0.97579396
3.4677343 -5.0342383 -0.39854056 0.9757939
3.4041991 -5.0774412 -0.39854172 0.97579378
3.3401365 -5.1198339 -0.39854285 0.97579372
3.2755468 -5.161406 -0.39854398 0.97579372
3.1448047 -5.2421384 -0.39854634 0.97579354
3.0787108 -5.28125 -0.3985475 0.97579348
2.945039 -5.3569822 -0.39854982 0.9757933
2.8774998 -5.3935742 -0.39855102 0.97579324
2.8094921 -5.4293165 -0.39855224 0.97579324
2.5332031 -5.5637207 -0.3985571 0.97579283
2.3217382 -5.6552539 -0.39856079 0.97579271
2.1788671 -5.7118649 -0.3985633 0.97579259
2.1069336 -5.7388086 -0.39856452 0.97579247
1.9620702 -5.7899804 -0.39856708 0.97579235
1.8159765 -5.8374901 -0.39856958 0.97579217
1.6686718 -5.8813376 -0.39857215 0.97579199
1.5946484 -5.9018359 -0.39857346 0.97579199
1.4458984 -5.9400973 -0.39857605 0.97579175
1.3710938 -5.9578223 -0.3985773 0.97579169
1.2961328 -5.9745994 -0.39857858 0.97579163
1.1456054 -6.005322 -0.39858118 0.97579145
0.84242183 -6.0553708 -0.39858642 0.97579116
0.69 -6.0746875 -0.39858904 0.97579092
0.61359376 -6.082871 -0.39859036 0.97579098
0.53710938 -6.090127 -0.39859167 0.97579086
0.46054685 -6.0964355 -0.39859298 0.97579074
0.38388672 -6.1017284 -0.39859429 0.9757908
0.15365234 -6.1119432 -0.39859825 0.97579044
0 -6.1139159 -0.39860085 0.97579026
-0.1536328 -6.1120214 -0.39860344 0.97579014
-0.3071875 -6.1062694 -0.39860609 0.97579002
-0.46054685 -6.0966406 -0.39860868 0.9757899
-0.53712887 -6.0904102 -0.39861 0.97578979
-0.69 -6.0750194 -0.39861259 0.97578967
-0.91849607 -6.0447559 -0.39861643 0.97578943
-0.99441403 -6.0327735 -0.39861768 0.97578925
-1.1457031 -6.005908 -0.39862025 0.97578913
-1.2210547 -5.9910645 -0.3986215 0.97578907
-1.2962695 -5.9752536 -0.39862281 0.97578901
-1.3712499 -5.9584961 -0.39862403 0.97578901
-1.4460156 -5.9408493 -0.39862531 0.97578877
-1.6689258 -5.8821778 -0.39862904 0.97578859
-1.7426953 -5.8607421 -0.39863029 0.97578859
-1.8162304 -5.8383985 -0.39863151 0.97578847
-1.9623828 -5.790957 -0.39863396 0.9757883
-2.0349998 -5.7658691 -0.39863518 0.97578824
-2.3221874 -5.6563964 -0.39863995 0.97578794
-2.4635937 -5.5962791 -0.39864227 0.97578782
-2.5337305 -5.5649219 -0.39864343 0.9757877
-2.6034374 -5.5326462 -0.3986446 0.9757877
-2.7416992 -5.465498 -0.39864689 0.97578752
-2.8101366 -5.4306149 -0.39864802 0.97578758
-2.8781641 -5.3949022 -0.39864913 0.97578746
-3.2112889 -5.2035937 -0.39865461 0.97578716
-3.2764063 -5.1628613 -0.39865568 0.9757871
-3.3410742 -5.1212792 -0.39865673 0.97578698
-3.4051757 -5.0788965 -0.3986578 0.97578692
-3.4687109 -5.0357423 -0.39865881 0.97578686
-3.5317578 -4.9917579 -0.39865986 0.97578675
-3.5942187 -4.9470019 -0.39866087 0.97578669
-3.6560936 -4.9014549 -0.39866188 0.97578669
-3.7781444 -4.8080664 -0.39866385 0.97578651
-3.8382616 -4.7602148 -0.39866486 0.97578645
-3.9157813 -4.7333789 -0.40050682 0.975676
-4.0137696 -4.7295408 -0.40441766 0.9754414
-4.1136718 -4.7255759 -0.4084664 0.97519851
-4.2155466 -4.7214746 -0.41266 0.97494721
-4.4276562 -4.7149706 -0.4216865 0.97440624
-4.5390625 -4.7134862 -0.42662147 0.97411066
-5.0126562 -4.7071972 -0.44831061 0.97281253
-1.025625 -0.93916011 -0.090666428 0.99444109
-1.0260156 -0.89318359 -0.08868847 0.99456197
-1.0262109 -0.87092769 -0.087751612 0.99461925
-1.0264062 -0.84910154 -0.086847648 0.9946745
-1.0267187 -0.80679685 -0.08513359 0.99477947
-1.0306641 -0.70994139 -0.081593663 0.99499589
-1.0589062 -0.70995116 -0.083116457 0.99490267
-1.0882422 -0.70995116 -0.084710956 0.9948051
-1.1187109 -0.70994139 -0.086381413 0.99470299
-1.1503906 -0.70995116 -0.088133581 0.99459589
-1.1834179 -0.70994139 -0.089972682 0.99448341
-1.2178124 -0.70993161 -0.091905169 0.99436545
-1.3719727 -0.70995116 -0.10071266 0.99382693
-1.4152539 -0.70994139 -0.10322784 0.99367332
-1.6126952 -0.70994139 -0.11487945 0.99296176
-1.6692969 -0.70995116 -0.11826442 0.992755
-1.7911718 -0.65758789 -0.12439789 0.99238068
-7.2581639 -2.5616894 -0.50181061 0.9696179
-7.3496094 -2.2863379 -0.50181186 0.96961766
-7.3777733 -2.1937988 -0.50181222 0.96961761
-7.4305859 -2.007705 -0.50181293 0.96961755
-7.455195 -1.9141797 -0.50181329 0.96961766
-7.4786716 -1.8203417 -0.50181359 0.96961766
-7.5220699 -1.6318164 -0.50181413 0.96961761
-7.5607028 -1.4422656 -0.50181454 0.96961761
-7.5946093 -1.2518262 -0.50181496 0.96961743
-7.6236324 -1.0605664 -0.5018152 0.96961755
-7.6818748 -0.48328122 -0.50181562 0.96961749
-7.6873436 -0.3867285 -0.50181562 0.96961749
-7.6915817 -0.29008788 -0.50181556 0.96961755
-7.696445 -0.096718751 -0.50181544 0.96961755
-7.3813281 0.09276367 -0.5018099 0.97083789
-7.3795505 0.18551758 -0.50180972 0.97083801
-7.3766208 0.27823243 -0.50180954 0.97083807
-7.3673043 0.46351561 -0.50180924 0.97083801
-7.3608985 0.55606443 -0.50180906 0.97083801
-7.3533201 0.64852536 -0.50180882 0.97083807
-7.3446288 0.74085933 -0.50180852 0.97083789
-7.3346872 0.83310544 -0.50180829 0.97083813
-7.3236718 0.92520505 -0.50180799 0.97083801
-7.2510934 1.3832226 -0.50180626 0.97083813
-7.2140231 1.5650097 -0.50180542 0.97083819
-7.193789 1.6555371 -0.50180501 0.97083819
-7.1015038 2.0148828 -0.50180304 0.97083825
-7.0485935 2.1927147 -0.50180191 0.97083837
-7.0204687 2.2811034 -0.50180137 0.97083843
-1.7920312 0.65791988 -0.12976989 0.99237561
-1.7922266 0.70959961 -0.13103507 0.99230164
-1.6692578 0.70995116 -0.12331245 0.9927538
-1.5087109 0.70995116 -0.11334797 0.99333727
-1.4152343 0.70996094 -0.10763367 0.99367219
-1.2178515 0.70995116 -0.095827863 0.9943642
-1.1186719 0.70996094 -0.090068735 0.9947021
-1.0882031 0.70996094 -0.088326454 0.99480426
-1.0588866 0.70995116 -0.086664006 0.99490184
-1.0306641 0.70995116 -0.0850766 0.99499494
-1.0265235 0.74581051 -0.086254731 0.9949258
-1.0263281 0.76560545 -0.087043032 0.9948796
-1.0260156 0.8062402 -0.088705711 0.99478209
-1.0258398 0.82716793 -0.089582212 0.99473065
-1.0256641 0.84852535 -0.090490565 0.99467731
-5.3807421 5.0528708 -0.50177044 0.97084016
-5.2520509 5.1864743 -0.50176811 0.97084028
-5.1864452 5.2520509 -0.50176698 0.97084033
-4.7433395 4.9256544 -0.46485168 0.97295636
-4.4372263 4.7251658 -0.44063345 0.974347
-3.9490232 4.4230175 -0.40307289 0.97650796
-3.8498046 4.4224806 -0.39858526 0.97676647
-3.7939842 4.4705467 -0.39858642 0.97676623
-3.6227734 4.6103611 -0.39858681 0.97676629
-3.5057812 4.6999316 -0.39858708 0.97676629
-3.3261523 4.8287692 -0.39858809 0.97676617
-3.2652342 4.8701758 -0.39858857 0.97676611
-3.2037499 4.91083 -0.39858913 0.97676617
-3.1418164 4.9507031 -0.39858976 0.97676611
-3.0793359 4.9898047 -0.39859048 0.97676611
-2.9530077 5.0656543 -0.39859214 0.97676587
-2.8891015 5.1023436 -0.39859307 0.97676599
-2.8247654 5.1382618 -0.39859238 0.97676587
-2.6946874 5.2075 -0.39858451 0.97676647
-2.6007617 5.1845212 -0.39429146 0.97701365
-2.4106641 5.1229782 -0.38488147 0.97755617
-2.3319921 5.1218262 -0.38256243 0.9776898
-2.2593164 5.1322556 -0.3811917 0.9777689
-2.1946485 5.160244 -0.3811906 0.9777689
-1.943164 5.2928224 -0.38327837 0.97764856
-1.8584374 5.484199 -0.39362997 0.97705185
-1.8116796 5.57583 -0.39854145 0.97676891
-1.670957 5.6195116 -0.39853537 0.97676927
-1.4579687 5.6783786 -0.39852652 0.97676969
-1.3864453 5.6962109 -0.39852372 0.97676992
-1.2428515 5.7291698 -0.39851809 0.97677022
-1.0260546 5.7718453 -0.39851147 0.97677058
-0.95341796 5.7842579 -0.39850932 0.9767707
-0.80775386 5.8063183 -0.39850521 0.976771
-0.6615625 5.8247361 -0.39850152 0.97677118
-0.58833981 5.8325682 -0.39849967 0.97677124
-0.51499999 5.8394823 -0.39849791 0.97677135
-0.4415625 5.8454685 -0.39849636 0.97677141
-0.29453126 5.8546677 -0.39849326 0.97677165
0 5.8619919 -0.39848763 0.97677195
0.07367187 5.8614941 -0.39848629 0.97677207
0.22093749 5.8577638 -0.39848375 0.97677219
0.4415625 5.8452344 -0.3984803 0.97677237
0.51496094 5.8391991 -0.39847922 0.97677243
0.58832031 5.8322458 -0.39847818 0.97677255
0.73466796 5.8155856 -0.39847624 0.97677267
0.88058591 5.7952733 -0.39847448 0.97677273
1.0259765 5.7712889 -0.39847291 0.97677279
1.0983984 5.7579293 -0.39847216 0.97677284
1.1706641 5.7436619 -0.39847144 0.9767729
1.3863281 5.6954393 -0.39846969 0.97677296
1.4577539 5.6775389 -0.39846924 0.97677308
1.2370508 3.6505175 -0.26201728 0.98466551
1.3475391 3.6703515 -0.26578748 0.98444653
1.4497266 3.6615527 -0.26769921 0.98433518
2.4289453 5.3347559 -0.398467 0.97677314
2.4957812 5.3038087 -0.39846718 0.97677314
2.5622265 5.2720509 -0.39846739 0.97677308
1.9178905 3.5948436 -0.27697295 0.98379725
1.9685156 3.5807128 -0.27776861 0.98375118
2.888242 5.1007614 -0.39846909 0.97677302
2.9521093 5.0640526 -0.39846954 0.97677308
3.0155272 5.0265918 -0.39847007 0.9767729
3.1408594 4.9492383 -0.39847121 0.97677296
3.2028515 4.9093943 -0.39847186 0.97677279
3.3252344 4.827373 -0.39847326 0.97677267
3.3856249 4.7851954 -0.39847404 0.97677273
3.4454882 4.7422853 -0.39847484 0.97677273
3.5048242 4.6986423 -0.39847568 0.97677261
3.5635936 4.6542282 -0.3984766 0.97677261
3.7929688 4.4693456 -0.39848056 0.97677237
4.0661716 4.2224317 -0.39848647 0.97677201
4.1189451 4.1710253 -0.39848778 0.97677189
4.1710157 4.1189356 -0.39848915 0.97677195
4.273242 4.0128417 -0.39849192 0.97677177
4.4215236 3.8489842 -0.39849648 0.97677141
4.4695311 3.7931347 -0.39849803 0.97677141
4.5168748 3.7366698 -0.39849967 0.9767713
4.5635157 3.6796484 -0.39850131 0.97677112
1.2544141 0.93567383 -0.10637981 0.99374545
1.2545702 0.91149414 -0.10541626 0.99380207
1.2549609 0.86444336 -0.10358807 0.99390906
1.2551172 0.84150386 -0.10272152 0.9939599
1.2552735 0.81892574 -0.1018848 0.99400908
1.2554492 0.79672849 -0.10107704 0.99405634
1.255625 0.77488279 -0.10029766 0.99410194
1.2557422 0.75333005 -0.099545322 0.99414617
1.2558984 0.73211914 -0.098819807 0.99418867
1.2560546 0.71121091 -0.098119736 0.99422967
1.2914063 0.70996094 -0.10017803 0.99410903
1.3719921 0.70996094 -0.10501133 0.99382567
1.4608008 0.70995116 -0.11040821 0.99350941
1.6127343 0.70995116 -0.11978256 0.99296027
1.7292968 0.70996094 -0.12707706 0.99253333
1.7931445 0.70995116 -0.13110016 0.99229771
2.0238085 0.71426755 -0.14589077 0.99143249
2.0238085 0.68580079 -0.14525878 0.99146944
2.0237889 0.65758789 -0.14465474 0.99150485
7.0452342 2.1916602 -0.5015617 0.97085208
7.1689062 1.7449609 -0.50156009 0.97085226
7.1902928 1.6547265 -0.50155979 0.97085214
7.2295895 1.4735156 -0.50155938 0.9708522
7.2643356 1.2913672 -0.50155896 0.9708522
7.3200388 0.92473632 -0.50155842 0.97085226
7.3409762 0.74049801 -0.50155824 0.9708522
7.3496871 0.64819336 -0.50155818 0.97085226
7.3636718 0.46329102 -0.50155813 0.9708522
7.3729882 0.27807617 -0.50155818 0.9708522
7.3758984 0.18541992 -0.50155824 0.9708522
7.3776169 0.092724606 -0.5015583 0.97085232
7.3782029 -0 -0.50155842 0.97085232
7.368906 -0.37072265 -0.50155896 0.9708522
7.3497262 -0.64819336 -0.50155956 0.97085214
7.2945309 -1.1084082 -0.50156099 0.97085208
7.2800388 -1.1999902 -0.50156134 0.97085202
7.2643747 -1.2913672 -0.5015617 0.97085208
7.2475977 -1.3825488 -0.50156212 0.97085196
7.2105856 -1.564248 -0.50156289 0.9708519
7.1903515 -1.6547167 -0.50156337 0.97085196
7.1465235 -1.8349023 -0.50156426 0.97085184
7.0981641 -2.013916 -0.50156534 0.97085178
7.0452929 -2.1916797 -0.50156641 0.97085184
2.023828 -0.65757811 -0.14465481 0.99150473
2.0237889 -0.71426755 -0.145891 0.99143255
1.9337695 -0.70994139 -0.14003196 0.9917751
1.6127343 -0.70994139 -0.11978237 0.99296033
1.5087109 -0.70994139 -0.11334774 0.99333727
1.4608203 -0.70993161 -0.11040832 0.99350941
1.4152734 -0.70993161 -0.10763378 0.99367207
1.3307421 -0.70994139 -0.10252956 0.99397123
1.2914063 -0.70994139 -0.10017807 0.99410909
1.2555859 -0.77486324 -0.10029754 0.99410212
1.2552735 -0.81892574 -0.10188476 0.99400908
1.2551172 -0.84149414 -0.10272125 0.99395996
1.2549609 -0.86443359 -0.10358802 0.99390906
1.2545702 -0.91149414 -0.10541626 0.99380207
1.2544141 -0.93565428 -0.1063797 0.99374551
5.8585544 -4.485713 -0.50158906 0.97085065
5.7440624 -4.6315331 -0.50159115 0.97085035
5.6853905 -4.7033591 -0.50159222 0.97085035
5.4208202 -4.8399611 -0.49400297 0.97128493
5.0208983 -4.8350878 -0.47384077 0.97244066
4.8946872 -4.8335447 -0.46762571 0.97279721
4.7717576 -4.8320508 -0.46164367 0.97314042
4.6518555 -4.830615 -0.45588249 0.97347111
4.5349216 -4.8291893 -0.45033509 0.97378969
4.4207811 -4.8277926 -0.44499001 0.97409672
4.2003126 -4.8251266 -0.43487325 0.97467816
3.8875389 -4.8213086 -0.42101568 0.97547507
3.7883203 -4.8210154 -0.41679877 0.97571766
3.6923437 -4.8223925 -0.41287553 0.97594351
3.4146092 -4.826211 -0.40188834 0.97657609
3.3258007 -4.8281932 -0.39854279 0.97676879
3.0790234 -4.9892673 -0.3985472 0.97676855
3.0160937 -5.0275488 -0.39854828 0.97676855
2.9526951 -5.0650973 -0.39854938 0.97676837
2.888828 -5.1018066 -0.39855051 0.97676831
2.8244922 -5.1377149 -0.39855167 0.97676831
2.6944921 -5.2071095 -0.39855397 0.97676814
2.6288671 -5.2405663 -0.3985551 0.97676808
2.5628123 -5.2731934 -0.39855629 0.97676808
2.4294922 -5.3359766 -0.39855862 0.9767679
2.3622656 -5.3661032 -0.39855978 0.97676778
2.1583593 -5.4513669 -0.39856333 0.9767676
2.0897264 -5.4780664 -0.39856455 0.97676754
2.0206835 -5.5039062 -0.39856574 0.97676754
1.8817577 -5.5530176 -0.39856818 0.97676724
1.8118163 -5.576201 -0.39856941 0.97676736
1.6711328 -5.6200194 -0.39857185 0.97676712
1.6004297 -5.6405954 -0.39857307 0.976767
1.458125 -5.6790719 -0.39857551 0.97676694
1.2430664 -5.7300487 -0.39857924 0.97676671
1.1710156 -5.7452049 -0.39858049 0.97676671
1.0986913 -5.7595115 -0.39858171 0.97676653
0.95361328 -5.7853222 -0.39858425 0.97676647
0.88083982 -5.796875 -0.3985855 0.97676635
0.51511717 -5.8408494 -0.39859176 0.97676593
0.44167969 -5.8468747 -0.39859307 0.97676593
0.29462889 -5.8561521 -0.39859554 0.97676581
0.14738281 -5.8617477 -0.3985981 0.97676563
0.073691405 -5.8631444 -0.3985993 0.97676563
-0.14734374 -5.8618259 -0.39860308 0.97676533
-0.22101562 -5.8595214 -0.39860433 0.97676528
-0.3682031 -5.8521581 -0.39860687 0.97676516
-0.44167969 -5.8470898 -0.39860809 0.97676504
-0.88089842 -5.7973242 -0.39861551 0.97676462
-0.95369136 -5.7858005 -0.39861679 0.97676456
-1.1710937 -5.7458005 -0.39862046 0.97676432
-1.2431836 -5.7306442 -0.39862162 0.97676432
-1.3151171 -5.7145896 -0.39862281 0.9767642
-1.8121094 -5.5770702 -0.39863116 0.97676378
-2.0210156 -5.5048728 -0.39863464 0.97676355
-2.090039 -5.4790235 -0.39863577 0.97676361
-2.295078 -5.3964353 -0.3986392 0.97676325
-2.4299998 -5.33708 -0.39864144 0.97676313
-2.6294532 -5.2417479 -0.39864475 0.97676295
-2.6951172 -5.2083106 -0.39864585 0.97676283
-2.7603514 -5.1740332 -0.39864689 0.97676283
-2.8251562 -5.1389747 -0.39864799 0.97676271
-2.8895116 -5.1030469 -0.39864901 0.97676277
-3.0168555 -5.0288672 -0.39865112 0.97676259
-3.0798438 -4.9905663 -0.39865214 0.97676253
-3.3871484 -4.7874022 -0.39865714 0.97676224
-3.4470313 -4.744463 -0.39865813 0.97676224
-3.5338867 -4.737617 -0.40178284 0.97658223
-3.9071484 -4.7229395 -0.41668129 0.97572452
-4.0061522 -4.7205567 -0.42087939 0.97548294
-4.6531248 -4.7119627 -0.45017004 0.97379923
-4.8897848 -4.7088184 -0.46146795 0.97315061
-1.0248828 -0.93847656 -0.094466738 0.99444407
-1.0252734 -0.89252925 -0.092407145 0.99456495
-1.0254687 -0.87029296 -0.091431655 0.99462211
-1.0256835 -0.84851563 -0.090490684 0.99467725
-1.0260156 -0.80624998 -0.088705897 0.99478203
-1.0261914 -0.78573239 -0.087859608 0.99483162
-1.0306641 -0.70994139 -0.085076258 0.99499494
-1.0589062 -0.70995116 -0.086663969 0.99490178
-1.1503906 -0.70995116 -0.091895252 0.99459487
-1.1834179 -0.70994139 -0.093813017 0.9944824
-1.2537891 -0.70994139 -0.097946696 0.99423999
-1.5592968 -0.70993161 -0.11646709 0.99315453
-1.6126952 -0.70994139 -0.11978263 0.99296045
-1.6692969 -0.70995116 -0.12331218 0.99275362
-1.7292773 -0.70995116 -0.12707703 0.99253339
-1.7921094 -0.68363279 -0.13038914 0.99233949
-6.9913082 -2.3691406 -0.50180584 0.97083825
-7.020586 -2.2811327 -0.50180626 0.97083801
-7.0486913 -2.1927147 -0.50180662 0.97083801
-7.075664 -2.1039648 -0.50180697 0.97083813
-7.1015625 -2.0149024 -0.50180733 0.97083801
-7.126328 -1.9254882 -0.50180763 0.97083801
-7.1724606 -1.7458007 -0.50180829 0.97083801
-7.1938477 -1.6555371 -0.50180852 0.97083795
-7.2140622 -1.5649999 -0.50180876 0.97083807
-7.2835937 -1.2005762 -0.50180954 0.97083801
-7.3114843 -1.0171484 -0.50180984 0.97083795
-7.3236718 -0.9251855 -0.50180995 0.97083801
-7.3347263 -0.83309567 -0.50181007 0.97083795
-7.3533592 -0.64849609 -0.50181019 0.97083795
-7.3673239 -0.46350583 -0.50181019 0.97083795
-7.3725781 -0.37089843 -0.50181019 0.97083789
-7.3766403 -0.27821288 -0.50181019 0.97083795
-7.3796091 -0.18551758 -0.50181013 0.97083777
-7.3813281 -0.092744142 -0.50181007 0.97083789
-7.0863867 0.26729491 -0.50180465 0.97196388
-7.0774217 0.4452832 -0.50180429 0.97196394
-7.055625 0.71171874 -0.50180364 0.97196388
-7.0355077 0.88878906 -0.5018031 0.97196388
-6.981914 1.2411621 -0.50180185 0.97196406
-6.9657617 1.3287988 -0.50180143 0.97196412
-6.948535 1.4162207 -0.50180107 0.971964
-6.9301562 1.5034472 -0.50180066 0.97196412
-6.9107032 1.5904003 -0.50180024 0.97196418
-6.8902149 1.6771191 -0.50179982 0.971964
-6.8685546 1.7635645 -0.50179935 0.97196418
-6.7971873 2.0211816 -0.50179785 0.97196424
-6.7712498 2.1064453 -0.50179732 0.97196424
-1.7929883 0.68397462 -0.1357944 0.99233425
-1.7930664 0.70996094 -0.1364677 0.99229652
-1.6692578 0.70995116 -0.12836173 0.99275243
-1.5592577 0.70994139 -0.1212365 0.99315333
-1.5087109 0.70995116 -0.11798961 0.99333602
-1.4607812 0.70994139 -0.1149295 0.99350828
-1.3719531 0.70995116 -0.10931175 0.99382466
-1.1503515 0.70994139 -0.095658526 0.99459398
-1.1186719 0.70996094 -0.093756787 0.99470109
-1.0882031 0.70996094 -0.091943473 0.99480325
-1.0306641 0.70995116 -0.088560022 0.99499398
-1.0259765 0.72590816 -0.088935204 0.99497288
-1.0256445 0.76507813 -0.090546034 0.99488205
-1.0254687 0.78520507 -0.091395035 0.99483424
-1.0249219 0.84791988 -0.094129786 0.99468011
-1.0247656 0.86967772 -0.095107995 0.99462485
-1.0245508 0.89189452 -0.0961219 0.99456775
-1.0243164 0.91461915 -0.097173192 0.9945085
-5.1690626 4.8540821 -0.5017671 0.97196579
-5.0454297 4.9824119 -0.50176483 0.97196597
-4.7420897 4.924336 -0.48375818 0.97295833
-4.4237108 4.7108107 -0.45728493 0.97441918
-3.9257812 4.3969336 -0.41710487 0.97664034
-3.716367 4.2691603 -0.40052268 0.97755849
-3.5358007 4.3851171 -0.39860541 0.97766471
-3.4804296 4.4292088 -0.39860547 0.97766465
-3.4244726 4.4725876 -0.39860556 0.97766471
-3.3680468 4.5152736 -0.39860576 0.97766459
-3.136914 4.6787987 -0.39860716 0.97766465
-2.8369141 4.8664942 -0.39860296 0.97766483
-2.5887108 5.0027146 -0.39858907 0.9776656
-2.525625 5.0347948 -0.39858586 0.97766584
-2.2542188 5.1206932 -0.39590612 0.9778142
-2.180078 5.1259665 -0.39416465 0.9779107
-2.1213672 5.1673045 -0.3952626 0.9778499
-2.0623436 5.2088866 -0.39642867 0.97778523
-2.0029883 5.2507224 -0.3976655 0.97771662
-1.9411523 5.2872849 -0.39855751 0.97766739
-1.8745311 5.3112302 -0.39855447 0.97766751
-1.7404492 5.3565722 -0.39854851 0.97766787
-1.6052344 5.3985353 -0.39854267 0.97766823
-1.5373046 5.4182615 -0.39853981 0.97766829
-1.3319336 5.4722362 -0.3985315 0.97766876
-1.1940038 5.5039062 -0.39852682 0.97766906
-1.1247461 5.5184469 -0.39852461 0.97766918
-1.0552734 5.5321288 -0.3985225 0.97766924
-0.91593748 5.5568457 -0.39851835 0.97766948
-0.84603512 5.5678711 -0.39851633 0.97766966
-0.77601558 5.5780468 -0.39851448 0.97766972
-0.70583981 5.5873241 -0.39851263 0.97766984
-0.56519532 5.6032519 -0.39850914 0.97767001
-0.21224609 5.6275878 -0.39850166 0.97767037
-0.14152344 5.6297655 -0.39850029 0.97767055
-0.070742182 5.6311035 -0.39849892 0.97767055
0.14156249 5.6297069 -0.39849514 0.97767079
0.21224609 5.627461 -0.39849392 0.97767091
0.28296873 5.6243458 -0.39849281 0.97767091
0.56519532 5.6029687 -0.39848858 0.97767115
0.63554686 5.5954099 -0.39848763 0.97767121
0.70580077 5.5869627 -0.3984867 0.97767127
0.77597654 5.5776367 -0.39848587 0.97767133
0.91585934 5.5563669 -0.39848423 0.97767138
1.0552343 5.5315723 -0.39848277 0.97767144
1.1246289 5.5178514 -0.39848211 0.97767156
1.1938672 5.5032616 -0.39848149 0.97767162
1.5370898 5.4174218 -0.3984791 0.97767168
1.1923828 3.8330078 -0.28405187 0.98403198
1.236621 3.6492186 -0.27265 0.98466802
1.4494531 3.6608398 -0.27861118 0.98433524
1.4964062 3.6449609 -0.27881312 0.98432404
2.2039063 5.1820407 -0.39847758 0.9776718
2.3976953 5.0953026 -0.39847794 0.97767168
2.5880077 5.0013084 -0.39847869 0.97767174
1.917871 3.5948534 -0.28831482 0.98379415
1.9685156 3.5807128 -0.28914341 0.98374808
2.7747071 4.9002538 -0.39847979 0.97767156
2.8360546 4.8649998 -0.39848027 0.97767156
2.9574218 4.7921872 -0.39848128 0.97767156
3.0769336 4.7163868 -0.39848247 0.97767144
3.2524998 4.5970898 -0.39848453 0.97767138
3.4234765 4.4712596 -0.398487 0.97767127
3.479414 4.4279003 -0.3984879 0.97767115
3.5347655 4.3838282 -0.39848885 0.97767121
3.643867 4.2936521 -0.39849082 0.97767097
4.0070505 3.9570019 -0.39849907 0.97767055
4.2008591 3.7507226 -0.39850459 0.97767025
4.2476954 3.6976562 -0.39850608 0.97767013
4.2938085 3.6439941 -0.3985076 0.97767013
4.3392968 3.5897558 -0.39850917 0.97767001
4.428164 3.4796386 -0.39851236 0.97766978
4.4715624 3.4237108 -0.398514 0.97766972
1.25375 0.91088867 -0.10965896 0.99380493
1.2541211 0.86386716 -0.10775875 0.99391198
1.2542969 0.84094727 -0.10685772 0.99396271
1.2544922 0.81840819 -0.1059877 0.99401164
1.2546484 0.79620117 -0.10514808 0.99405903
1.2547852 0.77437496 -0.10433803 0.99410468
1.2549609 0.75286132 -0.1035561 0.99414867
1.2550781 0.73165035 -0.10280159 0.99419135
1.3307421 0.70996094 -0.10672832 0.99397004
1.4152734 0.70997071 -0.11204144 0.99367082
1.4608008 0.70995116 -0.11492954 0.99350816
1.5592968 0.70995116 -0.12123661 0.99315315
1.6127343 0.70995116 -0.12468757 0.99295896
1.933789 0.70996094 -0.14576656 0.99177343
2.0237501 0.68578124 -0.15120178 0.99146807
2.0237501 0.65754879 -0.15057315 0.99150342
6.7681637 2.1054492 -0.50156653 0.97197688
6.8189063 1.934707 -0.50156587 0.971977
6.8426952 1.848877 -0.50156552 0.97197694
6.8653512 1.7627245 -0.50156528 0.97197711
6.8869724 1.6763281 -0.50156498 0.97197706
6.9074998 1.5896484 -0.50156474 0.971977
6.9452734 1.4155663 -0.50156426 0.971977
6.9624996 1.3281933 -0.50156403 0.97197706
6.978652 1.2405664 -0.50156391 0.971977
7.007617 1.0648047 -0.50156355 0.97197706
7.0321288 0.88837886 -0.50156331 0.97197717
7.0427341 0.79993165 -0.50156325 0.97197717
7.0522656 0.71137697 -0.50156319 0.97197706
7.079082 0.35612303 -0.50156307 0.97197711
7.0858202 0.17812499 -0.50156319 0.971977
7.0874805 0.089072265 -0.50156325 0.97197706
7.0880466 9.7656248e-06 -0.50156331 0.97197706
7.0874805 -0.089072265 -0.50156343 0.97197706
7.0858006 -0.17813475 -0.50156355 0.97197706
7.0791016 -0.35612303 -0.50156385 0.97197706
7.0679297 -0.533916 -0.50156426 0.971977
7.0427537 -0.7999121 -0.50156498 0.97197711
6.9786716 -1.2405761 -0.50156653 0.97197694
6.9625387 -1.3281738 -0.50156689 0.97197688
6.9453321 -1.4155566 -0.5015673 0.97197676
6.9075584 -1.5896581 -0.50156808 0.97197682
6.8870115 -1.6763183 -0.50156856 0.97197688
6.818984 -1.934707 -0.50156999 0.9719767
6.7941599 -2.0202441 -0.50157052 0.97197664
2.0237305 -0.71423829 -0.15185985 0.99143118
1.9337695 -0.70994139 -0.14576682 0.99177355
1.7293359 -0.70994139 -0.13228057 0.99253178
1.6693164 -0.70994139 -0.12836181 0.99275219
1.6127343 -0.70994139 -0.12468769 0.99295896
1.5592968 -0.70996094 -0.12123657 0.99315315
1.3307421 -0.70994139 -0.10672825 0.9939701
1.2914063 -0.70994139 -0.10428032 0.99410796
1.2552735 -0.7107324 -0.10207367 0.99423218
1.2549413 -0.75285155 -0.10355598 0.99414879
1.2548046 -0.77436525 -0.104338 0.99410468
1.2546093 -0.79621094 -0.10514812 0.99405915
1.2544531 -0.81838864 -0.10598777 0.99401182
1.2542969 -0.84092772 -0.10685768 0.99396276
1.2541211 -0.86386716 -0.1077589 0.99391198
1.2539452 -0.88715816 -0.10869239 0.99385941
1.2537695 -0.91086912 -0.10965908 0.99380493
1.2535156 -0.93502927 -0.11066066 0.99374866
5.6281834 -4.3092771 -0.50159281 0.97197545
5.5181251 -4.4493847 -0.50159484 0.97197533
5.4617577 -4.5183692 -0.50159585 0.97197539
5.3465233 -4.6542187 -0.50159794 0.97197521
5.2876563 -4.721045 -0.50159907 0.97197509
5.0208983 -4.8350878 -0.49324489 0.97243541
4.8946872 -4.8335447 -0.4867745 0.97279203
4.7717576 -4.8320508 -0.48054817 0.97313529
4.6518555 -4.830615 -0.47455135 0.97346604
4.5349216 -4.8291893 -0.46877527 0.97378469
4.0937891 -4.8238182 -0.4476974 0.97494864
3.8875389 -4.8213086 -0.43825626 0.97547036
3.7876172 -4.8200974 -0.43378454 0.97571754
3.6896875 -4.8189259 -0.4294709 0.97595608
3.5936522 -4.8177342 -0.42530823 0.97618639
3.4073827 -4.8159571 -0.41745669 0.97662073
3.2305079 -4.8183398 -0.41049635 0.97700614
3.1441796 -4.8194532 -0.40719143 0.97718906
3.0592186 -4.8205075 -0.40400055 0.97736579
2.9755077 -4.8215036 -0.40091881 0.97753656
2.8974805 -4.8298144 -0.39855009 0.97766769
2.8365624 -4.86584 -0.39855117 0.97766775
2.7751954 -4.901123 -0.39855224 0.97766763
2.713418 -4.9356151 -0.39855334 0.97766757
2.6511719 -4.9693556 -0.39855444 0.97766745
2.5254686 -5.0344138 -0.39855665 0.97766745
2.461992 -5.0657716 -0.39855778 0.97766739
2.398164 -5.0963378 -0.39855888 0.97766727
2.3339453 -5.1260743 -0.39856002 0.97766721
2.2044141 -5.183125 -0.39856228 0.97766709
2.073457 -5.2369337 -0.39856461 0.97766697
2.0074999 -5.262578 -0.39856574 0.97766691
1.9412109 -5.2874317 -0.39856687 0.97766674
1.8746289 -5.3113966 -0.39856803 0.9776668
1.8077344 -5.3345408 -0.39856923 0.97766674
1.7405859 -5.3568845 -0.39857039 0.97766656
1.6054296 -5.3989453 -0.39857271 0.9776665
1.4007813 -5.4556737 -0.39857626 0.97766632
1.3321484 -5.4728513 -0.39857745 0.97766626
1.1941797 -5.5046387 -0.39857987 0.97766608
0.84619141 -5.5688281 -0.39858586 0.97766584
0.77617186 -5.5790625 -0.39858702 0.97766566
0.63570309 -5.5968065 -0.39858946 0.97766566
0.5653125 -5.6043944 -0.39859068 0.97766554
0.49486327 -5.611074 -0.39859188 0.97766542
0.42429686 -5.6168652 -0.3985931 0.97766536
0.28302735 -5.6257715 -0.39859548 0.97766531
0.21234375 -5.6289258 -0.3985967 0.97766513
0.14156249 -5.6311622 -0.39859793 0.97766507
0.070800781 -5.6324902 -0.39859912 0.97766513
0 -5.6329489 -0.39860034 0.97766507
-0.070781246 -5.6325388 -0.39860153 0.97766495
-0.28304687 -5.6259179 -0.39860514 0.97766471
-0.42431641 -5.6170702 -0.39860755 0.97766459
-0.49486327 -5.611289 -0.39860877 0.97766459
-0.56535155 -5.6046777 -0.39860991 0.97766441
-0.70601559 -5.5887108 -0.39861232 0.97766435
-0.84625 -5.5692382 -0.39861473 0.97766423
-1.0555469 -5.5334373 -0.39861822 0.97766399
-1.2633593 -5.4897752 -0.39862171 0.97766382
-1.4009374 -5.4563279 -0.39862403 0.97766364
-1.469414 -5.4382911 -0.39862517 0.97766364
-1.5376172 -5.4194431 -0.39862633 0.97766352
-1.7407812 -5.357656 -0.39862972 0.97766346
-1.8079883 -5.335371 -0.39863083 0.97766334
-1.8749022 -5.3122654 -0.39863196 0.97766322
-1.9415234 -5.2883005 -0.39863306 0.97766316
-2.1394727 -5.2113962 -0.39863634 0.97766304
-2.2047851 -5.1841111 -0.39863744 0.97766298
-2.2697656 -5.1560254 -0.39863852 0.97766286
-2.3343945 -5.1270995 -0.39863959 0.9776628
-2.3986328 -5.0973825 -0.39864066 0.97766274
-2.4625194 -5.0668259 -0.39864171 0.97766274
-2.5259764 -5.0355177 -0.39864272 0.97766268
-2.6517577 -4.9704685 -0.39864483 0.97766256
-2.8372264 -4.8670216 -0.39864787 0.97766238
-2.898164 -4.830996 -0.39864886 0.97766238
-3.0186718 -4.75666 -0.39865088 0.97766227
-3.1787694 -4.7412109 -0.40392542 0.97737002
-3.3498046 -4.73458 -0.4104045 0.97701126
-3.4373827 -4.7311325 -0.4138166 0.97682232
-3.5263672 -4.7275681 -0.41734836 0.97662693
-3.8084178 -4.7231932 -0.42933708 0.97596353
-3.9062696 -4.7218847 -0.43364668 0.97572529
-4.3187695 -4.7164159 -0.45252478 0.97468197
-4.4276562 -4.7149706 -0.45768964 0.97439677
-4.6531248 -4.7119627 -0.46860471 0.97379428
-4.7699804 -4.7104197 -0.47437444 0.97347593
-4.8897848 -4.7088184 -0.4803654 0.97314548
-1.024121 -0.93780273 -0.09826275 0.99444705
-1.0243164 -0.91458005 -0.097172923 0.99450856
-1.0251367 -0.82660156 -0.093185611 0.99473321
-1.025293 -0.80568355 -0.092274323 0.99478471
-1.0254687 -0.78518552 -0.091394842 0.99483424
-1.0259765 -0.72589844 -0.088935241 0.99497288
-1.0589062 -0.70995116 -0.090212785 0.99490076
-1.1503906 -0.70995116 -0.095658377 0.99459386
-1.3307031 -0.70995116 -0.10672829 0.99397022
-1.3719727 -0.70995116 -0.10931175 0.9938246
-1.5087109 -0.70995116 -0.11798954 0.99333602
-1.5592968 -0.70993161 -0.12123668 0.99315321
-1.6126952 -0.70994139 -0.12468781 0.99295908
-1.7292773 -0.70995116 -0.13228096 0.99253196
-1.7931055 -0.70995116 -0.1364672 0.9922964
-1.792871 -0.65822262 -0.13514911 0.99237061
-6.7443357 -2.1913671 -0.50180143 0.97196394
-6.8221092 -1.9356054 -0.50180244 0.97196406
-6.890234 -1.6771094 -0.5018034 0.97196394
-6.9658203 -1.328789 -0.50180429 0.97196388
-7.0109568 -1.0653125 -0.50180477 0.97196388
-7.0237889 -0.97713864 -0.50180489 0.97196388
-7.0355077 -0.88879883 -0.50180501 0.97196388
-7.0461326 -0.80029297 -0.50180513 0.97196382
-7.0556445 -0.71170896 -0.50180519 0.97196376
-7.0640235 -0.62298828 -0.50180525 0.97196382
-7.0712891 -0.53416991 -0.50180525 0.97196382
-7.0863867 -0.26725584 -0.50180525 0.97196388
-7.090879 -0.089111328 -0.50180513 0.97196382
-6.8228512 9.7656248e-06 -0.50180048 0.97300589
-6.8180075 0.25716797 -0.50180006 0.97300589
-6.8142576 0.34281248 -0.50179994 0.97300583
-6.8034763 0.51395506 -0.50179958 0.97300589
-6.7792578 0.77000976 -0.50179887 0.97300595
-6.7577343 0.94012696 -0.50179833 0.97300607
-6.7319922 1.1096485 -0.50179768 0.97300601
-6.7174997 1.1941699 -0.50179738 0.97300607
-6.7019529 1.2784765 -0.50179702 0.97300607
-6.667695 1.4465039 -0.50179625 0.97300613
-6.5636911 1.8623241 -0.50179404 0.97300619
-6.5397654 1.9446386 -0.50179356 0.97300625
-6.4337888 2.2707422 -0.50179136 0.97300631
-1.7938476 0.6843164 -0.14120704 0.99232906
-1.6692578 0.70995116 -0.13341378 0.99275094
-1.6126952 0.70996094 -0.12959456 0.99295765
-1.5592577 0.70994139 -0.12600784 0.99315196
-1.5087109 0.70995116 -0.12263286 0.99333465
-1.4607812 0.70994139 -0.11945221 0.99350697
-1.2913672 0.70995116 -0.1083844 0.99410689
-1.2537891 0.70997071 -0.10597026 0.99423772
-1.2178515 0.70995116 -0.10367759 0.994362
-1.1833984 0.70996094 -0.10149787 0.99448025
-1.1503515 0.70994139 -0.099423178 0.99459291
-1.1186719 0.70996094 -0.097446442 0.99470001
-1.0882031 0.70996094 -0.095561713 0.99480224
-1.0253124 0.72543943 -0.092373617 0.99497509
-1.0249413 0.76455075 -0.094045408 0.99488455
-1.0247656 0.78466797 -0.094926715 0.99483675
-1.0246093 0.80514646 -0.0958395 0.99478716
-1.0244141 0.82601559 -0.096785121 0.9947359
-1.0240039 0.86907226 -0.09878055 0.99462765
-1.0235938 0.91394532 -0.10092381 0.99451131
-4.9732809 4.6702342 -0.50176394 0.97300786
-4.9141798 4.7323632 -0.50176287 0.97300786
-4.8543358 4.7937207 -0.50176179 0.97300792
-4.7937107 4.8543458 -0.50176072 0.97300792
-4.7323046 4.9141893 -0.50175953 0.97300804
-4.4228907 4.7099023 -0.47518867 0.97441888
-3.6954296 4.2451463 -0.41394255 0.97767895
-3.5069921 4.1323829 -0.39861768 0.97849631
-3.4548047 4.1761522 -0.3986198 0.97849619
-3.4020507 4.2192478 -0.39862189 0.97849619
-3.2949414 4.3034372 -0.39862284 0.97849607
-3.1857812 4.3848729 -0.39862326 0.97849607
-3.1304295 4.4245701 -0.39862359 0.97849602
-2.9041016 4.5761814 -0.39861655 0.97849643
-2.8463671 4.6122751 -0.3986133 0.97849655
-2.7881639 4.6476269 -0.39861006 0.97849679
-2.7294922 4.6822658 -0.39860684 0.97849697
-2.6704688 4.7161522 -0.39860362 0.97849709
-2.6109569 4.7493067 -0.39860043 0.97849727
-2.4907422 4.8133593 -0.39859408 0.97849756
-2.3074999 4.9036913 -0.39858475 0.97849804
-2.058125 5.0132618 -0.39857256 0.97849882
-1.9949609 5.0386915 -0.39856958 0.97849894
-1.9314452 5.0633397 -0.39856666 0.97849911
-1.8676562 5.0871778 -0.39856368 0.97849923
-1.8035742 5.1101856 -0.39856079 0.97849947
-1.7392187 5.132412 -0.39855787 0.97849959
-1.6745703 5.1538477 -0.39855507 0.97849965
-1.4791211 5.213203 -0.39854676 0.97850007
-1.4134375 5.2313185 -0.39854404 0.97850031
-1.2815235 5.2651367 -0.39853913 0.97850055
-1.2152734 5.2808008 -0.39853695 0.9785006
-1.1488086 5.2956247 -0.39853483 0.97850072
-1.082168 5.309629 -0.39853278 0.97850078
-0.88126951 5.3465428 -0.39852673 0.9785012
-0.74662107 5.3669629 -0.398523 0.97850132
-0.54378903 5.3912206 -0.39851791 0.97850162
-0.40812498 5.4031444 -0.39851496 0.9785018
-0.34023437 5.4078221 -0.39851353 0.97850186
-0.27226561 5.4116406 -0.3985121 0.97850198
-0.068085939 5.4179978 -0.39850813 0.97850221
0 5.4184079 -0.39850685 0.97850227
0.40816405 5.4029393 -0.39850011 0.97850257
0.47603515 5.3973632 -0.39849913 0.97850263
0.54380858 5.3909473 -0.39849815 0.97850269
0.81396484 5.3567481 -0.39849475 0.97850293
0.88123047 5.3461132 -0.39849398 0.97850287
1.0152735 5.3222461 -0.39849257 0.97850299
1.0821093 5.3090625 -0.39849198 0.97850299
1.1486914 5.2950392 -0.39849135 0.97850305
1.2151562 5.2801757 -0.39849079 0.97850311
1.4789063 5.2124314 -0.39848906 0.97850317
1.1912109 3.8292089 -0.29493755 0.98404449
1.1915234 3.6670897 -0.28357992 0.98465407
1.2361914 3.6479394 -0.28327906 0.98467028
1.4491601 3.6601367 -0.28952208 0.98433512
1.4959961 3.643955 -0.28970662 0.98432523
2.1205077 4.9859667 -0.39848757 0.97850329
2.1830273 4.9589157 -0.39848766 0.97850323
2.2451563 4.9310837 -0.39848778 0.97850329
2.3683593 4.8731346 -0.39848816 0.97850323
2.429414 4.842988 -0.39848834 0.97850323
2.4901171 4.8120799 -0.39848861 0.97850311
1.917871 3.5948534 -0.29966155 0.98379093
1.9685156 3.5807128 -0.3005228 0.98374486
2.6696875 4.7148046 -0.39848968 0.97850317
2.7287109 4.6808982 -0.39849013 0.97850317
2.8455079 4.6108594 -0.39849111 0.97850305
2.9604883 4.53791 -0.39849228 0.97850299
3.0736132 4.46208 -0.39849356 0.97850293
3.1294529 4.4231153 -0.39849424 0.97850287
3.2396288 4.3430958 -0.39849579 0.97850281
3.2939453 4.3020606 -0.39849663 0.97850275
3.4010546 4.2179489 -0.39849839 0.97850257
3.5575976 4.0867968 -0.39850134 0.97850251
3.6086912 4.0417676 -0.39850238 0.97850251
3.7091405 3.9498143 -0.39850464 0.97850239
3.8072655 3.8554003 -0.398507 0.97850221
3.9029686 3.7585351 -0.3985095 0.97850204
3.9498827 3.709209 -0.39851081 0.97850204
3.9961913 3.6592674 -0.39851218 0.97850204
4.0869532 3.5577343 -0.39851502 0.97850174
4.1313281 3.5061133 -0.39851645 0.97850168
4.1750779 3.4539256 -0.39851794 0.97850162
4.2360153 3.415576 -0.40020511 0.97841161
4.2605662 3.3479004 -0.39851815 0.97850168
4.3023047 3.2941113 -0.39851749 0.97850162
1.2526953 0.93440425 -0.11493775 0.99375153
1.2529297 0.91028321 -0.11389808 0.99380773
1.2544531 0.71032226 -0.10602417 0.99423468
1.2914063 0.70996094 -0.10838436 0.99410671
1.3719921 0.70996094 -0.11361369 0.99382329
1.4608008 0.70995116 -0.11945232 0.99350691
1.50875 0.70996094 -0.12263275 0.99333453
1.5592968 0.70995116 -0.12600772 0.99315178
1.6693164 0.70996094 -0.13341351 0.9927507
1.7931445 0.70995116 -0.14183944 0.99229473
1.8611327 0.70995116 -0.14650062 0.99204254
1.933789 0.70996094 -0.15150295 0.99177182
2.0236719 0.71423829 -0.15783061 0.99142969
2.0236719 0.68575191 -0.1571466 0.9914667
2.0236719 0.65753907 -0.15649334 0.99150205
6.5119724 2.0257518 -0.501571 0.97301787
6.5368748 1.9437499 -0.50157064 0.97301805
6.5608006 1.8614649 -0.50157034 0.97301799
6.5836716 1.7788769 -0.50157005 0.97301799
6.6055079 1.6960058 -0.50156975 0.97301799
6.6460352 1.5294824 -0.50156921 0.97301799
6.6647067 1.4458398 -0.50156903 0.97301811
6.6823435 1.3619629 -0.50156879 0.97301811
6.698945 1.2778906 -0.50156862 0.97301805
6.7144527 1.1936133 -0.50156844 0.97301811
6.7546873 0.93968749 -0.50156802 0.97301805
6.7659178 0.85472655 -0.5015679 0.97301823
6.7761717 0.76965821 -0.50156784 0.97301805
6.8111324 0.34267578 -0.50156766 0.97301805
6.8175778 0.17139648 -0.50156778 0.97301811
6.8191991 0.085712887 -0.50156784 0.97301805
6.8148828 -0.25704101 -0.50156826 0.97301811
6.8003712 -0.51370114 -0.50156879 0.97301805
6.7933593 -0.59911132 -0.50156903 0.97301811
6.7761717 -0.76963866 -0.50156945 0.97301805
6.7659764 -0.8547461 -0.50156975 0.97301799
6.7546873 -0.93969727 -0.50156999 0.97301805
6.7289453 -1.1091406 -0.50157064 0.97301805
6.6824021 -1.3619629 -0.50157171 0.97301787
6.6460547 -1.5294628 -0.50157249 0.97301793
6.626328 -1.6128613 -0.50157297 0.97301787
6.605547 -1.6960058 -0.50157338 0.97301781
6.5837107 -1.7788769 -0.5015738 0.97301781
6.5608397 -1.8614745 -0.50157434 0.97301781
6.5369139 -1.9437792 -0.50157481 0.97301787
6.5120115 -2.0257714 -0.50157529 0.97301769
2.0236719 -0.65750974 -0.15649319 0.99150211
2.0236719 -0.68575191 -0.1571468 0.9914667
1.9337695 -0.70994139 -0.15150306 0.99177188
1.7931249 -0.70995116 -0.1418393 0.99229479
1.6127343 -0.70994139 -0.12959461 0.99295753
1.5592968 -0.70996094 -0.12600769 0.99315178
1.5087109 -0.70994139 -0.12263271 0.99333471
1.4608203 -0.70993161 -0.11945221 0.99350685
1.3719921 -0.70994139 -0.11361343 0.99382329
1.3307421 -0.70994139 -0.11092861 0.99396884
1.2914063 -0.70994139 -0.10838424 0.99410677
1.2543359 -0.73118162 -0.10677966 0.99419367
1.2540234 -0.77385741 -0.10837471 0.99410719
1.2532812 -0.86329103 -0.11192539 0.99391478
1.2528906 -0.91026366 -0.11389805 0.99380791
5.4151173 -4.1461329 -0.50159627 0.97301662
5.3625779 -4.2138672 -0.50159723 0.97301662
5.3091993 -4.2809176 -0.50159824 0.97301662
5.1999998 -4.4130173 -0.50160021 0.97301638
5.1441212 -4.4780273 -0.50160122 0.97301638
5.087461 -4.5423241 -0.50160229 0.97301632
5.0299997 -4.6058984 -0.50160331 0.97301626
4.6518555 -4.830615 -0.49322653 0.97346085
4.5349216 -4.8291893 -0.48722434 0.97377956
4.4207811 -4.8277926 -0.48144165 0.9740867
4.0937891 -4.8238182 -0.46531591 0.9749437
3.8875389 -4.8213086 -0.4555034 0.97546554
3.4994531 -4.8165917 -0.43787193 0.97640401
3.4070311 -4.8154588 -0.43384287 0.97661853
3.3162694 -4.8143749 -0.42995363 0.97682554
3.0532811 -4.8111525 -0.41908634 0.97740471
2.8871875 -4.812705 -0.41276735 0.9777416
2.8061328 -4.8136425 -0.40979221 0.97790027
2.7261717 -4.8145509 -0.40692011 0.97805339
2.6473045 -4.8153906 -0.4041481 0.97820133
2.5694726 -4.8161912 -0.40147391 0.97834396
2.4926171 -4.8169532 -0.39889356 0.97848165
2.368789 -4.8739939 -0.39855915 0.97849941
2.2455859 -4.9319921 -0.39856133 0.97849935
2.1209373 -4.9869041 -0.39856353 0.97849923
1.9314648 -5.0633397 -0.39856681 0.97849905
1.8676952 -5.0872169 -0.39856791 0.97849905
1.6746875 -5.1540427 -0.39857128 0.97849882
1.6097655 -5.1746969 -0.39857242 0.97849876
1.5446289 -5.194531 -0.39857352 0.9784987
1.4135938 -5.2317286 -0.39857581 0.97849864
1.2816796 -5.2656054 -0.39857811 0.97849858
1.1489453 -5.2962108 -0.3985804 0.97849834
1.0823241 -5.3102636 -0.39858153 0.97849822
0.94853514 -5.3358006 -0.39858383 0.97849816
0.88144529 -5.3473144 -0.39858499 0.9784981
0.67925781 -5.3767872 -0.39858848 0.97849792
0.61164063 -5.384902 -0.39858961 0.97849786
0.54390621 -5.3921876 -0.3985908 0.9784978
0.47613281 -5.398613 -0.398592 0.97849774
0.13621093 -5.4179392 -0.39859778 0.97849739
0.068125002 -5.4192185 -0.39859897 0.97849739
1.953125e-05 -5.4196873 -0.3986001 0.97849727
-0.068105467 -5.4192677 -0.39860126 0.97849721
-0.34031248 -5.4090528 -0.39860588 0.97849703
-0.61164063 -5.3851953 -0.39861053 0.97849673
-0.88148433 -5.3477345 -0.39861503 0.97849643
-0.94859374 -5.3362403 -0.39861616 0.97849643
-1.0155859 -5.323916 -0.39861733 0.97849637
-1.0824023 -5.3107224 -0.39861846 0.97849637
-1.1490625 -5.2967286 -0.39861956 0.97849625
-1.3478906 -5.2497067 -0.3986229 0.97849607
-1.479414 -5.2142091 -0.39862511 0.97849596
-1.61 -5.1753907 -0.39862731 0.9784959
-1.8679687 -5.088027 -0.39863157 0.97849566
-1.9952734 -5.0395212 -0.39863372 0.97849548
-2.0584569 -5.0140524 -0.39863479 0.97849548
-2.3078125 -4.904336 -0.3986389 0.97849524
-2.3692577 -4.8749609 -0.39863989 0.97849524
-2.4303515 -4.8448243 -0.39864093 0.97849512
-2.4910157 -4.8139157 -0.39864191 0.97849512
-2.7672069 -4.7468944 -0.4041082 0.97820336
-2.8459766 -4.7439842 -0.40687317 0.97805589
-3.0067577 -4.7379198 -0.41270515 0.97774494
-3.0889063 -4.7347555 -0.41577804 0.97758102
-3.2586327 -4.7307129 -0.42248484 0.97722363
-3.346211 -4.7294822 -0.42609581 0.97703111
-3.4352539 -4.7282419 -0.42983854 0.97683179
-3.8084178 -4.7231932 -0.44623393 0.97595882
-4.0061717 -4.7205763 -0.45535618 0.97547334
-4.4276562 -4.7149706 -0.47570121 0.9743917
-4.7699804 -4.7104197 -0.49304336 0.97347069
-1.0233593 -0.93709958 -0.10205456 0.99445009
-1.0235938 -0.91392577 -0.10092361 0.99451137
-1.023789 -0.89124024 -0.099832915 0.99457067
-1.0240039 -0.86906248 -0.098780327 0.99462765
-1.0241992 -0.84732419 -0.097764969 0.99468279
-1.0246093 -0.80513668 -0.095839538 0.99478716
-1.0249609 -0.76454097 -0.094045371 0.99488455
-1.0252734 -0.72541988 -0.092373654 0.99497527
-1.0306641 -0.70994139 -0.092045322 0.99499303
-1.0589062 -0.70995116 -0.09376312 0.99489975
-1.0882422 -0.70995116 -0.095561557 0.99480212
-1.1187109 -0.70994139 -0.097446404 0.9946999
-1.1834179 -0.70994139 -0.10149787 0.99448025
-1.253828 -0.70996094 -0.10597023 0.9942376
-1.2914063 -0.70993161 -0.10838421 0.99410677
-1.3307031 -0.70995116 -0.11092857 0.99396896
-1.7939843 -0.71029294 -0.14190711 0.99229109
-1.7937499 -0.65853512 -0.14053592 0.99236542
-6.4889059 -2.1083496 -0.50179696 0.97300601
-6.5398436 -1.9446288 -0.50179768 0.97300595
-6.5637693 -1.8623047 -0.50179803 0.97300595
-6.5866404 -1.7796777 -0.50179833 0.97300595
-6.6084766 -1.6967773 -0.50179857 0.97300601
-6.6292968 -1.6136035 -0.50179887 0.97300589
-6.6490426 -1.5301563 -0.50179911 0.97300595
-6.6677732 -1.4464941 -0.50179935 0.97300583
-6.7020116 -1.2784668 -0.5017997 0.97300589
-6.7175388 -1.1941601 -0.50179994 0.97300589
-6.7319922 -1.1096485 -0.50180006 0.97300601
-6.7884178 -0.68474609 -0.50180054 0.97300583
-6.7964649 -0.59940428 -0.50180066 0.97300595
-6.8034568 -0.51393551 -0.50180066 0.97300595
-6.8093944 -0.42841795 -0.50180066 0.97300589
-6.820703 -0.17144531 -0.5018006 0.97300589
-6.5737891 -0 -0.50179619 0.97397304
-6.5551171 0.49518552 -0.50179535 0.97397304
-6.540586 0.6597656 -0.50179493 0.9739731
-6.521914 0.82392573 -0.5017944 0.97397321
-6.5110545 0.90581053 -0.50179416 0.97397316
-6.4862499 1.0691406 -0.50179356 0.9739731
-6.4413085 1.3128515 -0.50179255 0.97397321
-6.4242969 1.3936816 -0.50179219 0.97397327
-6.3872266 1.5546973 -0.50179136 0.97397333
-6.3672071 1.6348437 -0.50179094 0.97397321
-6.3241014 1.7943262 -0.50179005 0.97397327
-6.3010349 1.8736426 -0.50178951 0.97397339
-6.2769918 1.9526757 -0.50178903 0.97397339
