# .PCD v0.7 - Point Cloud Data file format
VERSION 0.7
FIELDS x y z intensity
SIZE 4 4 4 4
TYPE F F F F
COUNT 1 1 1 1
WIDTH 1085
HEIGHT 1
VIEWPOINT 0 0 0 1 0 0 0
POINTS 1085
DATA ascii
2.9000683 -5.1216893 -0.40010428 0.97667891
2.3695409 -5.3826952 -0.3997921 0.97669685
2.3014941 -5.4115038 -0.39975199 0.97669911
2.1643555 -5.4665332 -0.39967129 0.97670376
2.0258789 -5.5180564 -0.39958981 0.97670853
1.3476952 -3.9770215 -0.2854529 0.98330551
1.7453516 -5.6105566 -0.39942467 0.97671801
1.6745117 -5.6314645 -0.39938298 0.97672039
1.6034667 -5.6514745 -0.39934111 0.97672278
1.2447948 -5.7379589 -0.39912993 0.976735
1.0273046 -5.778955 -0.39900193 0.97674233
0.95450193 -5.790781 -0.39895904 0.97674483
0.88158202 -5.8016992 -0.3989161 0.97674727
0.66203123 -5.8289061 -0.39878681 0.97675472
0.51523435 -5.8424215 -0.39870036 0.97675979
0.44174802 -5.8478122 -0.39865705 0.97676224
0.36819336 -5.8522558 -0.39861372 0.97676474
0.29458007 -5.8558006 -0.39857039 0.97676718
0.14730468 -5.8600683 -0.39848366 0.97677225
0.073642574 -5.8608298 -0.39844027 0.97677469
9.7656248e-06 -5.8606544 -0.39839691 0.9767772
-0.14724609 -5.8575196 -0.39831015 0.9767822
-0.29433593 -5.8506932 -0.39822349 0.97678721
-0.36782226 -5.8458982 -0.39818022 0.97678971
-0.87926757 -5.7866015 -0.39787892 0.97680706
-0.95182616 -5.7744627 -0.39783615 0.97680956
-1.0242089 -5.7614551 -0.3977935 0.97681195
-1.3832031 -5.682734 -0.39758196 0.97682416
-1.4543555 -5.6643066 -0.39754003 0.97682661
-1.5252734 -5.64499 -0.39749825 0.97682899
-1.5959179 -5.6248045 -0.39745662 0.97683132
-1.7363964 -5.581748 -0.39737383 0.97683614
-1.8757226 -5.5352049 -0.39729172 0.97684091
-1.9449219 -5.5106344 -0.39725092 0.97684324
-2.0138378 -5.4852052 -0.3972103 0.9768455
-2.0823925 -5.4589062 -0.39716992 0.97684789
-2.2859473 -5.3749218 -0.39704993 0.9768548
-2.4861717 -5.2833691 -0.39693186 0.9768616
-2.6176269 -5.2182031 -0.39685434 0.97686613
-2.682744 -5.1844044 -0.39681599 0.97686827
-2.7474217 -5.149785 -0.39677787 0.97687048
-2.8116601 -5.1143651 -0.39673999 0.97687262
-3.063916 -4.9647655 -0.39659125 0.97688127
-3.1871386 -4.8853126 -0.39651859 0.97688538
-3.3083007 -4.8028126 -0.39644712 0.97688949
-3.3681054 -4.7604489 -0.39641184 0.97689146
-3.4860449 -4.6734667 -0.39634231 0.97689557
-3.7151756 -4.4908786 -0.39620712 0.97690338
-3.8262303 -4.395381 -0.39614162 0.97690713
-3.8808398 -4.3465915 -0.39610937 0.97690904
-3.9348438 -4.2971287 -0.39607754 0.97691089
-3.9882226 -4.2470212 -0.39604607 0.97691262
-4.040947 -4.19625 -0.39601493 0.97691441
-4.1445017 -4.0927243 -0.39595386 0.97691792
-4.1971874 -3.941416 -0.39139912 0.97718042
-1.0251172 -0.9152441 -0.093419299 0.99450552
-1.025293 -0.89253902 -0.092408255 0.99456483
-1.0258789 -0.8271777 -0.089583166 0.99473047
-1.0260448 -0.80625975 -0.088706739 0.99478191
-1.0262109 -0.78572261 -0.087860562 0.99483162
-1.0263672 -0.76559567 -0.087043948 0.99487948
-1.0265429 -0.74583983 -0.086255684 0.99492568
-1.0882128 -0.70995116 -0.088327065 0.99480426
-1.2178515 -0.70995116 -0.095828362 0.9943642
-1.2913769 -0.70994139 -0.10017852 0.99410915
-1.3307421 -0.70994139 -0.10253017 0.99397123
-1.3719727 -0.70997071 -0.10501213 0.99382573
-1.4152734 -0.70997071 -0.10763431 0.99367201
-1.4608008 -0.70996094 -0.11040882 0.99350941
-1.5592773 -0.70995116 -0.11646789 0.99315453
-1.6127245 -0.70995116 -0.11978327 0.99296033
-1.6693262 -0.70995116 -0.12331272 0.99275357
-1.7293164 -0.70995116 -0.12707771 0.99253327
-1.7922461 -0.70958984 -0.13103603 0.99230158
-1.7921581 -0.68363279 -0.13038991 0.99233931
-1.7920507 -0.65792966 -0.12977089 0.99237555
-6.9299803 -2.3483593 -0.49740112 0.97109032
-7.0128808 -2.085283 -0.497352 0.97109312
-7.0383005 -1.9969434 -0.49733695 0.97109401
-7.0626364 -1.9083008 -0.49732253 0.97109485
-7.1079588 -1.7301074 -0.49729565 0.97109646
-7.128994 -1.6406152 -0.49728316 0.97109705
-7.1488476 -1.5508593 -0.49727133 0.97109783
-7.1676364 -1.4608788 -0.49726018 0.97109836
-7.1852636 -1.3706542 -0.49724969 0.97109902
-7.2017574 -1.2802441 -0.49723992 0.97109967
-7.2171874 -1.1896191 -0.49723074 0.97110003
-7.2314062 -1.0988085 -0.49722224 0.97110063
-7.2445507 -1.0078418 -0.49721441 0.97110099
-7.2770896 -0.73404294 -0.49719498 0.97110218
-7.2856641 -0.64253902 -0.49718982 0.97110248
-7.2993846 -0.45923826 -0.49718153 0.97110295
-7.3045311 -0.36748046 -0.49717841 0.97110313
-7.3085546 -0.27563477 -0.49717593 0.97110319
-7.3113766 -0.18378906 -0.49717417 0.97110349
-7.0278025 0.088330075 -0.49734092 0.97220975
-7.0145993 0.44131836 -0.49734831 0.97220927
-7.0014157 0.61748046 -0.49735591 0.9722088
-6.9838085 0.79324216 -0.49736604 0.97220832
-6.9733787 0.88094723 -0.49737212 0.97220796
-6.9355078 1.1431934 -0.49739414 0.97220683
-6.9207225 1.2302831 -0.49740276 0.97220635
-6.8092771 1.74833 -0.49746785 0.97220278
-6.7136035 2.0884862 -0.49752387 0.97219962
-6.6594238 2.2566795 -0.49755558 0.97219789
-1.7929003 0.65824217 -0.13515002 0.99237049
-1.7930273 0.68396485 -0.13579521 0.99233413
-1.7292968 0.70995116 -0.13227986 0.9925319
-1.5592675 0.70994139 -0.12123598 0.99315327
-1.4607812 0.70995116 -0.11492893 0.99350828
-1.3307129 0.70994139 -0.10672764 0.99397016
-1.2537988 0.70995116 -0.10195743 0.99423885
-1.0882324 0.70995116 -0.091943011 0.99480319
-1.0588964 0.70995116 -0.090212554 0.99490082
-1.0306739 0.70996094 -0.088559642 0.99499393
-1.0256737 0.76507813 -0.090546831 0.99488199
-1.0255176 0.78520507 -0.091395795 0.99483407
-1.025332 0.8057031 -0.092275389 0.99478453
-1.0249707 0.84793943 -0.094130479 0.99467987
-1.0243554 0.91460937 -0.097173996 0.99450839
-1.0241406 0.93780273 -0.098263703 0.99444699
-4.7929492 4.5008693 -0.46525851 0.97397894
-4.3283691 4.4946971 -0.44155177 0.97528821
-4.2194333 4.4932518 -0.43616676 0.97558594
-4.1131248 4.4918456 -0.43097854 0.97587281
-3.9078319 4.4891114 -0.42115825 0.97641605
-3.7135057 4.4888573 -0.41224581 0.97690928
-3.6206152 4.4903026 -0.40816689 0.97713512
-3.5295312 4.4916797 -0.40422812 0.97735322
-3.3523827 4.4942675 -0.39675131 0.97776735
-3.2917578 4.5307031 -0.39628586 0.97779322
-3.1773827 4.612783 -0.3963531 0.97778952
-3.1194432 4.6527343 -0.39638722 0.97778767
-3.0610058 4.6919923 -0.39642158 0.97778565
-3.0020604 4.7304883 -0.39645624 0.9777838
-2.8827538 4.8052831 -0.39652646 0.97777987
-2.638623 4.9458494 -0.39667007 0.97777194
-2.576494 4.9790721 -0.39670664 0.97776991
-2.5139551 5.0115333 -0.39674345 0.97776788
-2.0653417 5.216455 -0.39700747 0.97775334
-1.9998242 5.2425194 -0.39704603 0.97775114
-1.8678125 5.2921581 -0.39712375 0.97774678
-1.7345703 5.3384862 -0.39720216 0.97774243
-1.6675097 5.3603806 -0.39724162 0.97774029
-1.6001953 5.3814454 -0.39728126 0.97773808
-1.5326074 5.4016795 -0.39732108 0.97773588
-1.4647655 5.4210644 -0.39736101 0.97773361
-1.3283203 5.4572654 -0.39744133 0.97772914
-1.2597558 5.474082 -0.39748168 0.97772694
-1.1220508 5.505127 -0.39756277 0.97772247
-0.91403317 5.5452147 -0.39768526 0.97771567
-0.77454102 5.5675879 -0.39776739 0.97771108
-0.63451171 5.5864453 -0.39784983 0.97770655
-0.56435543 5.5945702 -0.39789119 0.97770423
-0.49404296 5.6017871 -0.39793259 0.97770196
-0.42365232 5.6081443 -0.39797404 0.97769964
-0.35317382 5.6136131 -0.3980155 0.97769737
-0.28264648 5.6181931 -0.39805704 0.97769505
-0.14139648 5.6246972 -0.39814025 0.97769046
-0.070732422 5.6266208 -0.39818192 0.97768813
-9.7656248e-06 5.6276364 -0.39822355 0.97768587
0.070722654 5.6277833 -0.39826521 0.97768354
0.28285155 5.6228809 -0.39839014 0.97767669
0.42416015 5.6151757 -0.39847338 0.97767204
0.49475583 5.6099901 -0.39851502 0.97766972
0.63569337 5.5969434 -0.39859802 0.97766513
0.70607418 5.5890918 -0.39863947 0.97766286
0.77633786 5.5803709 -0.39868087 0.97766048
0.98638672 5.5488672 -0.39880461 0.97765368
1.0561719 5.5366015 -0.39884573 0.97765136
1.1257617 5.5234666 -0.39888674 0.97764909
1.2644628 5.4945407 -0.39896849 0.97764462
1.3335644 5.4787889 -0.3990092 0.9776423
1.4024512 5.4621482 -0.39904979 0.97764009
1.5395703 5.4262791 -0.39913058 0.97763562
1.675791 5.3869629 -0.39921087 0.97763115
1.7435156 5.3660059 -0.39925078 0.97762901
1.8110156 5.3442283 -0.39929053 0.97762668
1.8781836 5.3215623 -0.39933014 0.9776246
1.9450976 5.2980661 -0.39936963 0.97762239
2.0780566 5.2485352 -0.39944792 0.97761804
2.1440234 5.2225099 -0.39948684 0.97761595
2.4046581 5.1101661 -0.39964047 0.97760737
2.7220604 4.951406 -0.3998276 0.977597
2.7843261 4.9172559 -0.39986432 0.97759497
2.9684863 4.8101368 -0.39997292 0.97758889
3.3241112 4.575254 -0.4001826 0.97757733
3.3816211 4.5335155 -0.40021655 0.97757548
3.5086131 4.4650683 -0.4018347 0.97748584
3.7062011 4.4800682 -0.41143596 0.97695404
3.9114842 4.49332 -0.42155147 0.97639424
4.3859472 4.554492 -0.44742584 0.97496361
4.7327051 4.6736131 -0.47066501 0.97368044
4.9295506 4.7471189 -0.48427063 0.97293007
5.1381445 4.8250294 -0.49876648 0.97213119
5.3790135 4.6824903 -0.5046438 0.97180736
5.4377928 4.6148534 -0.50467849 0.97180545
5.6642771 4.3369236 -0.50481218 0.97179824
1.2540917 0.8638379 -0.10775802 0.9939121
1.2546093 0.79620117 -0.1051474 0.99405915
1.2550976 0.73165035 -0.10280071 0.99419129
1.2552344 0.71076173 -0.10207283 0.9942323
1.2914063 0.70995116 -0.1042797 0.9941079
1.3719629 0.70993161 -0.10931076 0.99382466
1.4607714 0.70995116 -0.11492881 0.99350828
1.5087011 0.70994139 -0.11798872 0.99333608
1.5592675 0.70994139 -0.1212359 0.99315327
1.6127245 0.70995116 -0.12468681 0.99295896
1.7293261 0.70994139 -0.13228011 0.99253178
1.7931347 0.70994139 -0.1364678 0.99229628
1.8611034 0.70994139 -0.14095274 0.99204421
1.9337499 0.70995116 -0.14576593 0.99177361
2.023711 0.68578124 -0.15120104 0.99146825
6.8727536 1.9499804 -0.50552654 0.9717589
6.9199805 1.7767481 -0.50555456 0.97175729
6.9628024 1.602373 -0.50557995 0.97175586
7.0011716 1.4269629 -0.50560278 0.97175467
7.0645409 1.0734668 -0.50564045 0.97175264
7.0776072 0.98461914 -0.5056482 0.97175211
7.0895019 0.89561522 -0.50565529 0.97175181
7.1003027 0.80647457 -0.50566179 0.97175139
7.1099415 0.71718746 -0.50566757 0.97175109
7.1258688 0.53830075 -0.50567716 0.97175056
7.1321192 0.44872069 -0.50568092 0.97175032
7.1440721 0.17958984 -0.50568825 0.9717499
7.1463671 -0 -0.50568974 0.97174978
7.1440525 -0.17958984 -0.50568861 0.97174996
7.1372461 -0.35905272 -0.50568479 0.97175014
7.1321387 -0.44872069 -0.50568187 0.97175026
7.1258883 -0.53829098 -0.5056783 0.97175044
7.1184959 -0.62779295 -0.50567406 0.97175074
7.1099706 -0.71720701 -0.50566906 0.97175097
7.1003122 -0.80647457 -0.50566351 0.97175133
7.0776172 -0.98461914 -0.50565034 0.97175205
7.0504293 -1.1621289 -0.50563449 0.97175288
7.0012302 -1.4269629 -0.50560582 0.97175443
6.9628515 -1.6023632 -0.50558341 0.97175568
6.9420018 -1.6896973 -0.50557119 0.97175634
6.9200292 -1.7767675 -0.50555837 0.97175711
6.8969626 -1.8635352 -0.5055449 0.97175789
6.847568 -2.0361524 -0.50551599 0.97175944
2.0237305 -0.65753907 -0.15057227 0.99150354
2.0237207 -0.71423829 -0.15185896 0.99143124
1.6693066 -0.70994139 -0.12836272 0.99275225
1.6127441 -0.70995116 -0.12468841 0.9929589
1.5592871 -0.70996094 -0.12123735 0.99315315
1.460791 -0.70996094 -0.11493012 0.99350822
1.3719823 -0.70996094 -0.10931236 0.99382454
1.3307519 -0.70996094 -0.10672886 0.99396998
1.2552344 -0.71074218 -0.10207268 0.9942323
1.2550879 -0.73163086 -0.10280067 0.99419135
1.2547754 -0.7743457 -0.10433712 0.9941048
1.2540917 -0.86385739 -0.10775787 0.9939121
1.2538965 -0.88717771 -0.10869118 0.99385953
1.2537011 -0.91088867 -0.1096582 0.99380505
4.5266309 -3.6499219 -0.41146967 0.97695225
4.415 -3.6524022 -0.40546244 0.97728485
4.3200097 -3.6662402 -0.40093911 0.97753543
4.2733107 -3.7199609 -0.40091163 0.97753698
4.1778903 -3.8256445 -0.40085554 0.97754008
4.079834 -3.9288769 -0.4007979 0.97754323
4.0298533 -3.979531 -0.40076849 0.9775449
3.9792383 -4.0295701 -0.40073875 0.97754651
3.8761425 -4.127656 -0.40067813 0.97754985
3.823662 -4.1757126 -0.40064728 0.97755164
3.7706151 -4.2231054 -0.40061605 0.97755331
3.6627049 -4.3158493 -0.40055263 0.97755682
3.6078711 -4.3611913 -0.40052035 0.97755861
3.4965527 -4.4497557 -0.40045488 0.97756225
3.325537 -4.5772266 -0.4003543 0.97756779
3.2674901 -4.6182423 -0.40032017 0.97756976
3.2089062 -4.658545 -0.40028572 0.97757167
3.1498535 -4.6980958 -0.40025097 0.97757351
3.0903027 -4.7368946 -0.40021589 0.97757548
2.9087791 -4.848701 -0.40010914 0.97758144
2.7855175 -4.9193749 -0.40003657 0.97758543
2.6605272 -4.9869142 -0.39996305 0.97758949
2.5338867 -5.05124 -0.39988849 0.97759366
2.3410547 -5.1417089 -0.39977503 0.97759986
2.0126073 -5.2759962 -0.3995817 0.97761065
1.4045606 -3.9795702 -0.29862544 0.9832195
1.3476952 -3.977041 -0.29714206 0.98330224
1.7442578 -5.36833 -0.39942375 0.97761941
1.5402441 -5.4286423 -0.39930364 0.97762597
1.4030566 -5.4645214 -0.39922285 0.9776305
1.1957324 -5.5118456 -0.39910084 0.97763723
1.12625 -5.5258493 -0.39905989 0.97763956
0.98682612 -5.5512695 -0.39897782 0.97764409
0.91691405 -5.5626559 -0.39893666 0.97764635
0.84683591 -5.573164 -0.39889538 0.97764868
0.77666014 -5.5827832 -0.39885405 0.97765094
0.70637691 -5.5915232 -0.39881268 0.97765326
0.56551754 -5.6063476 -0.39872974 0.97765779
0.49498045 -5.6124215 -0.39868817 0.97766012
0.28298828 -5.6253223 -0.3985633 0.97766709
-9.7656248e-06 -5.6300879 -0.39839664 0.97767627
-0.14146484 -5.6271386 -0.39831331 0.97768086
-0.21213867 -5.6243162 -0.39827171 0.97768325
-0.28278321 -5.6206346 -0.39823008 0.97768545
-0.49424803 -5.6042285 -0.3981055 0.97769237
-0.56457031 -5.5969825 -0.39806408 0.97769475
-0.63478512 -5.5888672 -0.39802268 0.97769701
-0.70491207 -5.5798926 -0.39798138 0.97769922
-0.77489257 -5.5699902 -0.39794016 0.9777016
-0.84472656 -5.559248 -0.397899 0.97770381
-0.91444331 -5.547617 -0.39785793 0.97770613
-1.2603124 -5.4764452 -0.39765415 0.9777174
-1.397246 -5.4419432 -0.39757341 0.97772187
-1.4654003 -5.4233985 -0.3975333 0.97772413
-1.6008984 -5.3837986 -0.39745343 0.97772849
-1.6682421 -5.3627048 -0.3974137 0.97773075
-1.8021191 -5.318037 -0.39733481 0.9777351
-1.8686426 -5.2944531 -0.39729559 0.97773725
-1.9348047 -5.2700391 -0.39725661 0.97773945
-2.0662498 -5.2187304 -0.39717913 0.97774369
-2.4520898 -5.045361 -0.39695171 0.97775632
-2.5150487 -5.0136914 -0.3969146 0.97775835
-2.5776269 -4.9812207 -0.39687771 0.97776043
-2.6397655 -4.947988 -0.39684108 0.97776246
-2.7014842 -4.9139743 -0.39680466 0.97776443
-2.8236229 -4.8436422 -0.39673266 0.97776848
-2.8839941 -4.807363 -0.39669704 0.97777039
-2.9439061 -4.7703123 -0.3966617 0.97777241
-3.0033691 -4.7325196 -0.39662665 0.97777432
-3.120791 -4.6547461 -0.39655742 0.97777814
-3.2931738 -4.5326462 -0.39645576 0.9777838
-3.3495898 -4.4905372 -0.39642251 0.97778559
-3.676543 -4.2233982 -0.39622962 0.97779632
-3.7809277 -4.1290431 -0.39616802 0.97779971
-3.8322167 -4.0808887 -0.39613777 0.97780138
-3.9824121 -3.9326854 -0.39604914 0.97780627
-4.0794044 -3.830791 -0.39599192 0.97780949
-1.024375 -0.91458982 -0.097174108 0.99450839
-1.0247656 -0.86967772 -0.095109172 0.99462485
-1.025166 -0.82659179 -0.093186647 0.99473315
-1.0253417 -0.80568355 -0.092275277 0.99478453
-1.0260254 -0.72590816 -0.088936158 0.99497271
-1.058916 -0.70994139 -0.090213396 0.99490076
-1.0882226 -0.70994139 -0.091943853 0.99480325
-1.1187011 -0.70993161 -0.093757361 0.99470103
-1.1504004 -0.70993161 -0.095658913 0.99459386
-1.2914159 -0.70995116 -0.10428093 0.9941079
-1.3307421 -0.70995116 -0.10672893 0.99397004
-1.3719727 -0.70997071 -0.10931228 0.99382454
-1.4152832 -0.70996094 -0.11204182 0.99367076
-1.4608105 -0.70994139 -0.11493007 0.99350816
-1.5592773 -0.70995116 -0.12123733 0.99315321
-1.6127245 -0.70995116 -0.12468843 0.99295896
-1.7293164 -0.70995116 -0.1322815 0.99253184
-1.7930077 -0.68396485 -0.13579538 0.99233419
-1.7929003 -0.65824217 -0.13515003 0.99237049
-6.659492 -2.2566893 -0.49756035 0.97219759
-6.7136717 -2.088496 -0.49752825 0.97219938
-6.7391696 -2.003916 -0.49751315 0.97220021
-6.7870016 -1.8338085 -0.4974848 0.97220182
-6.8093553 -1.7483495 -0.49747154 0.97220248
-6.8507714 -1.5765917 -0.49744695 0.97220391
-6.8879199 -1.4038671 -0.49742487 0.97220516
-6.9207811 -1.2302929 -0.49740535 0.97220612
-6.9355564 -1.1431934 -0.49739653 0.97220665
-6.9492674 -1.0559375 -0.49738836 0.97220707
-6.961875 -0.96851557 -0.49738085 0.97220755
-6.9931736 -0.70541012 -0.49736217 0.97220856
-7.0014353 -0.61746091 -0.49735722 0.97220874
-7.008584 -0.52943361 -0.4973529 0.97220898
-7.0146189 -0.44131836 -0.49734923 0.97220922
-7.0195603 -0.35313475 -0.49734622 0.97220939
-7.0233984 -0.26490232 -0.4973439 0.97220957
-6.7638378 0.085009761 -0.4974964 0.97323418
-6.7622266 0.16999023 -0.49749723 0.97323418
-6.7595606 0.25495118 -0.49749872 0.97323418
-6.7511129 0.4247461 -0.49750355 0.97323382
-6.7383785 0.59427732 -0.49751082 0.97323352
-6.7304587 0.67890626 -0.49751541 0.97323322
-6.7214451 0.76343751 -0.49752063 0.97323304
-6.7114258 0.84785151 -0.49752647 0.97323263
-6.7003222 0.93212891 -0.4975329 0.97323227
-6.6881738 1.0162792 -0.49753997 0.97323191
-6.6607518 1.1840625 -0.49755594 0.97323102
-6.6117578 1.4343554 -0.49758452 0.97322953
-6.593369 1.5173535 -0.49759528 0.97322893
-6.573916 1.6001269 -0.49760664 0.97322839
-6.5094042 1.8468847 -0.49764436 0.97322649
-6.4858789 1.9286035 -0.49765813 0.97322565
-6.461318 2.01 -0.49767253 0.97322494
-6.3815722 2.2523143 -0.49771926 0.97322243
-1.7937793 0.65856445 -0.14053681 0.99236524
-1.7938867 0.68429685 -0.14120784 0.99232894
-1.7292968 0.70995116 -0.1374857 0.99253041
-1.6692969 0.70994139 -0.1334127 0.99275082
-1.6126952 0.70994139 -0.12959379 0.99295771
-1.5592675 0.70994139 -0.12600695 0.9931519
-1.5087011 0.70993161 -0.12263233 0.99333477
-1.4152637 0.70995116 -0.11644994 0.99366963
-1.2913965 0.70994139 -0.10838379 0.99410683
-1.217832 0.70995116 -0.10367702 0.99436206
-1.1834179 0.70996094 -0.10149715 0.99448019
-1.1503906 0.70995116 -0.099422641 0.99459279
-1.0882324 0.70995116 -0.095561408 0.99480218
-1.0588964 0.70995116 -0.09376274 0.99489981
-1.0306739 0.70996094 -0.09204483 0.99499291
-1.0248047 0.78465819 -0.094927557 0.99483663
-1.0244238 0.82603514 -0.096786074 0.99473578
-1.0242285 0.84732419 -0.097766265 0.99468267
-1.0240332 0.86907226 -0.098781586 0.99462754
-1.0233886 0.93711913 -0.10205566 0.99444997
-4.4400392 4.4961815 -0.46474189 0.97497427
-4.3283496 4.4946971 -0.45892912 0.97528338
-4.1131349 4.4918361 -0.44793913 0.97586805
-4.0093064 4.490449 -0.44274196 0.97614467
-3.8086133 4.487793 -0.43290305 0.9766686
-3.6165428 4.4852443 -0.42375293 0.97715604
-3.3451757 4.4846482 -0.41148335 0.97781008
-3.174834 4.4873047 -0.40427673 0.97819442
-3.0918262 4.4885349 -0.40085536 0.97837692
-3.0101366 4.4897165 -0.39755127 0.9785533
-2.7740624 4.6240821 -0.39659068 0.9786045
-2.6574121 4.6931443 -0.39665928 0.97860092
-2.5984764 4.7266016 -0.39669397 0.97859895
-2.4793067 4.7912402 -0.3967641 0.97859526
-2.4191015 4.8224511 -0.3967995 0.97859341
-2.3585448 4.8528905 -0.39683518 0.9785915
-2.1745605 4.9397068 -0.39694342 0.97858566
-2.1124804 4.9670997 -0.39697996 0.97858375
-2.0500977 4.993711 -0.39701667 0.97858179
-1.9243164 5.0445895 -0.3970907 0.97857785
-1.8609668 5.0688376 -0.39712802 0.97857589
-1.7972949 5.0923142 -0.39716548 0.9785738
-1.7333105 5.1149707 -0.39720312 0.97857189
-1.6690527 5.1368456 -0.39724097 0.97856981
-1.474707 5.1975975 -0.39735541 0.97856367
-1.4094043 5.2162204 -0.39739382 0.97856164
-1.3438867 5.2340231 -0.39743239 0.97855961
-1.212168 5.2671776 -0.39750996 0.97855544
-1.1459961 5.2825193 -0.39754888 0.97855335
-1.0796094 5.2970114 -0.39758798 0.97855133
-0.94633788 5.3235154 -0.39766645 0.97854716
-0.81243163 5.3466892 -0.39774531 0.97854286
-0.74525386 5.3570018 -0.39778486 0.97854078
-0.54297853 5.3829002 -0.39790401 0.9785344
-0.40764648 5.3959274 -0.3979837 0.97853017
-0.27192381 5.4055467 -0.3980636 0.97852594
0 5.4145703 -0.39822379 0.97851735
0.068046875 5.4146681 -0.39826384 0.97851527
0.13608398 5.4139357 -0.39830393 0.97851312
0.20415038 5.4123535 -0.39834404 0.97851092
0.27215821 5.4098926 -0.39838409 0.97850883
0.34014648 5.4066014 -0.39842415 0.97850668
0.40812498 5.4024415 -0.39846414 0.97850454
0.47601563 5.3974218 -0.39850417 0.97850239
0.67928708 5.3772755 -0.39862394 0.97849596
0.74690425 5.3688278 -0.39866379 0.97849393
0.81438476 5.35958 -0.39870352 0.97849172
1.0160937 5.3266501 -0.39882237 0.97848547
1.0830663 5.3139939 -0.39886183 0.97848332
1.2165039 5.2861228 -0.39894047 0.97847915
1.3492285 5.2549219 -0.39901868 0.97847497
1.4153028 5.2380662 -0.3990576 0.97847283
1.6121875 5.1824999 -0.39917362 0.97846669
1.8068848 5.1195407 -0.39928836 0.97846055
1.9353417 5.0734668 -0.39936408 0.9784565
1.9991308 5.0492187 -0.39940166 0.97845453
2.1257715 4.9983201 -0.39947635 0.97845054
2.1886327 4.9716892 -0.39951339 0.97844851
2.2511327 4.9442282 -0.39955023 0.9784466
2.436543 4.8572168 -0.39965954 0.97844076
2.4976075 4.8266306 -0.39969552 0.97843891
2.6784863 4.7303319 -0.39980215 0.97843313
2.7969921 4.6623535 -0.39987203 0.97842938
2.8681836 4.6476269 -0.40166831 0.97833353
2.913789 4.5913768 -0.39994091 0.97842574
3.0287402 4.5174513 -0.40000868 0.97842222
3.0855272 4.4794431 -0.40004218 0.97842032
3.3993847 4.4398046 -0.41125667 0.97782218
3.493125 4.4453416 -0.41580248 0.97757977
3.5895801 4.451787 -0.42059183 0.97732449
3.6939647 4.4652538 -0.42621577 0.97702479
3.8012304 4.4790821 -0.43206096 0.97671336
4.0248828 4.5079103 -0.44446251 0.97605306
4.1416211 4.5229588 -0.45104218 0.97570294
4.2618942 4.5384669 -0.45789328 0.97533846
4.3859568 4.554492 -0.46503356 0.97495866
4.5465918 4.6040916 -0.47589484 0.97438139
4.7327051 4.6735935 -0.48918876 0.97367531
5.1740918 4.5041113 -0.50452328 0.97286135
5.2306347 4.439033 -0.50455666 0.97285956
5.2863278 4.3732324 -0.5045895 0.97285789
5.3412108 4.3067479 -0.50462192 0.9728561
5.3952537 4.2395506 -0.50465387 0.97285444
5.4484668 4.17167 -0.50468522 0.97285271
1.252666 0.93438476 -0.11493675 0.99375165
1.2532715 0.86327147 -0.11192457 0.9939149
1.2534473 0.8403613 -0.11098934 0.99396563
1.2538183 0.79569334 -0.10921505 0.99406171
1.2544141 0.71030271 -0.10602359 0.99423486
1.3307226 0.70994139 -0.11092807 0.99396896
1.3719629 0.70994139 -0.11361282 0.99382341
1.4607714 0.70995116 -0.1194516 0.99350703
1.5087011 0.70994139 -0.1226322 0.99333471
1.6127245 0.70995116 -0.12959404 0.99295759
1.9337499 0.70995116 -0.1515024 0.99177194
2.0236328 0.6857422 -0.15714605 0.99146688
2.0236621 0.65752929 -0.15649264 0.99150211
6.5608883 2.0409765 -0.50534272 0.97281796
6.6559081 1.708955 -0.50539911 0.97281492
6.6770215 1.6251953 -0.50541157 0.97281426
6.6970701 1.5412109 -0.50542349 0.97281367
6.7160645 1.4569726 -0.50543481 0.97281301
6.733994 1.3724804 -0.50544542 0.97281241
6.7666111 1.2028809 -0.50546479 0.9728114
6.7813087 1.1177734 -0.50547355 0.97281098
6.7949414 1.0325 -0.50548166 0.97281045
6.8074803 0.94705075 -0.50548917 0.97281009
6.8189259 0.86142576 -0.50549597 0.97280973
6.8292966 0.77568358 -0.50550216 0.97280943
6.8385544 0.68980467 -0.50550771 0.97280926
6.8467579 0.60382813 -0.50551265 0.97280896
6.8538961 0.51776367 -0.50551695 0.9728086
6.8686619 0.2590625 -0.50552595 0.97280812
6.871367 0.1727246 -0.50552762 0.97280812
6.8730273 0.08637695 -0.50552869 0.972808
6.8735743 -9.7656248e-06 -0.50552911 0.972808
6.8730564 -0.086367182 -0.50552887 0.97280788
6.871367 -0.17273436 -0.50552797 0.97280812
6.8599219 -0.43159178 -0.50552148 0.97280836
6.8538866 -0.5177539 -0.50551808 0.9728086
6.846787 -0.60382813 -0.50551397 0.97280884
6.8293552 -0.77568358 -0.50550389 0.9728092
6.8189449 -0.86143553 -0.50549787 0.97280967
6.8074899 -0.94704098 -0.5054912 0.97281003
6.794951 -1.0324903 -0.50548387 0.97281045
6.7813282 -1.117793 -0.50547594 0.97281086
6.7666602 -1.2028906 -0.50546741 0.97281122
6.7508688 -1.2877929 -0.50545824 0.97281176
6.7161131 -1.4569921 -0.50543791 0.97281283
6.6770701 -1.6252344 -0.50541508 0.97281402
6.6559763 -1.7089648 -0.50540274 0.97281462
6.6337986 -1.792412 -0.50538975 0.97281539
6.5862985 -1.9584668 -0.50536197 0.97281682
6.560957 -2.0409961 -0.50534713 0.97281772
1.9337695 -0.70994139 -0.151504 0.99177188
1.8611523 -0.70994139 -0.14650105 0.99204248
1.7293164 -0.70995116 -0.13748717 0.99253035
1.6693066 -0.70994139 -0.13341421 0.99275082
1.6127441 -0.70995116 -0.12959549 0.99295753
1.5087206 -0.70995116 -0.12263326 0.99333465
1.2913965 -0.70997071 -0.10838486 0.99410677
1.2544335 -0.71030271 -0.10602348 0.9942348
1.2541406 -0.75237304 -0.10756203 0.99415135
1.2537988 -0.79570311 -0.10921493 0.99406177
1.252871 -0.91027343 -0.11389713 0.99380797
4.7629786 -3.6468651 -0.44119224 0.9762271
4.6390138 -3.645293 -0.43391779 0.97661453
4.519033 -3.6437988 -0.42694542 0.97698593
4.2950974 -3.6450975 -0.41431379 0.97765911
4.1900291 -3.6474903 -0.40856871 0.97796547
4.0187497 -3.6799316 -0.40076166 0.97838199
3.9719238 -3.7298827 -0.40073413 0.97838342
3.8970604 -3.8483984 -0.40281487 0.97827244
3.8276951 -3.8761132 -0.40064934 0.97838801
3.728545 -3.9704978 -0.40059105 0.97839111
3.6270702 -4.0623341 -0.40053135 0.97839427
3.575459 -4.107295 -0.40050098 0.97839582
3.4705663 -4.1952147 -0.40043932 0.9783991
3.4172947 -4.2381444 -0.40040797 0.97840089
3.2543554 -4.3629003 -0.40031216 0.97840595
3.199033 -4.4030857 -0.40027961 0.97840768
3.0300488 -4.5194044 -0.40018019 0.97841299
2.9150391 -4.5933495 -0.40011251 0.97841656
2.7981834 -4.6643553 -0.40004379 0.97842026
2.739121 -4.69875 -0.40000904 0.97842205
2.6796191 -4.7323632 -0.39997402 0.97842401
2.6197166 -4.765254 -0.39993876 0.97842586
2.5593944 -4.7973728 -0.3999033 0.97842777
2.4986913 -4.828711 -0.39986753 0.97842968
2.3761327 -4.8891211 -0.39979541 0.97843343
2.3142967 -4.9181347 -0.39975905 0.9784354
2.1895506 -4.9738379 -0.39968562 0.97843933
2 -5.0513964 -0.39957404 0.97844535
1.9361719 -5.075654 -0.39953646 0.97844732
1.8720801 -5.0991015 -0.39949873 0.97844934
1.4045508 -3.9795506 -0.3103784 0.98321629
1.6128906 -5.1847363 -0.39934614 0.97845751
1.4817871 -5.2226171 -0.39926898 0.97846162
1.4158984 -5.2403221 -0.39923021 0.97846371
1.3498144 -5.2571974 -0.39919129 0.97846574
1.2835351 -5.2732224 -0.39915228 0.97846782
1.2170312 -5.2884178 -0.39911312 0.97846991
1.1503711 -5.3027735 -0.39907387 0.97847199
1.0165527 -5.3289552 -0.39899507 0.97847623
0.88213867 -5.3517675 -0.39891592 0.9784804
0.81473631 -5.3618846 -0.39887622 0.97848254
0.74722654 -5.3711815 -0.39883652 0.97848463
0.67959958 -5.3795896 -0.39879668 0.97848684
0.54407227 -5.3938966 -0.39871684 0.97849107
0.27226561 -5.4122362 -0.39855677 0.97849965
-0.068056636 -5.415947 -0.39835632 0.97851026
-0.13612305 -5.4141111 -0.39831626 0.97851241
-0.20409179 -5.4114256 -0.39827618 0.97851455
-0.54322267 -5.3852439 -0.39807644 0.97852516
-0.67825192 -5.3688083 -0.39799684 0.97852945
-0.74557614 -5.3593359 -0.39795718 0.97853154
-0.81277341 -5.3490038 -0.39791763 0.97853369
-0.87985349 -5.3378415 -0.39787811 0.97853577
-0.94677734 -5.32583 -0.39783865 0.97853792
-1.0135254 -5.3129883 -0.39779934 0.97854
-1.0801075 -5.2993064 -0.39776006 0.97854209
-1.2126952 -5.2694726 -0.39768195 0.9785462
-1.4100293 -5.2184668 -0.39756569 0.97855252
-1.5404199 -5.1803904 -0.39748886 0.97855657
-1.6697851 -5.1390524 -0.3974126 0.97856069
-1.7340722 -5.1171775 -0.39737472 0.97856271
-1.8617675 -5.0710254 -0.39729944 0.97856671
-2.1134081 -4.9692383 -0.39715111 0.97857457
-2.175498 -4.9418359 -0.39711452 0.97857648
-2.298584 -4.884707 -0.39704195 0.97858042
-2.3595507 -4.85499 -0.39700598 0.97858238
-2.4201562 -4.8245215 -0.39697027 0.97858429
-2.4803612 -4.7933106 -0.39693478 0.97858614
-2.5401855 -4.7613378 -0.39689952 0.97858799
-2.6585643 -4.6951756 -0.39682972 0.97859174
-2.7171092 -4.6609764 -0.39679518 0.97859365
-2.8901269 -4.5541015 -0.39669314 0.97859901
-3.058955 -4.4408202 -0.39659363 0.97860432
-3.114248 -4.40166 -0.396561 0.9786061
-3.2233496 -4.3213181 -0.39649665 0.9786095
-3.4353514 -4.1525974 -0.3963716 0.97861612
-3.486953 -4.108789 -0.39634117 0.97861779
-3.5885839 -4.019238 -0.39628118 0.97862101
-3.8824217 -3.73875 -0.39641365 0.97861397
-3.9258106 -3.6865819 -0.39608222 0.97863168
-1.0233886 -0.93709958 -0.10205543 0.99444997
-1.0236328 -0.91392577 -0.1009248 0.99451125
-1.0238281 -0.89125973 -0.099833794 0.99457049
-1.0240234 -0.86905271 -0.098781504 0.99462765
-1.0242578 -0.84733397 -0.097766072 0.99468255
-1.0246289 -0.80514646 -0.095840335 0.9947871
-1.0251465 -0.74480468 -0.093195796 0.99493062
-1.1504004 -0.70993161 -0.099423632 0.99459279
-1.1834179 -0.70995116 -0.1014983 0.99448025
-1.2178515 -0.70995116 -0.10367832 0.994362
-1.2538183 -0.70997071 -0.10597073 0.9942376
-1.2913769 -0.70995116 -0.10838478 0.99410683
-1.3307421 -0.70996094 -0.11092922 0.99396884
-1.4152832 -0.70996094 -0.11645123 0.99366951
-1.5592773 -0.70994139 -0.12600845 0.9931519
-1.6127245 -0.70995116 -0.12959535 0.99295759
-1.6692871 -0.70994139 -0.13341419 0.99275088
-1.7940038 -0.71028316 -0.14190818 0.99229103
-6.4092479 -2.1718946 -0.49770766 0.97322297
-6.4613867 -2.0100195 -0.49767676 0.97322464
-6.4859276 -1.928623 -0.49766222 0.97322547
-6.5094824 -1.8469043 -0.49764827 0.97322619
-6.6291404 -1.351123 -0.49757728 0.97323
-6.6454883 -1.2677051 -0.49756753 0.97323042
-6.6607809 -1.1840527 -0.49755844 0.9732309
-6.6749902 -1.1002539 -0.49754995 0.97323149
-6.7214842 -0.76343751 -0.49752223 0.97323287
-6.7304587 -0.67889649 -0.49751684 0.97323322
-6.7511034 -0.42473632 -0.49750441 0.97323388
-6.7558689 -0.33987305 -0.49750152 0.973234
-6.7622361 -0.16998047 -0.49749762 0.97323418
-6.7638183 -0.085000001 -0.4974966 0.97323424
-6.5193748 -0 -0.49764049 0.97418571
-6.5188475 0.081933595 -0.49764067 0.97418571
-6.5173144 0.16382812 -0.4976415 0.97418571
-6.5111814 0.32756835 -0.49764496 0.97418553
-6.5009766 0.49109372 -0.49765077 0.97418517
-6.4866991 0.65432614 -0.49765903 0.97418475
-6.4780273 0.73579103 -0.49766406 0.97418445
-6.4683299 0.81713867 -0.49766967 0.97418427
-6.4576364 0.89836913 -0.4976759 0.97418392
-6.3357911 1.5421581 -0.49774694 0.97418022
-6.2025876 2.0153515 -0.49782494 0.97417623
-6.1503515 2.1707032 -0.49785551 0.97417474
-1.7946582 0.65887696 -0.14593107 0.99235994
-1.7947558 0.6846289 -0.14662807 0.99232364
-1.6126952 0.70994139 -0.13450308 0.99295622
-1.5592675 0.70994139 -0.13078035 0.99315053
-1.4607812 0.70995116 -0.12397663 0.9935056
-1.4152637 0.70994139 -0.12086113 0.99366832
-1.3719823 0.70994139 -0.1179165 0.99382204
-1.3307226 0.70994139 -0.11512996 0.99396771
-1.2537988 0.70994139 -0.10998394 0.99423653
-1.1834375 0.70994139 -0.10534191 0.99447906
-1.1503906 0.70995116 -0.10318866 0.99459165
-1.0882324 0.70995116 -0.099181324 0.9948011
-1.0241015 0.78413087 -0.098455846 0.99483907
-1.023711 0.82546872 -0.10038223 0.99473834
-1.023086 0.890625 -0.10354095 0.99457324
-1.0228808 0.91326171 -0.10467152 0.99451417
-4.7622461 4.4720507 -0.49867067 0.97413301
-4.5545702 4.497705 -0.48861086 0.97464818
-4.4400392 4.4961815 -0.48234591 0.97496915
-4.3283591 4.4946971 -0.47631347 0.97527832
-4.2194529 4.4932518 -0.47050387 0.97557604
-4.0092869 4.490459 -0.45951232 0.97613978
-3.9078417 4.4891114 -0.45431361 0.97640651
-3.8086231 4.487793 -0.44930103 0.97666383
-3.7115526 4.4865036 -0.44446677 0.97691196
-3.4323242 4.4827929 -0.43096802 0.97760522
-3.3429589 4.4816599 -0.42678621 0.9778201
-3.1693652 4.4795508 -0.4188655 0.9782272
-3.0853515 4.4792089 -0.41517437 0.97841704
-2.9237792 4.4816403 -0.40845957 0.97876233
-2.8448632 4.4827733 -0.40527183 0.9789263
-2.6171973 4.4896092 -0.39668319 0.97936827
-2.5608106 4.5225291 -0.39671639 0.97936654
-2.5039842 4.5547166 -0.39674982 0.97936487
-2.4467676 4.5862207 -0.39678347 0.97936308
-2.3891406 4.617002 -0.39681739 0.97936136
-2.3311327 4.6470509 -0.39685154 0.97935963
-2.2754784 4.6819725 -0.39735931 0.9793334
-2.213994 4.7049804 -0.39692047 0.97935611
-2.1548827 4.7328515 -0.39695525 0.97935426
-1.975498 4.8119822 -0.39706081 0.97934884
-1.6702148 4.9287596 -0.39724052 0.9793396
-1.546123 4.9700975 -0.39731357 0.97933578
-1.4836913 4.9895802 -0.39735031 0.97933394
-1.4209863 5.0083103 -0.39738724 0.97933203
-1.3580663 5.0262208 -0.39742428 0.97933018
-1.1042187 5.0900388 -0.39757374 0.97932243
-1.0402734 5.1039939 -0.39761138 0.97932047
-0.9761523 5.1171484 -0.39764914 0.97931856
-0.84740233 5.1410351 -0.3977249 0.97931468
-0.78282225 5.1517673 -0.39776298 0.97931272
-0.65322262 5.1708102 -0.39783928 0.97930878
-0.58825195 5.1791015 -0.39787754 0.97930682
-0.45800781 5.1932616 -0.39795426 0.97930282
-0.19657226 5.2117286 -0.39810821 0.97929496
0.19667968 5.2147751 -0.39833984 0.97928298
0.26222655 5.2123828 -0.39837843 0.97928101
0.39319336 5.2051368 -0.39845562 0.97927713
0.58926755 5.1881442 -0.39857113 0.97927111
0.65447265 5.1808395 -0.39860955 0.97926909
0.71958983 5.1726856 -0.39864787 0.97926718
0.78461915 5.1637402 -0.3986862 0.97926515
0.84953123 5.153955 -0.39872444 0.97926325
1.1078515 5.1067185 -0.39887664 0.97925538
1.1720507 5.0928712 -0.39891449 0.97925341
1.2360644 5.0782228 -0.39895216 0.9792515
1.2998828 5.0627732 -0.39898983 0.97924954
1.4901953 5.0115819 -0.39910194 0.97924381
1.5532129 4.9929295 -0.39913908 0.97924185
1.6159863 4.9734864 -0.39917606 0.97923994
1.6785058 4.9532323 -0.39921296 0.97923809
1.7407714 4.9321971 -0.39924964 0.97923625
1.8027831 4.9103808 -0.39928618 0.97923434
1.864502 4.8877931 -0.39932254 0.97923243
1.9259667 4.8644238 -0.39935878 0.97923052
2.1085155 4.7896581 -0.3994664 0.97922504
2.1687109 4.7632227 -0.39950186 0.97922319
2.2285936 4.7360058 -0.39953715 0.9792214
2.4061327 4.6498632 -0.39964184 0.97921604
2.4645801 4.619658 -0.39967626 0.97921425
2.5803516 4.5570407 -0.39974457 0.97921073
2.6376269 4.5246482 -0.39977831 0.97920895
2.6944921 4.4915037 -0.39981186 0.97920734
2.8226268 4.4477735 -0.40210846 0.97908914
2.9005761 4.4460645 -0.40521681 0.97892916
3.0575194 4.4387598 -0.4114252 0.97860974
3.1377733 4.4348927 -0.41469115 0.97844189
3.2192676 4.4309177 -0.41806808 0.97826821
3.3034863 4.4287596 -0.4217481 0.97807908
3.4878709 4.4386621 -0.43090427 0.9776085
3.8011913 4.4790626 -0.44842598 0.97670871
3.9114745 4.4932814 -0.45473379 0.97638488
4.1416211 4.5229392 -0.46812528 0.97569799
4.5465817 4.6040916 -0.49392214 0.9743762
4.7585936 4.5825 -0.50427848 0.97384596
4.816123 4.5226364 -0.50431246 0.97384423
4.8729005 4.4620605 -0.50434589 0.9738425
4.9288964 4.4007521 -0.50437897 0.97384089
4.9841504 4.3387599 -0.50441158 0.9738391
5.0385838 4.2760544 -0.50444371 0.97383749
1.2522558 0.88597655 -0.11709201 0.99386513
1.2531641 0.77336913 -0.11240707 0.99410993
1.2533203 0.75188476 -0.11156576 0.99415392
1.2538086 0.70993161 -0.10998379 0.99423653
1.4607714 0.70995116 -0.12397644 0.99350566
1.6127245 0.70995116 -0.13450302 0.9929561
1.7931347 0.70995116 -0.14721134 0.99229318
2.0235546 0.71419919 -0.16380247 0.99142843
2.0235643 0.6857422 -0.1630929 0.99146539
2.0235741 0.65750974 -0.16241466 0.99150068
6.3196874 1.965957 -0.50520074 0.97379869
6.3674412 1.8066015 -0.50522906 0.97379732
6.3898144 1.7264941 -0.50524229 0.97379661
6.4111524 1.6460937 -0.50525498 0.97379601
6.4314842 1.5654395 -0.50526702 0.97379541
6.4508104 1.4845409 -0.50527853 0.97379476
6.4863477 1.3220215 -0.50529957 0.97379369
6.5025973 1.2404394 -0.50530922 0.97379309
6.5570798 0.91220701 -0.50534171 0.9737916
6.5681348 0.82974607 -0.50534832 0.97379118
6.5949411 0.58162111 -0.50536436 0.97379041
6.6159959 -0.24954101 -0.50537765 0.97378975
6.6076074 -0.41571289 -0.50537288 0.97378987
6.6017966 -0.49871093 -0.50536954 0.97379011
6.5781345 -0.74716794 -0.50535589 0.97379082
6.5681443 -0.82975584 -0.50535005 0.97379112
6.5450778 -0.99452144 -0.5053367 0.97379172
6.5178027 -1.1586425 -0.50532079 0.97379255
6.5025973 -1.2404394 -0.50531191 0.97379309
6.4863768 -1.3220313 -0.50530243 0.97379357
6.4691405 -1.4034082 -0.50529236 0.97379398
6.411211 -1.6461328 -0.5052585 0.97379577
6.3674998 -1.8066113 -0.50523293 0.97379708
6.344121 -1.8864453 -0.50521928 0.9737978
2.0235643 -0.65750974 -0.16241477 0.99150074
2.0235643 -0.68573242 -0.16309284 0.99146539
2.0235643 -0.71420896 -0.16380247 0.99142838
1.9337597 -0.70996094 -0.15724285 0.99177021
1.7293359 -0.70995116 -0.14269531 0.99252874
1.6127441 -0.70996094 -0.13450439 0.99295604
1.5593066 -0.70995116 -0.1307815 0.99315035
1.5087206 -0.70995116 -0.1272788 0.99333328
1.3719727 -0.70995116 -0.11791792 0.9938221
1.2913965 -0.70997071 -0.11249046 0.99410552
1.2535058 -0.73073238 -0.11075382 0.99419624
1.25333 -0.75189453 -0.11156578 0.99415386
1.2524414 -0.86271483 -0.11608761 0.99391758
1.2522362 -0.88598633 -0.11709177 0.99386513
1.252041 -0.90964842 -0.11813225 0.99381083
4.519033 -3.6438086 -0.44311824 0.97698116
4.402832 -3.6423633 -0.43617851 0.97733754
4.2902246 -3.6409276 -0.42951995 0.97767967
4.0772657 -3.6403711 -0.41723046 0.9783113
3.9781053 -3.6426854 -0.41173267 0.97859395
3.8814354 -3.6449022 -0.40643698 0.97886634
3.787158 -3.6470213 -0.40133402 0.9791289
3.7341406 -3.6874902 -0.40059406 0.97916704
3.543164 -3.869375 -0.4004817 0.97917277
3.4443066 -3.9566209 -0.40042359 0.97917575
3.3940527 -3.9992871 -0.40039405 0.97917736
3.343291 -4.041338 -0.40036419 0.97917879
3.2919922 -4.0827146 -0.400334 0.9791804
3.0817187 -4.2416501 -0.40021032 0.97918683
3.0279589 -4.2796969 -0.4001787 0.97918838
2.8637891 -4.3897266 -0.40008211 0.97919339
2.8081932 -4.4250193 -0.40004942 0.979195
2.7521386 -4.4595704 -0.40001643 0.97919679
2.6956542 -4.4934278 -0.3999832 0.97919846
2.6387596 -4.5265818 -0.3999497 0.97920012
2.5814452 -4.5589843 -0.39991599 0.97920197
2.5237403 -4.5906739 -0.39988205 0.9792037
2.4656541 -4.6216307 -0.39984787 0.97920543
2.3483105 -4.6813278 -0.39977881 0.97920901
2.2295411 -4.7380371 -0.3997089 0.97921258
2.1094043 -4.7917185 -0.39963821 0.97921622
2.0488379 -4.8174119 -0.39960256 0.97921807
1.9879785 -4.8423533 -0.39956671 0.97921985
1.8035547 -4.9125094 -0.3994582 0.97922546
1.2365918 -5.08041 -0.39912441 0.97924268
1.10833 -5.1089258 -0.39904892 0.9792465
1.0439355 -5.121953 -0.39901099 0.97924846
0.9793945 -5.1341696 -0.39897299 0.97925049
0.91470701 -5.145586 -0.3989349 0.9792524
0.45883787 -5.2025485 -0.39866644 0.97926623
0.26232421 -5.2146482 -0.39855072 0.97927213
0 -5.2191892 -0.39839622 0.97928017
-0.065595701 -5.2183008 -0.39835757 0.97928202
-0.13113281 -5.2165332 -0.39831898 0.97928411
-0.26213866 -5.2105956 -0.39824179 0.97928804
-0.45819336 -5.1955175 -0.39812627 0.97929394
-0.52338868 -5.188828 -0.39808789 0.97929603
-0.65351564 -5.1730566 -0.39801121 0.9792999
-0.84778321 -5.1432519 -0.39789677 0.97930586
-0.91227537 -5.1317091 -0.39785877 0.97930777
-1.1685058 -5.0774608 -0.39770779 0.97931558
-1.3586621 -5.0284081 -0.39759573 0.9793213
-1.4843261 -4.9917479 -0.39752164 0.97932506
-1.6089941 -4.9519434 -0.39744818 0.97932893
-1.6709276 -4.9308887 -0.39741173 0.97933078
-1.7940136 -4.886445 -0.39733917 0.97933447
-1.9158691 -4.8389258 -0.39726734 0.97933829
-2.0963378 -4.7620115 -0.39716095 0.97934371
-2.2149315 -4.7070017 -0.39709103 0.97934735
-2.3321288 -4.6490626 -0.39702192 0.97935081
-2.4478221 -4.5881834 -0.39695373 0.97935432
-2.5619042 -4.5244532 -0.39688647 0.97935784
-2.8940234 -4.3164845 -0.39669064 0.97936785
-3.053916 -4.2033496 -0.39659634 0.97937274
-3.1580858 -4.1246386 -0.39653486 0.9793759
-3.2094238 -4.0843067 -0.39650458 0.97937751
-3.2602441 -4.0433593 -0.39647463 0.979379
-3.3603418 -3.9595506 -0.39641559 0.97938204
-3.4095702 -3.9167383 -0.39638653 0.97938353
-3.5064354 -3.8292577 -0.39632937 0.97938645
-3.5540135 -3.7846191 -0.39630133 0.97938794
-3.6474903 -3.6936035 -0.39624617 0.97939074
-1.023086 -0.89061522 -0.10354095 0.9945733
-1.0237206 -0.82543945 -0.10038223 0.9947384
-1.0241015 -0.7841211 -0.098456003 0.99483907
-1.0244628 -0.7443164 -0.096660838 0.99493295
-1.0306641 -0.70994139 -0.095532492 0.99499196
-1.058916 -0.70994139 -0.097315446 0.99489868
-1.0882226 -0.70994139 -0.099182315 0.99480116
-1.1187011 -0.70993161 -0.10113834 0.99469888
-1.2178515 -0.70996094 -0.10760563 0.9943608
-1.2538183 -0.70997071 -0.10998493 0.99423641
-1.3307421 -0.70996094 -0.11513109 0.99396759
-1.3719823 -0.70996094 -0.11791778 0.99382204
-1.4608105 -0.70994139 -0.1239777 0.99350554
-1.5087304 -0.70996094 -0.12727876 0.99333322
-1.5592773 -0.70994139 -0.13078147 0.99315047
-1.6692871 -0.70994139 -0.13846782 0.99274939
-1.7947558 -0.6846289 -0.14662793 0.99232364
-1.7946582 -0.65887696 -0.14593093 0.99235994
-6.1769919 -2.0932031 -0.49784437 0.97417533
-6.2026172 -2.0153515 -0.4978292 0.97417611
-6.250957 -1.8587402 -0.49780056 0.97417754
-6.2736425 -1.7799902 -0.49778709 0.97417825
-6.2953515 -1.7009667 -0.49777421 0.97417891
-6.3160934 -1.6216894 -0.49776193 0.97417951
-6.3358102 -1.5421484 -0.49775022 0.97418016
-6.3722949 -1.3823925 -0.49772856 0.97418123
-6.3890429 -1.3021874 -0.49771866 0.97418171
-6.4194922 -1.1411816 -0.49770054 0.97418272
-6.4332223 -1.0604004 -0.49769232 0.97418308
-6.4780273 -0.73580074 -0.49766561 0.97418445
-6.4866991 -0.65430665 -0.49766043 0.97418475
-6.4943357 -0.57274413 -0.49765581 0.97418499
-6.5009961 -0.49108398 -0.49765182 0.97418511
-6.5111814 -0.32755858 -0.49764565 0.97418553
-6.5147653 -0.24571289 -0.49764347 0.97418559
-6.5173044 -0.16382812 -0.49764186 0.97418571
-6.5188475 -0.08191406 -0.49764088 0.97418571
-6.2914062 -0 -0.49777475 0.97507173
-6.289443 0.15811524 -0.49777576 0.97507161
-6.286963 0.2371289 -0.49777707 0.97507161
-6.2790723 0.39504883 -0.4977816 0.97507137
-6.2736621 0.47392577 -0.4977847 0.97507119
-6.2672458 0.5527246 -0.49778837 0.97507107
-6.2421579 0.78856444 -0.49780291 0.9750703
-6.2205176 0.94520503 -0.49781549 0.9750697
-6.1807618 1.1790429 -0.49783865 0.97506857
-6.1655664 1.2566406 -0.49784756 0.97506809
-6.1494141 1.3340429 -0.49785697 0.97506762
-6.1322851 1.4112402 -0.49786696 0.97506714
-6.1141891 1.4882226 -0.49787757 0.9750666
-6.0951562 1.564961 -0.49788871 0.97506601
-6.0322752 1.7937207 -0.49792549 0.97506422
-5.9856348 1.9448534 -0.49795279 0.97506285
-1.7955078 0.65919918 -0.15133257 0.99235469
-1.7956152 0.6849609 -0.15205595 0.99231833
-1.7957519 0.71099609 -0.15281047 0.9922803
-1.7292968 0.70994139 -0.14790364 0.99252731
-1.6692675 0.70995116 -0.14352219 0.99274784
-1.612705 0.70995116 -0.13941404 0.99295467
-1.5592577 0.70995116 -0.13555536 0.99314904
-1.5087011 0.70994139 -0.13192463 0.99333191
-1.4152637 0.70994139 -0.12527405 0.99366695
-1.3307226 0.70994139 -0.11933345 0.9939664
-1.2538086 0.70995116 -0.11399959 0.99423522
-1.1503906 0.70994139 -0.10695621 0.99459052
-1.1187011 0.70994139 -0.10483013 0.99469769
-1.0882324 0.70995116 -0.10280254 0.99479997
-1.0306739 0.70995116 -0.099019699 0.99499083
-1.022998 0.82489258 -0.10397472 0.9947409
-1.0228027 0.84614253 -0.10502594 0.99468786
-1.0221386 0.91259766 -0.10841431 0.99451691
-4.5953808 4.315361 -0.49876913 0.97502261
-4.5410838 4.3730564 -0.49880108 0.975021
-4.2194529 4.4932518 -0.48768359 0.97557086
-4.1131248 4.4918361 -0.48188093 0.97585797
-4.0092969 4.490459 -0.47629029 0.97613472
-3.8086326 4.487793 -0.46570563 0.97665882
-3.6165526 4.4852443 -0.4558621 0.97714651
-3.3429687 4.4816504 -0.44236892 0.97781539
-3.1693261 4.4795508 -0.43415961 0.97822261
-3.0849316 4.4785156 -0.43026805 0.97841561
-2.7615235 4.474824 -0.41603982 0.97912198
-2.6851366 4.4759083 -0.41297087 0.97927433
-2.5355468 4.4779201 -0.40714648 0.97956359
-2.3899317 4.4797168 -0.4017199 0.97983319
-2.3185351 4.4805274 -0.39914939 0.97996098
-2.1929491 4.512197 -0.39693305 0.98007107
-2.1362598 4.5397754 -0.39696643 0.9800694
-2.0218554 4.5928125 -0.39703375 0.98006606
-1.9641405 4.6182323 -0.3970677 0.98006445
-1.9061035 4.6429687 -0.39710188 0.98006266
-1.7302148 4.7127342 -0.39720541 0.98005754
-1.4917578 4.7954001 -0.39734575 0.98005062
-1.4315332 4.814199 -0.39738125 0.98004884
-1.3103321 4.8495212 -0.39745256 0.98004526
-1.0654101 4.9110155 -0.39759678 0.98003811
-1.0036817 4.9244723 -0.39763314 0.98003626
-0.7552734 4.9705076 -0.39777938 0.98002905
-0.69282228 4.9800487 -0.39781615 0.98002726
-0.63023436 4.9888282 -0.39785302 0.98002541
-0.50476563 5.0040426 -0.3979269 0.98002166
-0.31589842 5.0208983 -0.39803812 0.98001617
0.063261718 5.0332422 -0.39826146 0.98000515
0.18975586 5.0310154 -0.39833593 0.98000139
0.31617185 5.0255957 -0.39841041 0.97999769
0.63141602 4.9981542 -0.39859614 0.97998846
0.69421875 4.990283 -0.39863315 0.97998667
0.75695312 4.9816308 -0.39867011 0.97998476
0.81958008 4.9721875 -0.398707 0.97998291
0.8820703 4.9619532 -0.39874381 0.97998112
0.94445312 4.9509277 -0.39878058 0.97997928
1.0687305 4.9265428 -0.39885378 0.97997564
1.1306933 4.9131737 -0.39889029 0.97997379
1.3154004 4.8683887 -0.39899915 0.97996843
1.4375976 4.8346677 -0.39907116 0.97996485
1.7986621 4.7151561 -0.39928395 0.97995424
1.9756054 4.6452246 -0.39938825 0.97994912
2.1498437 4.5686522 -0.39949095 0.97994393
2.2072558 4.5416598 -0.39952481 0.97994226
2.2643652 4.5139451 -0.39955848 0.97994059
2.3210938 4.4854884 -0.39959192 0.97993898
2.3774707 4.4563575 -0.39962515 0.97993731
2.5164256 4.44416 -0.40407622 0.97971612
2.663584 4.4399805 -0.40965503 0.97943896
2.7380078 4.4366503 -0.41248935 0.97929811
2.8133984 4.4331932 -0.41542324 0.9791525
2.8898242 4.4296188 -0.41845843 0.97900182
3.0503514 4.4283204 -0.42544541 0.97865492
3.1332128 4.4284668 -0.42920759 0.97846824
3.2175877 4.4286327 -0.43310714 0.9782747
3.589541 4.4517479 -0.45245874 0.97731519
4.1416016 4.5229101 -0.48521534 0.97569299
4.7003026 4.3040233 -0.50424445 0.97475183
4.7543259 4.2448926 -0.50427628 0.97475016
4.8075681 4.1850681 -0.50430775 0.97474873
4.8600974 4.1245799 -0.50433874 0.97474712
4.9118357 4.0634079 -0.50436926 0.97474569
4.9628024 4.0016112 -0.50439936 0.9747442
5.0129881 3.9391601 -0.50442898 0.97474271
1.2511914 0.90904295 -0.12236297 0.99381363
1.2513964 0.88539058 -0.12128609 0.99386793
1.2515918 0.86213863 -0.12024666 0.99392039
1.2518066 0.83927733 -0.11924312 0.99397093
1.2519921 0.81678706 -0.11827452 0.99401981
1.2521875 0.79465818 -0.11733928 0.99406689
1.2523534 0.77288085 -0.11643676 0.99411243
1.252539 0.75141603 -0.11556568 0.9941563
1.2527149 0.73025388 -0.11472557 0.99419868
1.2913769 0.70993161 -0.11659622 0.99410439
1.3307129 0.70995116 -0.11933348 0.9939664
1.3719823 0.70994139 -0.12222208 0.99382073
1.4607714 0.70995116 -0.12850304 0.99350429
1.5087206 0.70994139 -0.13192436 0.99333185
1.6127148 0.70996094 -0.13941406 0.99295461
1.6692871 0.70995116 -0.14352207 0.99274778
1.7293164 0.70995116 -0.14790367 0.99252719
1.7931347 0.70994139 -0.15258633 0.99229151
1.8611034 0.70993161 -0.1576003 0.99203932
1.9337401 0.70995116 -0.16298234 0.99176854
2.0234766 0.71416014 -0.16977753 0.99142689
2.0235059 0.68572265 -0.16904204 0.99146378
6.1189842 1.8195117 -0.50508267 0.9747104
6.1415329 1.7425097 -0.50509602 0.97470969
6.1631055 1.6652539 -0.50510883 0.97470903
6.1836815 1.5876952 -0.50512105 0.9747085
6.2032909 1.5099121 -0.50513268 0.9747079
6.2219138 1.4318652 -0.5051437 0.97470737
6.2395411 1.3535937 -0.50515419 0.97470683
6.2718163 1.196416 -0.50517339 0.97470593
6.2864552 1.1175195 -0.50518209 0.97470552
6.3001075 1.038457 -0.50519025 0.9747051
6.3127537 0.95922852 -0.50519776 0.97470474
6.3350487 0.80031246 -0.505211 0.97470403
6.3446875 0.72064453 -0.50521684 0.97470367
6.360918 0.56097656 -0.50522649 0.97470319
6.3674998 0.48100585 -0.50523049 0.97470307
6.3730955 0.40094724 -0.50523388 0.97470289
6.3837304 0.16046874 -0.50524038 0.97470266
6.3857813 -0 -0.50524175 0.97470254
6.3812203 -0.24067383 -0.50523937 0.9747026
6.377666 -0.3208496 -0.50523734 0.97470272
6.3731055 -0.40095702 -0.50523472 0.97470284
6.360918 -0.56096679 -0.50522774 0.97470319
6.3533106 -0.64086914 -0.50522333 0.97470343
6.3244238 -0.87982422 -0.50520658 0.97470433
6.3127928 -0.95922852 -0.50519979 0.97470462
6.3001366 -1.038457 -0.50519246 0.97470498
6.2864938 -1.1175293 -0.50518453 0.9747054
6.2718453 -1.196416 -0.50517595 0.97470582
6.2395802 -1.3536035 -0.50515711 0.97470671
6.2033396 -1.5099121 -0.50513589 0.97470772
6.1837401 -1.587705 -0.50512445 0.97470826
6.1631346 -1.6652441 -0.50511241 0.97470891
1.9337499 -0.70995116 -0.16298433 0.99176848
