# .PCD v0.7 - Point Cloud Data file format
VERSION 0.7
FIELDS x y z intensity
SIZE 4 4 4 4
TYPE F F F F
COUNT 1 1 1 1
WIDTH 1082
HEIGHT 1
VIEWPOINT 0 0 0 1 0 0 0
POINTS 1082
DATA ascii
6.8645701 5.3940821 -0.39935002 0.96564615
1.2612109 0.94074219 -0.071972542 0.99371952
1.2613281 0.91640621 -0.071317211 0.99377656
1.2614844 0.89249998 -0.070684507 0.99383152
1.261582 0.86899412 -0.070074044 0.99388474
1.2618359 0.82319331 -0.068915516 0.99398541
1.2619336 0.80082029 -0.068366468 0.99403328
1.2620312 0.77882808 -0.067836493 0.99407941
1.2621484 0.75715816 -0.067325212 0.99412382
1.2622266 0.73581052 -0.06683208 0.99416679
1.2623242 0.71475583 -0.066356085 0.99420822
1.2914257 0.70993161 -0.067409784 0.99411643
1.3307617 0.70993161 -0.068992309 0.99397874
1.3719727 0.70994139 -0.070662193 0.99383354
1.50875 0.70993161 -0.076271743 0.99334556
1.5593164 0.70993161 -0.078371011 0.99316305
1.6693358 0.70992184 -0.082976915 0.99276263
1.9337695 0.70994139 -0.094227903 0.99178541
2.0210741 0.71329099 -0.09803734 0.99145478
2.0208983 0.68481445 -0.097604595 0.99149239
10.018164 3.1164453 -0.47992083 0.9588595
10.615976 2.8683789 -0.50301838 0.95692271
10.716855 2.466289 -0.50303197 0.95692152
10.74707 2.3314354 -0.50303608 0.95692122
10.775586 2.1962206 -0.50303996 0.95692098
10.850976 1.7885742 -0.50305027 0.95691991
10.872656 1.6520801 -0.50305325 0.95691967
10.927382 1.2411327 -0.50306082 0.95691895
10.942109 1.1037304 -0.5030629 0.95691901
10.966465 0.82840818 -0.50306636 0.95691872
10.983887 0.55256838 -0.50306892 0.95691842
10.989961 0.41448241 -0.50306988 0.95691848
10.994336 0.27635741 -0.50307059 0.9569183
10.997812 -2.9296874e-05 -0.50307137 0.9569183
10.994355 -0.27639648 -0.50307119 0.95691824
10.99 -0.41452149 -0.50307077 0.9569183
10.983887 -0.55257809 -0.50307012 0.95691842
10.955235 -0.96619141 -0.50306684 0.95691854
10.942148 -1.1037598 -0.50306523 0.95691884
10.927382 -1.2411621 -0.50306344 0.95691895
10.851035 -1.788623 -0.50305408 0.95691967
10.827617 -1.9248047 -0.50305116 0.95692003
10.775702 -2.1962695 -0.50304466 0.9569205
10.685019 -2.600791 -0.50303322 0.95692146
10.540468 -3.1342578 -0.50301492 0.95692301
10.500156 -3.2664256 -0.5030098 0.95692337
2.0207422 -0.65659177 -0.097191431 0.99152827
2.0209179 -0.68482423 -0.097604826 0.99149227
2.0210547 -0.71333009 -0.098037414 0.99145478
1.7931249 -0.70997071 -0.088217124 0.99230742
1.7293164 -0.70997071 -0.085510135 0.99254256
1.6692969 -0.70996094 -0.082976915 0.99276274
1.5592968 -0.70996094 -0.078370817 0.99316305
1.3307421 -0.70997071 -0.068992458 0.99397874
1.2620312 -0.77884763 -0.067836687 0.99407935
1.261914 -0.80085933 -0.068366356 0.99403328
1.2617188 -0.84592772 -0.069484517 0.99393588
1.2613477 -0.91641599 -0.071317174 0.9937765
1.2612109 -0.94078124 -0.071972728 0.99371946
6.9336524 -5.308877 -0.39945617 0.96563703
6.8662305 -5.3954587 -0.39944747 0.96563786
6.7977343 -5.4811716 -0.39943862 0.96563864
6.6575389 -5.6500192 -0.39942047 0.96564019
6.5131445 -5.8152733 -0.39940178 0.96564174
6.2121482 -6.1345897 -0.39936277 0.96564496
6.1344137 -6.2120018 -0.3993527 0.96564585
5.8954687 -6.4383106 -0.39932173 0.96564841
5.8139453 -6.5116796 -0.39931118 0.96564937
5.7314844 -6.5840626 -0.39930046 0.96565032
5.5639453 -6.7256541 -0.39927876 0.96565205
5.478828 -6.7948437 -0.39926767 0.96565306
5.3928514 -6.8629589 -0.3992565 0.96565402
5.306035 -6.9300098 -0.39924526 0.96565491
5.1299219 -7.0607419 -0.3992224 0.96565688
5.0406251 -7.1244431 -0.39921081 0.96565789
4.9505858 -7.1870213 -0.3991991 0.96565878
4.5826564 -7.4257712 -0.39915127 0.9656629
4.4888673 -7.4825583 -0.39913905 0.96566385
4.2032809 -7.6457324 -0.39910194 0.96566695
3.9117186 -7.7979589 -0.399064 0.96567029
3.8132811 -7.8462305 -0.39905119 0.96567142
3.6146874 -7.9390721 -0.39902535 0.96567357
3.5145311 -7.983623 -0.39901233 0.96567458
3.4138281 -8.0269041 -0.39899921 0.96567565
3.312578 -8.0689154 -0.39898601 0.96567672
3.1085546 -8.1490326 -0.39895946 0.96567911
3.0058007 -8.1871777 -0.39894608 0.96568024
2.9025977 -8.2240334 -0.39893264 0.96568131
2.4853907 -8.3583393 -0.39887825 0.96568596
1.9553125 -8.4964256 -0.39880916 0.9656918
1.7410547 -8.542285 -0.39878121 0.96569419
1.633496 -8.5632124 -0.39876714 0.96569526
1.5257422 -8.5827436 -0.39875308 0.96569651
1.3094727 -8.617754 -0.39872488 0.96569896
1.0924219 -8.6473436 -0.39869654 0.96570128
0.21898437 -8.7108202 -0.39858252 0.96571094
0.10949218 -8.7125874 -0.39856821 0.96571207
-0.32837889 -8.7058201 -0.39851099 0.96571696
-0.43771484 -8.7006836 -0.39849669 0.96571821
-1.0916406 -8.6411428 -0.39841121 0.96572542
-1.3083398 -8.6103706 -0.39838287 0.96572781
-1.6317577 -8.5540333 -0.39834052 0.96573138
-1.7390624 -8.5325384 -0.39832649 0.96573263
-2.3763671 -8.375556 -0.39824307 0.96573961
-2.481328 -8.3447561 -0.39822933 0.96574074
-2.5859179 -8.3126268 -0.39821562 0.96574193
-2.7938085 -8.244463 -0.39818838 0.9657442
-2.9998827 -8.1710939 -0.39816138 0.96574652
-3.1022265 -8.1324701 -0.39814797 0.96574765
-3.2040625 -8.0925779 -0.39813462 0.96574879
-3.7052734 -7.8741207 -0.3980689 0.96575433
-3.6373827 -7.4842672 -0.3806417 0.96722883
-3.9017382 -7.7780175 -0.39804313 0.96575648
-4.0957031 -7.6770115 -0.39801767 0.96575868
-4.2870312 -7.5711617 -0.39799255 0.96576095
-4.3816991 -7.5164742 -0.39798015 0.9657619
-4.5689454 -7.4035544 -0.39795554 0.96576387
-4.6614842 -7.3453221 -0.39794341 0.96576494
-4.8442969 -7.2253904 -0.39791939 0.96576709
-4.9345703 -7.1637692 -0.39790756 0.96576798
-5.1127148 -7.0370703 -0.39788413 0.96577001
-5.2005858 -6.9720798 -0.39787257 0.96577096
-5.459199 -6.7705173 -0.39783853 0.96577394
-5.6273046 -6.6308203 -0.39781645 0.96577579
-5.7100391 -6.5594234 -0.39780554 0.96577662
-5.8727341 -6.413486 -0.39778414 0.96577859
-5.9527345 -6.3390036 -0.39777362 0.96577942
-6.0317578 -6.2635641 -0.39776319 0.96578026
-6.1869335 -6.1096873 -0.39774281 0.96578199
-6.2630663 -6.0313182 -0.39773276 0.96578282
-6.338203 -5.951992 -0.39772284 0.96578366
-1.0309765 -0.94407225 -0.063944131 0.99441808
-1.0316406 -0.83183593 -0.060619507 0.99470758
-1.0317578 -0.81076169 -0.060022924 0.9947595
-1.0318555 -0.79008788 -0.059447248 0.99480969
-1.0319922 -0.76979488 -0.058891714 0.99485797
-1.0322655 -0.71107417 -0.057338141 0.99499345
-1.0589062 -0.70997071 -0.058316384 0.99490809
-1.0882422 -0.70995116 -0.059435081 0.9948107
-1.1187109 -0.70995116 -0.060607146 0.99470866
-1.2178515 -0.70994139 -0.064482763 0.99437129
-1.2538086 -0.70996094 -0.065908581 0.99424714
-1.4152734 -0.70995116 -0.07242687 0.99368
-1.4607812 -0.70997071 -0.074293785 0.99351764
-1.5087109 -0.70995116 -0.076271743 0.99334562
-1.5592968 -0.70996094 -0.078370817 0.99316305
-1.6127343 -0.70996094 -0.08060196 0.9929691
-1.6692969 -0.70994139 -0.082977138 0.99276274
-1.7293359 -0.70996094 -0.08551044 0.99254256
-10.442968 -3.2486424 -0.50027353 0.9571529
-10.557714 -2.8526561 -0.50025809 0.95715398
-10.592617 -2.7197461 -0.50025338 0.95715439
-10.657461 -2.4526367 -0.50024462 0.95715505
-10.74207 -2.0491698 -0.50023311 0.95715606
-10.790019 -1.7785547 -0.50022656 0.95715666
-10.811445 -1.6428027 -0.50022364 0.95715696
-10.849199 -1.3705859 -0.50021839 0.95715737
-10.90418 -0.82372069 -0.50021064 0.95715809
-10.913652 -0.68664062 -0.50020927 0.95715815
-10.921406 -0.54943359 -0.50020814 0.95715821
-10.927442 -0.41216797 -0.50020719 0.95715821
-10.934297 -0.1374121 -0.50020599 0.95715839
-10.311054 -0 -0.50028729 0.95954818
-10.310234 0.12955078 -0.50028723 0.95954823
-10.307813 0.25910157 -0.50028741 0.95954812
-10.30375 0.38860351 -0.50028783 0.95954812
-10.298066 0.51806641 -0.50028843 0.95954806
-10.290781 0.64741212 -0.5002892 0.95954794
-10.281836 0.77669919 -0.50029027 0.95954788
-10.259121 1.0348437 -0.50029296 0.9595477
-10.24539 1.1636719 -0.50029463 0.9595474
-10.174101 1.6770117 -0.50030339 0.95954692
-10.103906 2.0593262 -0.50031215 0.95954597
-10.077266 2.1861522 -0.50031549 0.95954585
-10.049063 2.3126073 -0.500319 0.95954561
-10.019258 2.4387109 -0.50032276 0.95954537
-9.9879103 2.5644433 -0.50032675 0.95954502
-9.9549999 2.6898046 -0.50033092 0.9595446
-9.9204493 2.8146875 -0.50033528 0.95954448
-9.8468361 3.063164 -0.50034463 0.95954347
-9.8076563 3.1866894 -0.50034964 0.95954311
-9.7669134 3.3097167 -0.50035483 0.95954281
-9.7246675 3.4322264 -0.50036019 0.95954233
-1.7860156 0.65570313 -0.092311628 0.99240971
-1.7860546 0.68131834 -0.092750467 0.99237388
-1.7292968 0.70995116 -0.090700299 0.99254173
-1.6126952 0.70994139 -0.085494041 0.99296838
-1.4608008 0.70993161 -0.078803368 0.99351674
-1.4152734 0.70995116 -0.076822929 0.99367917
-1.2913672 0.70992184 -0.071501613 0.99411589
-1.2538086 0.70993161 -0.069908902 0.99424642
-1.2178515 0.70993161 -0.068396568 0.99437058
-1.1503906 0.70995116 -0.065589748 0.99460095
-1.0882422 0.70993161 -0.063042484 0.99481004
-1.0589062 0.70993161 -0.061855733 0.99490756
-1.0314844 0.72977537 -0.061307486 0.99495268
-1.0311718 0.78952146 -0.063012235 0.99481255
-1.0310352 0.81017578 -0.063621901 0.99476254
-1.0308985 0.83124024 -0.064253919 0.99471068
-1.0305078 0.89706051 -0.066290356 0.99454349
-1.0303515 0.91994137 -0.067019425 0.99448365
-5.9745312 5.6104198 -0.39765766 0.96771085
-5.8318553 5.7590427 -0.3976742 0.9677096
-5.6855273 5.9040136 -0.39768928 0.96770829
-5.3845701 6.0308008 -0.39227042 0.96814126
-5.3821092 6.1826954 -0.39771944 0.96770591
-5.0137501 6.2180762 -0.38755515 0.96851814
-4.9019728 6.2382908 -0.38494438 0.96872681
-4.9837499 6.5090427 -0.39775711 0.96770293
-4.818789 6.6324902 -0.39777213 0.96770167
-4.7351561 6.6926365 -0.39777961 0.96770108
-4.5656443 6.8097458 -0.39779457 0.9677
-4.2180271 7.0310936 -0.39782491 0.96769756
-3.9503906 7.1857419 -0.39785975 0.96769464
-3.7687891 7.2831445 -0.39788336 0.96769285
-3.6770701 7.3301368 -0.39789531 0.96769196
-3.3984766 7.4642186 -0.39793155 0.96768904
-3.3045506 7.5065818 -0.39794379 0.96768796
-3.210078 7.5478024 -0.39795965 0.96768671
-3.115078 7.5878611 -0.39797598 0.96768546
-2.9235938 7.6641793 -0.39799976 0.96768361
-2.8271289 7.7005076 -0.39800873 0.96768284
-2.6183593 8.0583687 -0.4111104 0.96663702
-2.5169334 8.0909081 -0.41112363 0.966636
-2.3129687 8.1521187 -0.41115019 0.96663392
-2.2104101 8.1808395 -0.4111636 0.96663272
-2.1074998 8.2081928 -0.41117701 0.96663183
-2.0042772 8.2343264 -0.41119048 0.96663064
-1.7968554 8.2826271 -0.41121748 0.96662849
-1.6926562 8.3048239 -0.41123116 0.96662742
-1.4835156 8.345293 -0.41125837 0.96662527
-1.3785741 8.3635445 -0.41127208 0.9666242
-1.0625 8.4104195 -0.41131333 0.96662086
-0.63863277 8.4543161 -0.41136864 0.96661645
-0.21308593 8.4768648 -0.41142425 0.96661204
0.31964844 8.4749899 -0.41149384 0.96660632
0.53257811 8.4648237 -0.41152167 0.96660423
0.32322264 3.6644237 -0.17848568 0.98537606
0.46478516 3.6788182 -0.17991298 0.98526001
0.51171875 3.6781738 -0.1801815 0.98523819
0.55675781 3.6640038 -0.17981783 0.98526788
1.6944921 8.3137789 -0.41167367 0.96659207
1.9029882 8.2691107 -0.41170093 0.96658993
2.0067968 8.2448244 -0.41171449 0.9665888
2.2135351 8.1923141 -0.41174161 0.96658671
1.0192187 3.5922265 -0.1811728 0.98515761
2.6227148 8.0718069 -0.41179514 0.96658236
2.9150782 7.9400291 -0.41038969 0.96669453
3.1248631 7.8924508 -0.41186094 0.96657717
3.3224218 7.8119335 -0.41188684 0.96657503
3.4204297 7.769834 -0.41189963 0.96657395
3.7111719 7.6360741 -0.41193786 0.96657103
3.8069725 7.5890818 -0.41195041 0.96656996
3.9021289 7.5408492 -0.41196287 0.96656907
4.1407423 7.103076 -0.39892143 0.96760994
4.2298436 7.0507321 -0.39893532 0.96760875
4.3182421 6.9972458 -0.39894912 0.96760774
4.4930272 6.8870115 -0.39897662 0.96760553
4.7498827 6.7134376 -0.3990176 0.96760231
4.8340626 6.6534667 -0.39903116 0.96760112
5.1629295 6.4030566 -0.39908481 0.96759683
5.2431641 6.3378806 -0.39909807 0.96759576
5.5557032 6.0672169 -0.39915049 0.96759164
5.6316795 5.9970994 -0.39916342 0.96759069
5.7067966 5.9260645 -0.39917627 0.96758962
5.9981055 5.6325684 -0.39922693 0.9675855
6.1381249 5.4804001 -0.39925179 0.96758354
6.2067184 5.4030075 -0.39926407 0.96758252
6.3409371 5.2456346 -0.39928833 0.96758056
6.4065037 5.1656833 -0.39930034 0.96757972
6.5346875 5.0033593 -0.39932406 0.96757782
1.2603515 0.94010741 -0.076289326 0.99372298
1.260625 0.89189452 -0.074924812 0.99383491
1.2608984 0.84535152 -0.073653601 0.9939391
1.2610157 0.82263672 -0.073051222 0.99398857
1.26125 0.77833009 -0.07190796 0.99408227
1.2615429 0.71431637 -0.070339695 0.99421108
1.2914257 0.70993161 -0.071501575 0.99411565
1.3307617 0.70993161 -0.073179856 0.99397796
1.3719727 0.70994139 -0.07495144 0.99383271
1.4607812 0.70992184 -0.078803211 0.99351686
1.6126952 0.70995116 -0.08549431 0.99296838
1.6693358 0.70992184 -0.088013612 0.99276173
1.7293359 0.70993161 -0.090700641 0.99254161
1.8611327 0.70993161 -0.096647106 0.99205458
1.9337695 0.70994139 -0.09994743 0.99178433
2.0230467 0.68552732 -0.10363876 0.99148226
2.0229101 0.65725583 -0.10319984 0.99151814
9.8975782 3.0789452 -0.50292432 0.95933932
9.935586 2.9543653 -0.50292939 0.9593389
10.006914 2.7038183 -0.50293899 0.95933801
10.071856 2.4515135 -0.50294775 0.95933741
10.130429 2.1976757 -0.50295568 0.95933682
10.157344 2.0702245 -0.50295931 0.9593364
10.182636 1.9424218 -0.50296277 0.9593361
10.206308 1.8143164 -0.50296599 0.95933586
10.228359 1.6859472 -0.50296903 0.95933563
10.248789 1.5572948 -0.50297183 0.95933545
10.314297 1.0403906 -0.50298095 0.95933461
10.337226 0.78088868 -0.50298417 0.95933449
10.34625 0.65091795 -0.50298554 0.95933437
10.359375 0.39070311 -0.5029875 0.95933425
10.363477 0.26049805 -0.50298822 0.95933419
10.366796 -2.9296874e-05 -0.50298887 0.95933402
10.365976 -0.13027343 -0.50298893 0.95933402
10.359394 -0.39074218 -0.50298834 0.95933414
10.353672 -0.52087891 -0.50298774 0.95933414
10.337265 -0.78088868 -0.50298589 0.95933431
10.326601 -0.91074216 -0.50298458 0.95933443
10.300429 -1.1699512 -0.50298148 0.95933455
10.228398 -1.6859863 -0.5029726 0.95933545
10.206387 -1.8143651 -0.50296986 0.95933557
10.182695 -1.9424609 -0.50296688 0.95933586
10.157461 -2.0702734 -0.50296372 0.95933592
10.071953 -2.4515722 -0.50295299 0.959337
9.9357424 -2.9544139 -0.50293571 0.95933825
9.8977337 -3.0790234 -0.50293088 0.95933867
2.0228906 -0.65730464 -0.1031995 0.99151814
2.0230467 -0.68556637 -0.10363899 0.9914822
1.9337499 -0.70997071 -0.099947393 0.99178439
1.7931249 -0.70997071 -0.093572117 0.99230641
1.6692969 -0.70996094 -0.088013612 0.99276179
1.4608203 -0.70997071 -0.078803211 0.99351662
1.3720117 -0.70995116 -0.074951358 0.99383259
1.3307421 -0.70997071 -0.073180236 0.99397796
1.2914063 -0.70996094 -0.071501732 0.99411565
1.2613477 -0.75668943 -0.071366236 0.99412674
1.26125 -0.77834958 -0.071907803 0.99408227
1.2610937 -0.80035156 -0.072469369 0.99403632
1.2608789 -0.84536129 -0.073653564 0.9939391
1.2607812 -0.86843747 -0.074277952 0.99388784
1.260625 -0.89192379 -0.074925117 0.99383479
1.2603711 -0.94012696 -0.076289251 0.99372286
6.4724998 -5.0860548 -0.3993957 0.96757185
6.3423438 -5.2468653 -0.39937884 0.96757329
6.2082419 -5.4043651 -0.39936149 0.9675746
5.9997263 -5.634131 -0.39933452 0.9675768
5.7827148 -5.8558493 -0.39930642 0.96757901
5.7085156 -5.9279003 -0.39929679 0.96757984
5.2449999 -6.3401074 -0.39923668 0.96758461
4.7517381 -6.7160935 -0.39917263 0.9675898
4.6668553 -6.7751169 -0.39916161 0.96759051
4.4078126 -6.9456153 -0.3991279 0.96759319
4.3200388 -7.0002341 -0.39911652 0.96759427
4.2316403 -7.0537596 -0.39910501 0.9675951
3.9624219 -7.2076073 -0.39906999 0.9675979
3.8714256 -7.2566209 -0.39905813 0.96759886
3.7798047 -7.3044825 -0.39904624 0.96759981
3.5948045 -7.396709 -0.39902216 0.96760178
3.5014844 -7.4410644 -0.39901003 0.96760279
3.4076171 -7.4842577 -0.39899778 0.96760368
3.2182813 -7.5670409 -0.39897314 0.96760571
3.026875 -7.6450682 -0.39894825 0.96760768
2.9304881 -7.6822457 -0.39893571 0.96760869
2.8336327 -7.7182226 -0.39892307 0.9676097
2.6386132 -7.7864938 -0.39889765 0.96761173
2.3430469 -7.8796482 -0.39885914 0.96761483
2.243789 -7.9082422 -0.39884621 0.96761572
1.9439257 -7.9863963 -0.39880711 0.96761888
1.7424999 -8.0322065 -0.39878085 0.96762097
1.6413672 -8.0531836 -0.39876765 0.9676221
1.54 -8.0728998 -0.39875442 0.96762317
1.336543 -8.1085157 -0.39872789 0.96762526
1.1322656 -8.1390038 -0.39870125 0.96762735
1.0298632 -8.1523046 -0.39868784 0.96762848
0.82462889 -8.1750975 -0.39866108 0.96763051
0.72179687 -8.1845016 -0.39864764 0.9676317
0.61888671 -8.192646 -0.39863423 0.96763277
0.3096289 -8.2093458 -0.39859381 0.96763593
0.20646484 -8.2123146 -0.39858034 0.96763694
-0.30957031 -8.207695 -0.3985129 0.96764231
-0.41265625 -8.2028418 -0.39849943 0.96764356
-0.51568359 -8.1967382 -0.39848599 0.96764457
-0.8241992 -8.1706448 -0.39844567 0.96764779
-0.92673826 -8.1593943 -0.39843222 0.9676488
-1.0291992 -8.1468258 -0.39841884 0.96764988
-1.1314453 -8.1329689 -0.39840546 0.96765095
-1.3353906 -8.1014252 -0.39837879 0.9676531
-1.4370313 -8.0837107 -0.39836547 0.96765429
-1.7405077 -8.0230074 -0.39832577 0.96765745
-1.8411328 -8.0002537 -0.3983126 0.9676584
-2.1410937 -7.9243846 -0.39827332 0.96766162
-2.4380469 -7.8373046 -0.39823443 0.96766466
-2.6340625 -7.7730465 -0.39820877 0.96766675
-2.8283985 -7.7039061 -0.39818329 0.96766877
-2.9248827 -7.6675 -0.39817065 0.96766984
-3.0208983 -7.6299314 -0.39815807 0.96767074
-3.0736132 -7.2269626 -0.38104224 0.96903884
-3.3435156 -7.1053319 -0.38100684 0.96904159
-3.4324024 -7.0625291 -0.38099518 0.9690426
-3.7824609 -6.8803124 -0.38094923 0.96904635
-3.8651953 -6.826201 -0.38061121 0.9690733
-4.2199216 -7.0342479 -0.39800078 0.96768332
-4.3078513 -6.9804587 -0.39798921 0.96768427
-4.3950782 -6.9255958 -0.39797777 0.96768516
-4.7369919 -6.6952438 -0.39793286 0.96768874
-4.8206053 -6.6350193 -0.39792186 0.96768963
-4.9034567 -6.5737205 -0.39791098 0.96769059
-5.3838673 -6.1847167 -0.3978478 0.96769553
-5.4610157 -6.116416 -0.39783764 0.96769637
-5.5373044 -6.0471582 -0.3978276 0.96769714
-5.6126952 -5.9769335 -0.39781767 0.96769804
-5.8335547 -5.7607422 -0.39778858 0.9677003
-5.9053516 -5.6868358 -0.39777911 0.96770108
-1.0301952 -0.94335938 -0.067775421 0.9944216
-1.0303515 -0.91996092 -0.067019269 0.99448365
-1.0307813 -0.8527441 -0.064908825 0.99465686
-1.0310352 -0.81020504 -0.063622095 0.99476248
-1.0311718 -0.78953123 -0.063012391 0.99481249
-1.0312696 -0.76926756 -0.062423781 0.99486089
-1.0313672 -0.74936521 -0.061855622 0.99490756
-1.0589062 -0.70997071 -0.061856117 0.99490744
-1.1833984 -0.70997071 -0.066958539 0.9944886
-1.2178515 -0.70994139 -0.068396717 0.99437058
-1.2538086 -0.70996094 -0.069908902 0.99424636
-1.2914063 -0.70997071 -0.071501657 0.99411565
-1.3307226 -0.70995116 -0.07317993 0.99397808
-1.6692969 -0.70994139 -0.088013686 0.99276179
-1.7860937 -0.68134767 -0.092750773 0.9923737
-1.7859765 -0.6557129 -0.092311896 0.99240983
-9.7670698 -3.3097754 -0.50036186 0.95954216
-9.8077736 -3.1867578 -0.50035638 0.95954257
-9.9205856 -2.8147461 -0.5003413 0.95954388
-9.9550972 -2.6898437 -0.50033665 0.95954418
-9.9880075 -2.564502 -0.50033224 0.95954466
-10.019375 -2.4387696 -0.500328 0.9595449
-10.04914 -2.3126562 -0.50032395 0.95954525
-10.128984 -1.932207 -0.5003131 0.95954597
-10.194375 -1.5490429 -0.50030416 0.95954692
-10.213008 -1.4208202 -0.5003016 0.95954698
-10.259179 -1.034873 -0.5002951 0.95954746
-10.271328 -0.90585935 -0.50029343 0.95954764
-10.281875 -0.77671874 -0.50029188 0.95954776
-10.298105 -0.51807618 -0.5002895 0.95954788
-10.303789 -0.38861328 -0.50028861 0.95954794
-10.310234 -0.12958008 -0.50028747 0.95954823
-9.7419529 0.49009764 -0.50036108 0.96168494
-9.7350388 0.61247069 -0.50036186 0.96168488
-9.7265625 0.73475581 -0.50036281 0.96168494
-9.7166204 0.85691404 -0.50036401 0.9616847
-9.7050781 0.97894531 -0.50036538 0.9616847
-9.6774998 1.2225488 -0.50036871 0.96168441
-9.6614056 1.3440624 -0.50037068 0.96168429
-9.6437893 1.4653612 -0.50037289 0.96168411
-9.6246681 1.5864356 -0.50037521 0.96168393
-9.3847265 2.6626756 -0.50040543 0.96168154
-9.3505659 2.7804101 -0.50040978 0.96168137
-9.3149996 2.8977246 -0.50041431 0.96168095
-9.2394142 3.1309569 -0.50042397 0.96168023
-1.7869531 0.68164062 -0.098107032 0.992369
-1.6126952 0.70994139 -0.090387836 0.99296743
-1.5592577 0.70994139 -0.087886274 0.99316138
-1.5086914 0.70995116 -0.0855323 0.99334395
-1.4608008 0.70993161 -0.083314165 0.99351585
-1.3719531 0.70993161 -0.079241633 0.99383199
-1.3307421 0.70995116 -0.07736896 0.99397719
-1.2913672 0.70992184 -0.075594023 0.99411505
-1.1186719 0.70993161 -0.067965582 0.99470741
-1.030918 0.71011716 -0.064214669 0.99499869
-1.0306641 0.74882811 -0.065352283 0.99491042
-1.0304297 0.78896481 -0.066573411 0.99481553
-1.0303515 0.80960935 -0.067217022 0.99476534
-1.0299219 0.87404293 -0.0692918 0.99460429
-1.0297461 0.89641601 -0.070034258 0.99454671
-1.0294336 0.94264644 -0.071602099 0.994425
-5.651113 5.3067188 -0.39766154 0.96942759
-5.5161719 5.4472361 -0.39767581 0.96942651
-5.4473634 5.5162497 -0.39768293 0.96942598
-5.3072071 5.6516013 -0.39769721 0.9694249
-5.1637106 5.7833786 -0.39771149 0.96942383
-4.8669529 6.0359669 -0.39774123 0.96942163
-4.7908592 6.0968261 -0.39775106 0.96942073
-4.6363673 6.2156053 -0.39777118 0.96941924
-4.5579686 6.2735252 -0.39778131 0.96941859
-4.3991404 6.3864255 -0.39780197 0.96941692
-4.1556249 6.5482225 -0.39783496 0.96941453
-3.9900389 6.6510253 -0.39786136 0.96941251
-3.6513281 6.8440723 -0.39791644 0.96940827
-3.5651758 6.889658 -0.39793068 0.9694072
-3.3033202 7.0198827 -0.39797446 0.96940398
-3.2149608 7.0611424 -0.39798942 0.96940273
-3.1260545 7.1011329 -0.39799899 0.96940207
-2.8563671 7.2143555 -0.39802364 0.96940017
-2.6742773 7.2841697 -0.39804053 0.96939892
-2.5825975 7.3173437 -0.39804909 0.96939832
-2.4905078 7.3493943 -0.39805794 0.96939754
-2.3980079 7.3802733 -0.39806753 0.96939689
-2.0908203 7.7381735 -0.41117969 0.96840507
-1.9934765 7.7640915 -0.41119239 0.96840405
-1.7978516 7.8122559 -0.41121787 0.96840197
-1.6996288 7.8344336 -0.41123068 0.96840113
-1.4032421 7.8936911 -0.41126937 0.96839815
-1.3039844 7.9109569 -0.4112823 0.96839714
-1.1048242 7.9417186 -0.41130829 0.96839523
-1.005 7.9552245 -0.41132131 0.96839422
-0.90496093 7.9674706 -0.41133437 0.96839333
-0.70449215 7.988203 -0.41136053 0.9683913
-0.5035547 8.0039062 -0.41138682 0.96838927
-0.20154296 8.0179787 -0.41142622 0.96838629
-0.10080078 8.0201263 -0.41143939 0.96838534
0.10078125 8.0206537 -0.4114657 0.96838325
0.30234376 8.0160646 -0.41149208 0.9683814
0.40304688 8.0118942 -0.41150522 0.96838039
0.32308593 3.6630762 -0.18863359 0.9853794
0.36960936 3.6642382 -0.18891726 0.98535758
0.4178125 3.6784179 -0.18990497 0.98528165
0.55667967 3.6632519 -0.19007164 0.98526883
1.4044921 7.9007225 -0.4116362 0.96837044
1.5037109 7.8827047 -0.41164917 0.96836948
1.7014452 7.8429098 -0.41167504 0.96836752
1.7999219 7.8211617 -0.41168791 0.9683665
1.8981249 7.7981443 -0.41170079 0.96836567
1.9960155 7.7739353 -0.4117136 0.96836466
2.0935936 7.748486 -0.41172636 0.96836364
1.0646679 3.580332 -0.19160676 0.98515058
2.4805858 7.6344628 -0.41177708 0.96835977
2.5764062 7.60291 -0.41178963 0.96835881
2.6718163 7.5701561 -0.41180214 0.96835792
2.7668359 7.5362206 -0.4118146 0.96835691
2.8614061 7.5010839 -0.41182697 0.96835601
2.9522655 7.1912303 -0.398763 0.9693442
3.3985546 6.9928222 -0.39882967 0.96933919
3.4862695 6.9498043 -0.39884296 0.96933818
3.573457 6.905654 -0.39885619 0.96933722
3.6600976 6.8604684 -0.39886943 0.96933609
3.7461133 6.8141503 -0.39888266 0.96933514
3.8315625 6.7667575 -0.39889583 0.96933419
4.0006833 6.6687598 -0.39892209 0.96933222
4.3312888 6.4601951 -0.39897415 0.96932811
4.4122462 6.4054294 -0.39898703 0.96932733
4.5721092 6.2929587 -0.39901274 0.9693253
4.7291017 6.176445 -0.39903823 0.96932346
4.8831639 6.0560641 -0.3990635 0.96932137
4.9589844 5.9943943 -0.39907604 0.9693206
5.0341015 5.9317966 -0.3990885 0.96931958
5.1819139 5.8037791 -0.3991133 0.96931767
5.536953 5.467793 -0.39917412 0.96931303
5.8701954 5.1100683 -0.39923298 0.96930873
5.9971094 4.9612107 -0.39925596 0.96930695
6.1803513 4.73207 -0.39928976 0.96930438
1.2601563 0.82211912 -0.07718204 0.99399173
1.2603124 0.79977536 -0.076568067 0.99403936
1.2604296 0.77782226 -0.075975224 0.99408531
1.2607617 0.71385741 -0.074319229 0.99421388
1.2914257 0.70993161 -0.075594366 0.99411488
1.3307617 0.70993161 -0.077368774 0.99397713
1.4152734 0.70993161 -0.081220396 0.99367833
1.4607812 0.70992184 -0.083313942 0.99351597
1.50875 0.70993161 -0.085532226 0.99334377
1.6693358 0.70992184 -0.093051605 0.99276072
1.7931249 0.70993161 -0.09892837 0.9923054
2.0242188 0.71441406 -0.11011188 0.99143922
2.0242577 0.68593746 -0.10963424 0.991476
2.0242188 0.65768552 -0.10917842 0.99151152
9.3963671 2.7940233 -0.50285912 0.96149737
9.4952536 2.4379492 -0.50287241 0.96149635
9.5251951 2.3184667 -0.50287646 0.96149611
9.6523438 1.7158593 -0.50289369 0.96149468
9.6731834 1.5944335 -0.50289655 0.96149457
9.6925001 1.4727734 -0.50289923 0.96149439
9.7265625 1.2287402 -0.50290394 0.96149391
9.7412691 1.1064258 -0.50290596 0.96149379
9.7544527 0.98392576 -0.50290787 0.96149361
9.7660542 0.86126953 -0.50290948 0.96149355
9.784687 0.61557615 -0.50291216 0.96149331
9.7970705 0.36948243 -0.50291407 0.96149325
9.8009377 0.24636719 -0.50291467 0.96149331
9.8040619 -1.953125e-05 -0.50291538 0.96149319
9.8009768 -0.24639648 -0.5029152 0.96149313
9.7970896 -0.36952147 -0.50291485 0.96149319
9.7916794 -0.49259764 -0.50291425 0.96149319
9.784687 -0.61561525 -0.50291348 0.96149331
9.7761717 -0.73851562 -0.50291252 0.96149331
9.7266016 -1.2287695 -0.50290656 0.96149379
9.6925783 -1.472793 -0.50290239 0.96149403
9.6523829 -1.7158788 -0.50289738 0.96149451
9.6060934 -1.9578906 -0.5028916 0.96149498
9.5806837 -2.0784376 -0.50288838 0.96149516
9.55375 -2.1986523 -0.50288498 0.9614954
9.5253124 -2.3185155 -0.50288141 0.96149564
9.4639063 -2.5571289 -0.50287366 0.96149617
9.3964643 -2.7940722 -0.50286508 0.96149695
9.3605661 -2.9119141 -0.50286049 0.96149713
2.0242383 -0.65773433 -0.10917851 0.9915114
2.0242188 -0.68594724 -0.10963447 0.99147618
2.0241797 -0.71444333 -0.11011196 0.99143928
1.5592968 -0.70996094 -0.087885894 0.9931612
1.50875 -0.70997071 -0.085532337 0.99334371
1.4152734 -0.70995116 -0.081220284 0.99367827
1.2914063 -0.70996094 -0.075594366 0.99411488
1.2607812 -0.71387696 -0.074319229 0.99421376
1.2606446 -0.73489255 -0.074851722 0.99417251
1.2605274 -0.75623047 -0.075403363 0.99412966
1.2602929 -0.79982418 -0.076567955 0.9940393
1.2597656 -0.89131832 -0.079160877 0.99383813
1.2596484 -0.91518551 -0.079868391 0.99378318
1.2594922 -0.93947262 -0.080601193 0.99372637
6.3590426 -4.8688865 -0.41083109 0.96843106
6.1987891 -4.8709764 -0.40440112 0.96891737
6.0602732 -4.8865623 -0.39934161 0.96930039
5.998281 -4.9622364 -0.3993336 0.96930093
5.9353514 -5.0371189 -0.39932543 0.96930146
5.7409177 -5.2568946 -0.39930031 0.96930343
5.6742773 -5.3285055 -0.39929166 0.96930414
5.4690623 -5.5382223 -0.39926505 0.96930605
5.1833982 -5.8054786 -0.39922804 0.96930891
5.1099219 -5.8700194 -0.3992185 0.96930957
5.035625 -5.9336524 -0.39920887 0.96931028
4.8080468 -6.1187792 -0.39917934 0.96931249
4.6525388 -6.2373438 -0.39915916 0.96931404
4.5736718 -6.2951465 -0.39914888 0.96931487
4.2511325 -6.5162988 -0.39910701 0.96931809
4.1688085 -6.5690331 -0.39909628 0.96931887
4.0858397 -6.6207128 -0.39908552 0.9693197
3.747617 -6.8168945 -0.3990415 0.96932298
3.6615624 -6.8632517 -0.39903033 0.96932387
3.5749218 -6.9085546 -0.39901903 0.96932465
3.1336327 -7.11833 -0.39896163 0.96932912
2.9535937 -7.1944141 -0.39893818 0.96933085
2.8628514 -7.2307615 -0.39892638 0.96933168
2.7716601 -7.2659569 -0.39891449 0.96933258
2.6800976 -7.2999902 -0.39890257 0.96933347
2.5880468 -7.332871 -0.39889055 0.96933442
2.495625 -7.3645897 -0.39887854 0.96933532
2.2160938 -7.452744 -0.39884207 0.96933806
2.1221874 -7.4797754 -0.39882988 0.96933895
1.8385937 -7.55374 -0.39879286 0.96934181
1.7434961 -7.5760055 -0.39878047 0.96934271
1.648086 -7.5970702 -0.39876804 0.96934372
1.5524609 -7.6169529 -0.39875555 0.96934462
1.2641602 -7.6693358 -0.39871794 0.96934742
1.1676172 -7.6843653 -0.39870536 0.96934843
1.0709375 -7.6981931 -0.39869273 0.96934938
0.87710935 -7.722168 -0.39866745 0.96935135
0.77996093 -7.7323337 -0.39865479 0.9693523
0.68273437 -7.7412887 -0.39864206 0.9693532
0.58537108 -7.7490134 -0.39862934 0.96935415
0.09765625 -7.7692184 -0.39856562 0.96935904
1.953125e-05 -7.7695994 -0.39855292 0.96935993
-0.097617187 -7.7687206 -0.39854014 0.96936101
-0.29279298 -7.7633395 -0.39851463 0.96936285
-0.39031249 -7.7587695 -0.39850187 0.96936393
-0.58513671 -7.7460546 -0.39847639 0.96936572
-0.77957028 -7.7283688 -0.398451 0.96936774
-1.0701953 -7.6927929 -0.398413 0.96937054
-1.3592578 -7.6462302 -0.39837515 0.96937352
-1.4551758 -7.6283202 -0.39836264 0.96937442
-1.7414843 -7.5673437 -0.39832515 0.96937728
-1.8363671 -7.5446286 -0.39831272 0.96937823
-2.0252733 -7.4956446 -0.39828798 0.96938002
-2.2128515 -7.4418945 -0.39826342 0.96938199
-2.3061328 -7.4133105 -0.39825121 0.96938276
-2.7666407 -7.2527537 -0.39819089 0.96938741
-2.8574998 -7.2172165 -0.39817896 0.96938825
-2.8809764 -7.0175195 -0.38912955 0.97007352
-3.1626561 -6.7210546 -0.38103002 0.97068721
-3.2467577 -6.6805758 -0.38101906 0.9706881
-3.4929686 -6.5472555 -0.38065955 0.97071534
-3.9917188 -6.6538868 -0.39803016 0.96939963
-4.0749216 -6.6030173 -0.39801925 0.96940041
-4.1574607 -6.5511422 -0.39800841 0.96940112
-4.3205466 -6.4442382 -0.39798698 0.96940279
-4.4808593 -6.3332615 -0.39796591 0.96940458
-4.7929688 -6.0995312 -0.3979249 0.96940744
-4.9444532 -5.9768357 -0.39790496 0.96940911
-5.0190625 -5.9141111 -0.39789516 0.9694097
-5.3093748 -5.6538963 -0.39785698 0.96941262
-5.3798633 -5.5866208 -0.39784765 0.96941334
-5.449492 -5.5184374 -0.3978385 0.96941411
-5.5862107 -5.3795214 -0.3978205 0.96941543
-5.6532421 -5.3087692 -0.39781165 0.96941608
-1.0294532 -0.94267577 -0.071601793 0.99442482
-1.0299023 -0.87406248 -0.0692918 0.99460429
-1.0303124 -0.80963868 -0.067217104 0.9947654
-1.0305859 -0.76875001 -0.065952145 0.99486357
-1.0308007 -0.72932613 -0.064773329 0.99495524
-1.0589062 -0.70997071 -0.06539654 0.99490678
-1.0882422 -0.70995116 -0.066651113 0.99480927
-1.1187109 -0.70995116 -0.067965619 0.99470723
-1.1503906 -0.70995116 -0.069344252 0.99460024
-1.1833984 -0.70997071 -0.070791088 0.99448788
-1.3719727 -0.70998043 -0.079241559 0.99383181
-1.6127343 -0.70996094 -0.090388179 0.99296725
-1.6692969 -0.70994139 -0.093051679 0.99276084
-1.7292968 -0.70996094 -0.095892526 0.99254066
-1.7870312 -0.7075488 -0.098592028 0.99233145
-1.7869335 -0.68166989 -0.098107107 0.99236906
-1.786875 -0.6560449 -0.097642668 0.992405
-9.1995697 -3.2469139 -0.50043595 0.96167928
-9.2395315 -3.1310155 -0.50043058 0.96167976
-9.2780275 -3.0146191 -0.50042546 0.96168023
-9.3507032 -2.7804589 -0.50041574 0.96168083
-9.4486132 -2.4259863 -0.50040251 0.96168178
-9.4782419 -2.3070409 -0.50039858 0.96168226
-9.5330858 -2.0681152 -0.50039113 0.96168274
-9.5582619 -1.9481444 -0.50038767 0.96168298
-9.581953 -1.8278613 -0.50038445 0.96168315
-9.6247263 -1.5864745 -0.50037861 0.96168369
-9.6614447 -1.344082 -0.50037354 0.96168411
-9.7166405 -0.85692382 -0.50036579 0.96168464
-9.7266016 -0.73478514 -0.50036442 0.96168476
-9.7350588 -0.61247069 -0.50036317 0.96168482
-9.7419338 -0.49010742 -0.50036216 0.961685
-9.7534571 -0.12257812 -0.50036025 0.96168512
-9.2536135 0.11628906 -0.50042528 0.96360725
-9.2514057 0.23256835 -0.50042546 0.96360731
-9.2426558 0.46498045 -0.50042635 0.96360725
-9.2280664 0.69709957 -0.50042802 0.96360719
-9.207715 0.9287793 -0.50043046 0.96360689
-9.1495314 1.3902637 -0.50043756 0.96360648
-9.0907612 1.7341504 -0.50044483 0.96360594
-9.0683203 1.8482519 -0.50044769 0.9636057
-8.9346485 2.4140918 -0.50046456 0.96360457
-8.9036713 2.5262108 -0.50046843 0.96360433
-8.8713083 2.6379101 -0.50047255 0.96360397
-8.7658205 2.9704883 -0.50048596 0.96360302
-1.7877538 0.65631837 -0.10298011 0.99240023
-1.6126952 0.70994139 -0.095283084 0.99296635
-1.5592577 0.70994139 -0.092645869 0.99316037
-1.4608008 0.70993161 -0.087825887 0.99351496
-1.3719531 0.70993161 -0.08353325 0.9938311
-1.3307421 0.70995116 -0.081558876 0.99397629
-1.2913672 0.70992184 -0.079688035 0.99411422
-1.2538086 0.70993161 -0.077913508 0.99424481
-1.2178515 0.70993161 -0.076227985 0.99436903
-1.1503906 0.70995116 -0.073099747 0.99459946
-1.1186719 0.70993161 -0.071646459 0.99470663
-1.0882422 0.70993161 -0.070260733 0.99480861
-1.0301172 0.72880858 -0.068235703 0.99495792
-1.03 0.74832028 -0.06884525 0.99491298
-1.0298828 0.76819336 -0.069476582 0.99486643
-1.0297656 0.78843749 -0.070130579 0.99481815
-1.0293359 0.8515234 -0.07223808 0.99466288
-1.0291601 0.8734082 -0.072992131 0.99460745
-1.0290234 0.89576173 -0.07377369 0.99454981
-5.3612108 5.0344629 -0.39769116 0.97096884
-5.1018944 5.2979298 -0.397726 0.97096646
-5.0350194 5.3617382 -0.39773524 0.97096586
-4.9673829 5.4247165 -0.39774472 0.97096515
-4.8297262 5.5481443 -0.39776427 0.9709636
-4.617578 5.7266698 -0.39779514 0.97096133
-4.5453515 5.7843943 -0.39780581 0.97096062
-4.4724021 5.8412008 -0.39781672 0.97095996
-4.3987889 5.8971286 -0.39782783 0.97095901
-4.3244529 5.9520993 -0.39783913 0.97095829
-4.1737499 6.059238 -0.39786229 0.97095662
-4.0974216 6.1113768 -0.39787415 0.97095579
-4.0203905 6.1625781 -0.39788619 0.97095495
-3.8645117 6.2620506 -0.39791086 0.97095317
-3.6261132 6.4038768 -0.39794925 0.97095037
-3.4642577 6.4934177 -0.39797577 0.97094846
-2.7955468 6.8095117 -0.39804515 0.97094345
-2.5370703 6.9104686 -0.39807093 0.97094166
-2.1868553 7.0298824 -0.39810726 0.97093892
-2.0983984 7.056953 -0.39811656 0.97093832
-2.0096092 7.0829196 -0.39812598 0.97093767
-1.9205078 7.1077929 -0.39813551 0.97093695
-1.4705859 7.2152929 -0.39818791 0.97093326
-1.3798437 7.233408 -0.39819869 0.97093242
-1.1976953 7.266191 -0.39822078 0.97093087
-0.95335937 7.5466599 -0.41132849 0.96998852
-0.85847652 7.5582614 -0.41134089 0.96998769
-0.47769532 7.592783 -0.4113906 0.96998405
-0.38226563 7.5983887 -0.41140312 0.96998328
0.095624998 7.6085739 -0.4114655 0.96997869
0.19123046 7.6069727 -0.41147798 0.96997792
0.28679687 7.6042185 -0.4114905 0.96997696
0.47785154 7.595078 -0.41151544 0.96997511
0.36949217 3.6632323 -0.19909553 0.98535943
0.55654293 3.662539 -0.20032483 0.98526961
1.3810937 7.239912 -0.39855647 0.97090667
1.4720312 7.2222266 -0.39856905 0.97090572
1.6531445 7.1833982 -0.39859432 0.97090393
1.7433593 7.1622753 -0.39860699 0.97090304
1.8332812 7.1400194 -0.39861965 0.97090214
1.0192187 3.5922265 -0.20191666 0.98515344
1.0646679 3.580332 -0.20198396 0.98514843
2.189961 7.0398045 -0.39867041 0.97089851
2.2783203 7.0119433 -0.39868307 0.97089761
2.5412304 6.9217577 -0.39872122 0.97089487
2.6281054 6.8895211 -0.39873394 0.9708938
2.7145507 6.8561521 -0.39874661 0.97089297
2.800586 6.8217187 -0.39875931 0.97089207
3.0559959 6.7119532 -0.3987973 0.97088933
3.1401951 6.6732516 -0.39880997 0.97088838
3.2239063 6.6334567 -0.39882255 0.97088754
3.3071289 6.5926266 -0.39883512 0.97088659
3.5535545 6.4639063 -0.39887279 0.97088397
3.6346483 6.4189453 -0.39888531 0.97088301
3.7151172 6.3729587 -0.39889777 0.97088218
3.7950389 6.3259764 -0.39891019 0.97088122
3.8743358 6.277988 -0.39892259 0.97088033
3.9530468 6.2289844 -0.39893496 0.9708795
4.0311522 6.1790333 -0.39894733 0.97087848
4.1085935 6.1280565 -0.39895961 0.97087771
4.1854296 6.0761423 -0.39897186 0.97087669
4.2615623 6.023252 -0.39898407 0.97087592
4.3370314 5.9694042 -0.39899623 0.97087508
4.4859376 5.8588963 -0.39902037 0.9708733
4.5593553 5.8022265 -0.39903238 0.97087246
4.632031 5.7446485 -0.39904433 0.97087163
4.7040038 5.6861424 -0.39905623 0.97087079
4.8457227 5.566494 -0.39907989 0.97086895
4.9154296 5.505332 -0.3990916 0.97086805
4.984375 5.4432516 -0.39910328 0.97086734
5.1198435 5.3166013 -0.39912638 0.97086573
5.2521482 5.186543 -0.39914927 0.97086406
5.3170896 5.1202831 -0.39916059 0.97086316
5.5067382 4.9166598 -0.39919409 0.97086084
5.5682421 4.8471971 -0.39920512 0.97086006
5.6288671 4.7770019 -0.39921609 0.97085917
5.7474413 4.6342578 -0.39923769 0.97085774
5.8053904 4.5618162 -0.39924839 0.97085685
5.8624024 4.4886036 -0.39925894 0.97085619
1.2586523 0.93882811 -0.084908672 0.99372965
1.259375 0.82159179 -0.081309125 0.99399459
1.2596093 0.77733397 -0.080038562 0.99408829
1.2597265 0.75569332 -0.079436377 0.99413264
1.2914257 0.70993161 -0.079688072 0.99411398
1.3307617 0.70993161 -0.081558913 0.99397624
1.3719727 0.70994139 -0.083533131 0.99383098
1.4607812 0.70992184 -0.087826043 0.99351501
1.50875 0.70993161 -0.090164408 0.99334276
1.5593164 0.70993161 -0.092646062 0.99316019
1.6126952 0.70995116 -0.095282972 0.99296635
1.8611327 0.70993161 -0.10771293 0.99205238
1.9337695 0.70994139 -0.11139122 0.99178201
2.0241406 0.71438473 -0.11607105 0.99143827
9.0062885 2.312412 -0.50280869 0.9634372
9.0347261 2.1990623 -0.5028125 0.96343684
9.0617189 2.0853906 -0.50281614 0.96343654
9.1113472 1.8570215 -0.50282288 0.96343619
9.1340427 1.7424023 -0.50282598 0.96343589
9.1552734 1.6274902 -0.50282884 0.96343565
9.1933594 1.396914 -0.50283408 0.96343535
9.225625 1.1654589 -0.50283855 0.96343511
9.2807808 0.58387697 -0.50284636 0.9634344
9.2925386 0.35046875 -0.50284815 0.96343434
9.2984571 0.11683594 -0.50284916 0.96343416
9.2984371 -0.11686523 -0.5028494 0.96343428
9.2925777 -0.35049805 -0.50284892 0.96343422
9.2808008 -0.58390623 -0.50284761 0.96343434
9.2396479 -1.0494823 -0.50284272 0.9634347
9.1553125 -1.6275195 -0.50283235 0.96343547
9.0873041 -1.9714062 -0.50282383 0.96343613
9.0617971 -2.0854297 -0.50282061 0.96343619
9.0064058 -2.3124609 -0.50281364 0.96343672
8.9765625 -2.4254394 -0.50280988 0.96343696
8.9452925 -2.5380273 -0.50280589 0.96343732
8.8785152 -2.7619727 -0.50279737 0.96343797
2.0241797 -0.65768552 -0.11508747 0.99151045
2.0241406 -0.68593746 -0.11556824 0.99147522
1.9337499 -0.70997071 -0.11139118 0.99178207
1.6693164 -0.70996094 -0.098090895 0.99275964
1.6127343 -0.70996094 -0.095283128 0.99296618
1.50875 -0.70997071 -0.090164371 0.9933427
1.4608203 -0.70997071 -0.087825961 0.99351478
1.3720117 -0.70995116 -0.083533287 0.9938308
1.2594922 -0.79929686 -0.080662608 0.99404228
1.2593359 -0.82159179 -0.081309125 0.99399477
1.2589452 -0.89073241 -0.083392143 0.99384129
1.2587891 -0.91458005 -0.084136844 0.99378645
6.0266013 -4.8593946 -0.41862822 0.96946394
5.7306833 -4.8634276 -0.406436 0.97033989
5.588984 -4.865293 -0.40069097 0.97075301
5.4454684 -4.9863672 -0.39926139 0.97085571
5.3926954 -5.0641012 -0.4000279 0.97080064
5.318203 -5.1214161 -0.3992449 0.97085702
5.2532811 -5.1877246 -0.39923653 0.97085774
5.1876173 -5.2532225 -0.39922798 0.97085816
5.1210546 -5.3178906 -0.39921936 0.97085887
5.05375 -5.3816895 -0.3992106 0.97085941
4.9855661 -5.4446483 -0.39920181 0.97086018
4.7765231 -5.6282907 -0.39917469 0.97086209
4.7052927 -5.6877441 -0.39916545 0.97086281
4.6333399 -5.7462888 -0.39915609 0.97086346
4.5606837 -5.8039355 -0.39914668 0.970864
4.4873047 -5.8606348 -0.39913714 0.97086471
4.1867576 -6.078115 -0.39909813 0.97086746
3.954375 -6.231113 -0.39906791 0.97086972
3.875664 -6.2801366 -0.39905769 0.97087049
3.6359179 -6.4212694 -0.39902648 0.9708727
3.5548437 -6.4662595 -0.39901596 0.97087353
3.3083594 -6.5951462 -0.3989839 0.97087568
3.1414063 -6.6758299 -0.39896217 0.97087729
2.8873045 -6.7889061 -0.39892909 0.97087979
2.8017187 -6.8244824 -0.39891794 0.97088045
2.715625 -6.8589454 -0.39890674 0.97088134
2.6291406 -6.892324 -0.39889547 0.97088218
2.3673046 -6.9859276 -0.39886135 0.97088462
2.2792969 -7.0149512 -0.3988499 0.97088534
2.1908984 -7.0428123 -0.39883837 0.97088623
1.8340625 -7.1431446 -0.39879185 0.97088963
1.7441015 -7.1654391 -0.39878014 0.9708904
1.5633984 -7.2065916 -0.39875656 0.97089207
1.4726562 -7.2254491 -0.39874473 0.97089291
1.0158985 -7.3025489 -0.39868513 0.97089732
0.83203125 -7.3253417 -0.39866111 0.97089899
0.64765626 -7.3434958 -0.39863709 0.97090071
0.46289062 -7.3569922 -0.39861298 0.9709025
0.18523437 -7.3685446 -0.39857668 0.97090507
0.092656247 -7.3700585 -0.39856455 0.97090596
0 -7.3704391 -0.39855248 0.97090679
-0.18523437 -7.3676658 -0.39852828 0.97090852
-0.37025389 -7.3602047 -0.39850411 0.97091037
-0.55507809 -7.348125 -0.39847991 0.97091216
-0.64734375 -7.3403711 -0.39846787 0.97091293
-0.92347652 -7.3100877 -0.39843178 0.9709155
-1.0152344 -7.2977047 -0.39841977 0.97091633
-1.1068164 -7.2841601 -0.39840779 0.97091717
-1.1982031 -7.269453 -0.39839584 0.97091806
-1.3804492 -7.2365818 -0.39837196 0.97091985
-1.5617774 -7.1992188 -0.39834824 0.9709214
-1.7421093 -7.1572657 -0.39832464 0.97092313
-2.0992577 -7.059834 -0.39827788 0.97092664
-2.1877539 -7.0327244 -0.39826629 0.97092736
-2.6246483 -6.8804684 -0.39820904 0.97093153
-3.0342188 -6.6641598 -0.39595547 0.97109365
-3.1841795 -6.5517869 -0.39391068 0.97124082
-3.3667967 -6.5063477 -0.3961429 0.97108024
-3.5465624 -6.4512401 -0.3980881 0.97094023
-3.7073827 -6.3597264 -0.398067 0.97094178
-3.8658397 -6.2642088 -0.39804623 0.97094327
-3.9441404 -6.2149997 -0.39803591 0.97094399
-4.0988669 -6.1136036 -0.39801559 0.97094548
-4.1752734 -6.0614648 -0.39800555 0.97094613
-4.2509961 -6.0083594 -0.39799559 0.97094691
-4.3260546 -5.9543357 -0.39798576 0.97094756
-4.4004297 -5.8993649 -0.39797598 0.97094822
-4.4741015 -5.8434372 -0.3979663 0.97094905
-4.6193161 -5.7288961 -0.39794719 0.97095037
-4.6908202 -5.6702638 -0.3979378 0.97095102
-4.7616014 -5.6107421 -0.39792845 0.97095168
-4.8316016 -5.5503321 -0.39791927 0.97095239
-4.9693556 -5.4268942 -0.39790115 0.9709537
-5.0370312 -5.3639255 -0.39789227 0.9709543
-5.1039062 -5.3000779 -0.39788345 0.97095501
-5.1700392 -5.2354102 -0.39787471 0.97095549
-5.3633204 -5.0365038 -0.39784926 0.9709574
-1.0286719 -0.94197261 -0.075423852 0.99442822
-1.0290234 -0.89580077 -0.073773764 0.99454969
-1.0293359 -0.85155272 -0.072237849 0.99466282
-1.0298632 -0.76822263 -0.069476701 0.99486637
-1.0306641 -0.70996094 -0.067675397 0.99499911
-1.0589062 -0.70997071 -0.068938561 0.99490601
-1.0882422 -0.70995116 -0.070260882 0.99480855
-1.1503906 -0.70995116 -0.073099747 0.99459946
-1.2914063 -0.70997071 -0.079688452 0.99411398
-1.3307226 -0.70995116 -0.081559062 0.99397635
-1.4152734 -0.70995116 -0.085619241 0.99367738
-1.7877929 -0.68199217 -0.10347038 0.99236429
-8.837656 -2.7492578 -0.50048268 0.96360314
-8.8714056 -2.637959 -0.50047815 0.96360356
-8.9037886 -2.5262499 -0.5004738 0.96360385
-8.9924612 -2.1888182 -0.50046188 0.96360469
-9.0191994 -2.0756249 -0.50045824 0.96360493
-9.0444918 -1.9621093 -0.50045484 0.96360523
-9.0683985 -1.8482909 -0.50045156 0.96360534
-9.1815624 -1.1599219 -0.50043607 0.96360654
-9.1953516 -1.0444336 -0.50043416 0.96360677
-9.207715 -0.92880857 -0.50043243 0.96360689
-9.2281637 -0.69711912 -0.50042951 0.96360683
-9.2361135 -0.58111328 -0.50042832 0.96360713
-9.2514057 -0.23256835 -0.50042593 0.96360731
-9.2536325 -0.11630859 -0.50042558 0.96360719
-8.8023434 0.11061523 -0.50048429 0.96534568
-8.8002338 0.22120117 -0.50048441 0.9653458
-8.791914 0.44230467 -0.50048524 0.96534568
-8.7857027 0.55275387 -0.50048596 0.96534556
-8.7780857 0.66309571 -0.50048685 0.96534544
-8.769062 0.77336913 -0.50048786 0.96534544
-8.7337694 1.1033105 -0.50049216 0.96534514
-8.7192574 1.212998 -0.50049394 0.96534497
-8.7033396 1.3224707 -0.50049591 0.96534491
-8.6260548 1.7581347 -0.50050557 0.96534431
-8.4989452 2.2963672 -0.5005216 0.96534306
-8.438633 2.5092285 -0.50052923 0.96534276
-8.4065237 2.6151171 -0.50053334 0.9653424
-8.3382807 2.8256152 -0.50054199 0.96534181
-1.7292968 0.70995116 -0.10628021 0.99253845
-1.6692773 0.70994139 -0.1031316 0.99275875
-1.6126952 0.70994139 -0.10017933 0.99296528
-1.5592577 0.70994139 -0.097406693 0.99315935
-1.5086914 0.70993161 -0.094797894 0.99334198
-1.4152734 0.70995116 -0.090018801 0.99367642
-1.2913672 0.70992184 -0.083783418 0.99411333
-1.2538086 0.70993161 -0.081917495 0.99424392
-1.2178515 0.70993161 -0.080144994 0.99436814
-1.1186719 0.70993161 -0.075328328 0.9947058
-1.0882422 0.70993161 -0.073871419 0.99480778
-1.0306641 0.70994139 -0.071152993 0.9949984
-1.0291797 0.76766598 -0.072997242 0.99486911
-1.0290234 0.78790039 -0.07368423 0.99482101
-1.0289062 0.80850583 -0.074395709 0.994771
-1.0287304 0.82949215 -0.075132787 0.99471951
-1.0285938 0.85092771 -0.07589668 0.99466586
-1.0284375 0.87279296 -0.076688424 0.99461037
-1.0282617 0.89512694 -0.077509038 0.99455291
-5.0395117 4.8529978 -0.3977665 0.97235882
-4.9782615 4.9160547 -0.3977747 0.97235811
-4.9161716 4.9783301 -0.39778307 0.97235763
-4.8533397 5.039834 -0.39779171 0.97235698
-4.7897263 5.1005368 -0.39780048 0.97235638
-4.7253513 5.1604395 -0.39780948 0.97235578
-4.5278125 5.3352442 -0.39783767 0.97235388
-4.392539 5.4476075 -0.39785743 0.9723525
-4.3238282 5.5025392 -0.39786762 0.97235179
-3.9703319 5.7639256 -0.39792132 0.97234821
-3.6611328 5.6119142 -0.38095179 0.97351164
-3.5904295 5.6576071 -0.380961 0.97351098
-3.5191405 5.7024317 -0.38097027 0.97351027
-3.2285156 5.8726268 -0.38100806 0.97350764
-2.8209374 6.4080076 -0.39805874 0.97233874
-2.6591015 6.4771481 -0.39807484 0.97233766
-2.5775781 6.5101757 -0.398083 0.97233707
-2.4955859 6.5421777 -0.39809126 0.97233659
-2.0801172 6.6866989 -0.39813429 0.97233361
-1.9115233 6.7371874 -0.3981525 0.97233224
-1.7416992 6.7834082 -0.39817196 0.97233099
-1.6563476 6.8049412 -0.39818192 0.97233027
-1.5707226 6.8253708 -0.39819199 0.97232968
-1.4848828 6.8447556 -0.39820209 0.97232896
-1.3988086 6.8630466 -0.39821231 0.97232825
-1.3125 6.8802733 -0.39822266 0.97232747
-1.2259375 6.8963866 -0.39823318 0.97232687
-0.96523434 6.938252 -0.39826509 0.97232467
-0.35203123 6.9975781 -0.39834198 0.97231936
-0.26408201 7.0016599 -0.39835319 0.97231853
0 7.007246 -0.39838713 0.97231615
0.088046871 7.006875 -0.39839858 0.97231543
0.17609374 7.0054102 -0.39841002 0.97231472
0.26414061 7.002861 -0.39842156 0.97231388
0.35210937 6.9991989 -0.39843312 0.97231305
0.27937499 3.6982422 -0.21085832 0.98525077
0.32283202 3.6604588 -0.20891868 0.98538542
0.46437499 3.6757128 -0.21063945 0.98526597
0.51126951 3.6750586 -0.21095385 0.98524415
0.5564453 3.6618066 -0.21057732 0.98527026
1.4000781 6.8693261 -0.39857504 0.97230327
1.5723437 6.8323536 -0.39859906 0.97230178
1.7436719 6.7911129 -0.39862311 0.97230005
1.0192187 3.592207 -0.21229264 0.98515123
1.0646679 3.580332 -0.2123636 0.98514616
2.0829296 6.6957321 -0.39867142 0.97229671
2.3340235 6.6130762 -0.39870766 0.97229421
2.4170313 6.5834274 -0.39871973 0.97229338
2.4996092 6.5527048 -0.39873183 0.97229272
2.6636717 6.4882321 -0.39875597 0.97229093
2.7450781 6.454453 -0.39876804 0.9722901
2.8260546 6.4196386 -0.39878008 0.97228926
2.9866796 6.3469529 -0.39880413 0.97228765
3.3021874 6.1896091 -0.39885199 0.97228444
3.4569139 6.1050487 -0.3988758 0.97228271
3.5334375 6.0613184 -0.39888766 0.97228193
3.609453 6.0166111 -0.3988995 0.9722811
3.7597461 5.9243555 -0.39892307 0.97227943
3.8339844 5.8768258 -0.39893478 0.97227865
3.9807031 5.778945 -0.39895812 0.9722771
4.2665234 5.5722752 -0.39900428 0.97227395
4.336328 5.5183983 -0.39901569 0.97227311
4.6086326 5.2941403 -0.39906085 0.97227007
4.6749606 5.2359667 -0.39907202 0.97226918
4.8053122 5.1171093 -0.39909416 0.97226775
5.0569139 4.8697462 -0.39913762 0.97226471
5.1178317 4.8059473 -0.39914832 0.97226399
5.2957616 4.6099901 -0.39918 0.97226185
5.3533788 4.5431933 -0.39919037 0.97226125
5.4101954 4.4756737 -0.39920071 0.97226053
5.4661717 4.4074607 -0.39921096 0.97225976
5.5212498 4.3385348 -0.39922109 0.9722591
1.2577929 0.93817383 -0.089211427 0.99373299
1.2582812 0.86668944 -0.086864129 0.99389732
1.2585351 0.82103515 -0.085432015 0.99399769
1.2586719 0.79874998 -0.084752999 0.99404526
1.2589452 0.75522459 -0.083465457 0.99413538
1.2590625 0.73394531 -0.082855605 0.99417812
1.3307617 0.70993161 -0.085750118 0.99397534
1.3719727 0.70994139 -0.087825812 0.99383003
1.4152734 0.70993161 -0.090018995 0.99367642
1.4607812 0.70992184 -0.092339516 0.993514
1.5593164 0.70993161 -0.097406961 0.99315917
1.7293359 0.70993161 -0.1062804 0.99253833
