# .PCD v0.7 - Point Cloud Data file format
VERSION 0.7
FIELDS x y z intensity
SIZE 4 4 4 4
TYPE F F F F
COUNT 1 1 1 1
WIDTH 1108
HEIGHT 1
VIEWPOINT 0 0 0 1 0 0 0
POINTS 1108
DATA ascii
-1.2537891 0.70997071 0.0659087 0.9942472
-1.2178515 0.70996094 0.06448292 0.99437129
-1.1834375 0.70995116 0.063127093 0.99448925
-1.079375 0.74351561 0.059953574 0.99476558
-1.0827148 0.91887695 0.064957887 0.99432993
-5.5420313 5.6121387 0.3607896 0.96891117
-5.3024216 5.646543 0.35432094 0.96946001
-5.1960545 5.6744823 0.35194781 0.9696613
-5.0374804 5.7867966 0.35094935 0.96974605
-4.8987694 5.9215817 0.35154405 0.96969551
-4.8137107 6.4534082 0.3682729 0.9682765
-6.7263279 10.032538 0.55251473 0.95278561
-6.0842381 15.367022 0.75602001 0.93596262
-5.876914 15.406328 0.75426269 0.9361068
-5.4551172 15.456152 0.74975002 0.93647647
-5.3415623 15.762871 0.76131207 0.93552917
0.14167969 3.7558594 0.17192569 0.98506284
0.18621093 3.7011425 0.1695151 0.98527074
0.28058594 3.7143164 0.17038715 0.98519552
0.32749999 3.713701 0.17053416 0.98518282
0.3730078 3.6980078 0.17001598 0.98522758
2.1298828 16.859629 0.7773369 0.93421787
2.3292186 16.743017 0.77324826 0.93455225
2.5294921 16.647011 0.77022249 0.93479991
2.743242 16.642704 0.7715562 0.93469065
0.87128901 3.5795703 0.16851909 0.98535651
2.8710155 10.625781 0.50348139 0.95688385
2.7187304 9.5822163 0.45561862 0.96090144
2.7438672 9.2275391 0.44035944 0.96218586
2.6429687 8.4960642 0.40700442 0.96499932
2.6379297 8.1188278 0.39046159 0.96639538
2.702539 7.9751463 0.38518116 0.96684444
2.7944531 7.9176364 0.38406971 0.96693856
3.0191405 7.9146481 0.38748401 0.96664959
3.762578 7.9959083 0.4042252 0.96523398
3.8852735 7.994287 0.40658107 0.96503508
4.0094142 7.9926462 0.40902668 0.96482837
4.3911719 7.9875684 0.41694629 0.96415979
4.788672 7.982285 0.42579615 0.96341312
4.9249606 7.9804688 0.42896655 0.96314585
5.0060544 7.8882518 0.42735803 0.96328145
5.145 7.886416 0.43072712 0.96299738
5.2861719 7.8845215 0.43421885 0.96270323
5.4297266 7.8826075 0.43783748 0.96239835
5.7898045 7.9689841 0.45057568 0.96132571
6.0983982 7.9648829 0.45886669 0.96062833
6.4187889 7.9606247 0.46776956 0.95987999
6.7521091 7.9561911 0.47733125 0.95907676
6.9239841 7.9539256 0.48237652 0.95865321
7.0995312 7.951582 0.48760554 0.9582144
7.2789841 7.9491992 0.49303171 0.9577595
7.4242969 7.9060545 0.49610546 0.95750195
7.5636325 7.8542871 0.498781 0.95727766
7.7536716 7.851748 0.50476992 0.95677614
7.9483981 7.8491697 0.51098442 0.95625573
8.6610155 7.9308395 0.53718472 0.95406508
8.8793745 7.927949 0.54450405 0.9534539
9.5721092 7.9187498 0.56826359 0.95147288
10.684531 7.9698534 0.60973436 0.94802529
10.964414 7.9661422 0.61994058 0.94717842
1.320586 0.93433589 0.073997721 0.99354339
1.319707 0.88480467 0.072679095 0.99365807
1.3188672 0.83701169 0.07145267 0.99376476
1.318125 0.79078126 0.070311926 0.99386394
1.3174024 0.74595702 0.069252431 0.99395627
1.3170898 0.72409177 0.068750687 0.99399978
1.3719531 0.70996094 0.070662573 0.99383354
1.5087109 0.70995116 0.076272234 0.99334562
1.6127148 0.70995116 0.080602266 0.99296921
1.6692578 0.70995116 0.082977295 0.99276286
1.7292968 0.70995116 0.085510671 0.99254268
1.8611327 0.70997071 0.091116942 0.99205559
1.9360741 0.65609372 0.093509443 0.99184799
20.632343 6.7038574 0.99235487 0.91679877
21.557499 6.706162 1.0327111 0.91356528
22.46332 6.6795406 1.0719917 0.91042882
23.493944 6.6658497 1.1170934 0.90684181
1.9360937 -0.65606445 0.093509249 0.99184793
1.9357421 -0.6832031 0.093900032 0.99181402
1.8610938 -0.70995116 0.0911166 0.99205577
1.7931055 -0.70994139 0.088217542 0.99230754
1.7293164 -0.70995116 0.085510597 0.99254262
1.6692773 -0.70994139 0.082977064 0.9927628
1.5592773 -0.70994139 0.078371197 0.99316317
1.4607617 -0.70994139 0.074294128 0.99351776
1.3307031 -0.70995116 0.068992689 0.99397892
1.3170702 -0.7240625 0.068750761 0.9939999
1.3174024 -0.74594724 0.069252051 0.99395627
1.3177344 -0.76816404 0.069772564 0.99391109
1.3181055 -0.79075193 0.070312232 0.99386406
1.3188672 -0.83697265 0.071452484 0.99376488
1.3192577 -0.86066407 0.072054558 0.99371254
1.3196875 -0.8847754 0.07267914 0.99365819
1.3201171 -0.90934569 0.073326528 0.99360186
15.18914 -11.035546 0.85881484 0.92757863
17.468243 -13.029882 0.99681896 0.91643739
16.124218 -13.001288 0.94746917 0.92040801
15.306992 -12.990449 0.91835141 0.92275733
14.84121 -12.919453 0.90006971 0.92423469
14.464335 -12.914453 0.88698637 0.9252938
14.098242 -12.90959 0.87441391 0.92631257
13.742305 -12.904863 0.86233169 0.92729306
12.73043 -12.891425 0.82875896 0.93002224
11.793164 -12.878984 0.79879528 0.93246472
11.495449 -12.875039 0.78952575 0.93322152
11.204512 -12.871172 0.7805928 0.93395162
10.920058 -12.867382 0.77197999 0.93465602
8.8443747 -12.839814 0.7131831 0.93947899
8.3724804 -12.833545 0.70092344 0.9404878
8.1424799 -12.830498 0.69511199 0.94096625
7.2583981 -12.81873 0.67384106 0.94272012
6.8358202 -12.813125 0.66430253 0.94350749
6.4247656 -12.807675 0.65543866 0.94423985
6.0242968 -12.802343 0.6472134 0.94492012
5.8277535 -12.799726 0.64332837 0.94524157
5.4415426 -12.794609 0.63599312 0.94584846
5.2516208 -12.792089 0.63253742 0.94613469
5.0648046 -12.792255 0.62934911 0.94639879
4.8815818 -13.831142 0.67092621 0.94296074
4.715879 -14.514004 0.69807827 0.94072205
3.9115233 -14.476699 0.68595064 0.9417212
4.4358006 -21.763672 1.0159997 0.91490287
1.6423242 -9.238555 0.42922375 0.96312428
3.5855076 -21.752382 1.0084435 0.91550833
3.3047266 -21.748652 1.0062675 0.91568285
2.746582 -21.741249 1.0024105 0.91599178
2.4690039 -21.737558 1.0007294 0.91612649
2.1923242 -21.733887 0.99921429 0.91624814
1.3827149 -21.977383 1.0072976 0.91560024
-2.6050391 -9.1814642 0.43656513 0.96250558
-5.4894137 -9.1503811 0.48810688 0.95817262
-5.6467772 -9.1500387 0.49183473 0.95785999
-5.8017383 -9.1420021 0.4952836 0.95757085
-6.1244335 -9.1347265 0.50307107 0.9569183
-6.2907028 -9.1325197 0.50726372 0.95656729
-6.4598045 -9.1302729 0.51160747 0.95620358
-6.6335154 -9.1302242 0.51623613 0.95581627
-8.3223629 -8.6421385 0.54881614 0.95309418
-8.692461 -8.5838966 0.55881786 0.9522602
-8.7857809 -8.4606152 0.55793422 0.95233363
-1.0832031 -0.94293946 0.06569317 0.99426597
-1.0813671 -0.84970701 0.06290821 0.99450833
-1.0801562 -0.7847656 0.061071739 0.99466813
-1.0797656 -0.76393551 0.060502511 0.99471772
-1.079375 -0.74349606 0.059953574 0.99476564
-1.0882422 -0.70993161 0.059435349 0.99481076
-1.1187109 -0.70995116 0.060607336 0.99470866
-1.1504102 -0.70994139 0.061836813 0.99460161
-1.1834375 -0.70994139 0.063127093 0.99448925
-1.253828 -0.70994139 0.065908886 0.99424714
-1.3307421 -0.70994139 0.068992883 0.9939788
-1.4608008 -0.70994139 0.07429409 0.99351758
-1.5087109 -0.70994139 0.076272123 0.99334568
-1.5593164 -0.70994139 0.078371428 0.99316299
-1.6127539 -0.70995116 0.080601916 0.99296904
-1.6692969 -0.70994139 0.082977369 0.99276274
-1.7251562 -0.68302733 0.084873237 0.992598
-1.7292383 0.70994139 0.080318183 0.99254382
-1.6692969 0.70996094 0.077941895 0.99276364
-1.6127343 0.70997071 0.075711057 0.99296993
-1.5592968 0.70996094 0.073615417 0.99316388
-1.3719921 0.70997071 0.066374704 0.9938342
-1.3307226 0.70997071 0.064805865 0.99397957
-1.1503906 0.70996094 0.058084447 0.99460232
-1.1187109 0.70997071 0.05692951 0.99470925
-1.0882422 0.70996094 0.055828627 0.9948113
-1.076875 0.7417773 0.05618389 0.99477834
-1.0772265 0.76215822 0.056697309 0.99473071
-1.0775781 0.78289062 0.057229195 0.99468148
-1.0779296 0.80406249 0.057780836 0.99463034
-1.0791405 0.87012696 0.059561383 0.99446529
-1.0804688 0.9405371 0.061548956 0.99428117
-5.5536132 5.6238475 0.33960146 0.96885103
-5.3087888 5.6532907 0.33321643 0.9694277
-5.112031 5.7255273 0.32979631 0.96973675
-5.0427537 5.792871 0.32999858 0.96971846
-4.9038868 5.927793 0.33055753 0.96966797
-4.860703 6.0282421 0.332726 0.96947199
-4.8265624 6.4706054 0.34684855 0.96819711
-6.0762887 15.346972 0.70921904 0.93605107
-5.8799996 15.414443 0.70886338 0.93608189
-5.6628122 15.424296 0.70598859 0.93633264
-5.3455076 15.77457 0.71564484 0.93549061
0.14136718 3.7480857 0.16115817 0.98509532
0.28048828 3.7132616 0.16000217 0.98520148
0.32742187 3.7126758 0.16014087 0.98518866
2.1298828 16.859629 0.73016495 0.93422568
2.8352344 14.862724 0.65012223 0.94121963
2.9282811 13.498301 0.59347218 0.94620115
0.9275195 3.6124413 0.16025074 0.98517871
2.6824803 9.4544334 0.42226252 0.96141732
2.6484375 8.9066896 0.39925289 0.96348077
2.6379297 8.1188183 0.36678249 0.96639949
2.7944531 7.9176364 0.36076197 0.96694255
2.9062891 7.916152 0.36233065 0.96680129
3.1330078 7.913125 0.36568233 0.96649951
3.2480078 7.9116211 0.36746898 0.96633846
3.3641405 7.910078 0.36933154 0.96617073
3.5213671 7.9991207 0.37552631 0.96561325
3.8852735 7.9942966 0.38190714 0.96503925
4.0094142 7.9926562 0.3842048 0.9648326
4.2622657 7.9892774 0.389072 0.96439534
4.788672 7.982285 0.39995685 0.96341753
4.9249606 7.9804688 0.40293521 0.96315032
5.0060544 7.8882518 0.40142399 0.96328586
5.4297266 7.8826075 0.41126758 0.96240288
5.5757031 7.880693 0.41478854 0.96208698
5.7898045 7.9689841 0.42323276 0.96133035
5.9426951 7.9669528 0.42705798 0.96098781
6.2570701 7.9627733 0.43512797 0.96026546
6.4187889 7.9606247 0.43938458 0.95988482
6.5837498 7.9584374 0.44379488 0.95949036
6.7521091 7.9561911 0.44836727 0.95908171
7.0995312 7.951582 0.45801792 0.95821941
7.4242969 7.9060545 0.46599954 0.95750701
7.5636325 7.8542871 0.46851411 0.95728278
7.7536716 7.851748 0.47413814 0.95678133
8.6610546 7.9308395 0.50458604 0.95407045
9.1037893 7.9249606 0.51860881 0.95282465
10.212187 7.8191113 0.55263352 0.94980854
10.68457 7.9698534 0.57273191 0.94803143
1.3162304 0.85871094 0.067526929 0.99372768
1.3148047 0.76648438 0.065392874 0.99392527
1.3144921 0.74433595 0.064906389 0.99397027
1.3141797 0.72248048 0.064437747 0.99401373
1.3307421 0.70995116 0.064806096 0.99397951
1.3719531 0.70996094 0.066374704 0.99383432
1.4152343 0.70997071 0.068031959 0.99368089
1.5087109 0.70995116 0.071643941 0.99334645
1.6127148 0.70995116 0.075711057 0.99297005
1.7292968 0.70995116 0.080321535 0.99254358
1.9405859 0.68493164 0.08842323 0.99179459
1.9409374 0.65774411 0.088054426 0.99182856
21.561523 6.7074218 0.9702214 0.91356003
22.463282 6.6795406 1.0069435 0.91043949
23.493944 6.6658497 1.0493109 0.90685266
1.940918 -0.65771484 0.088054769 0.99182868
1.6127148 -0.70993161 0.075711019 0.99297011
1.5592773 -0.70994139 0.073615342 0.993164
1.5087304 -0.70993161 0.071643636 0.99334639
1.4607617 -0.70994139 0.069785766 0.99351853
1.3719727 -0.70993161 0.066374585 0.99383432
1.3307031 -0.70995116 0.064806215 0.99397963
1.3145312 -0.74430662 0.064906426 0.99397016
1.3155078 -0.81183594 0.066421084 0.99383003
15.188945 -11.0354 0.80669111 0.92758805
17.469276 -13.030663 0.93640381 0.91644245
16.124199 -13.001288 0.88997495 0.92041749
15.709238 -12.995781 0.87601179 0.92161542
15.306973 -12.990449 0.86261475 0.92276651
14.841249 -12.919453 0.8454501 0.92424357
14.464335 -12.914453 0.83316433 0.92530262
13.742266 -12.904882 0.80999935 0.9273017
13.058867 -12.895801 0.78857571 0.92915463
11.793164 -12.878984 0.75032103 0.93247271
11.204512 -12.871172 0.73322493 0.93395942
10.369336 -12.860068 0.70980942 0.93599957
10.102558 -12.856513 0.70254928 0.93663287
9.8411322 -12.853056 0.69554734 0.93724418
9.5848045 -12.849658 0.68878937 0.93783444
8.8443747 -12.839814 0.66990554 0.93948621
8.3724804 -12.833545 0.65838838 0.94049489
8.1424608 -12.830488 0.65293181 0.94097334
7.9162302 -12.82746 0.64766616 0.94143534
7.4743161 -12.821621 0.63768077 0.94231153
7.2583981 -12.81873 0.63295114 0.94272691
7.0455856 -12.815918 0.62838954 0.94312769
6.4247656 -12.807675 0.61566544 0.94424647
6.2232809 -12.80498 0.61172891 0.94459295
6.0243163 -12.802343 0.60793787 0.94492668
5.4415426 -12.794609 0.5973984 0.94585496
4.8929296 -12.826797 0.58986801 0.9465192
4.715879 -14.514004 0.65571761 0.94072914
3.9848437 -12.809609 0.5764088 0.94770694
4.3141794 -14.508672 0.65036941 0.94119787
5.0958591 -17.960508 0.80216855 0.92797858
3.2842577 -12.791367 0.56743211 0.94849968
5.0583982 -20.781864 0.91900539 0.91793066
3.0250976 -21.744942 0.94331312 0.91585386
2.4690039 -21.737558 0.94000578 0.91613638
1.6634179 -22.019648 0.94881284 0.91538453
-2.6050391 -9.1814642 0.41007251 0.96251011
-8.3223629 -8.6421385 0.51551181 0.95309979
-8.7857809 -8.4606152 0.52407736 0.95233935
-1.0795312 -0.89304686 0.060199622 0.99440634
-1.0791016 -0.87010741 0.059561346 0.99446547
-1.0787109 -0.84762692 0.058946151 0.99452245
-1.0783203 -0.82561523 0.058353003 0.99457735
-1.0779296 -0.80403316 0.057780873 0.99463046
-1.0775781 -0.78288084 0.057229232 0.99468148
-1.0772265 -0.76212889 0.056697045 0.99473077
-1.076875 -0.74174803 0.056184079 0.99477839
-1.076543 -0.72174805 0.055689085 0.99482429
-1.1504102 -0.70994139 0.058084372 0.99460226
-1.1834375 -0.70994139 0.059296455 0.99448997
-1.2178515 -0.70995116 0.060569685 0.99437201
-1.3307421 -0.70994139 0.064806096 0.99397951
-1.4153124 -0.70994139 0.068032034 0.99368066
-1.5087109 -0.70994139 0.071643829 0.99334645
-1.5593164 -0.70994139 0.073615566 0.99316382
-1.6692969 -0.70994139 0.077941969 0.99276364
-1.7295898 -0.68477535 0.079928324 0.99257994
-23.82955 -4.8568258 1.0449356 0.90722245
-1.7340624 0.68658203 0.074959256 0.99256164
-1.73375 0.71177733 0.075325809 0.99252534
-1.6692969 0.70996094 0.072907791 0.99276447
-1.6127343 0.70997071 0.07082092 0.99297076
-1.4607812 0.70996094 0.065278284 0.99351919
-1.2178515 0.70996094 0.056657676 0.99437261
-1.1503906 0.70996094 0.054332618 0.99460292
-1.1187109 0.70997071 0.0532526 0.99470985
-1.0740625 0.72010738 0.051972084 0.99483669
-1.0743555 0.74002928 0.052432898 0.99479115
-1.0746679 0.76036131 0.052910652 0.99474376
-1.0749999 0.78105468 0.053405914 0.99469471
-1.0753516 0.80213863 0.053919639 0.99464381
-1.0757031 0.82363278 0.05445198 0.99459106
-1.0760547 0.84558594 0.055004232 0.9945364
-1.0764648 0.86798829 0.05557701 0.99447954
-1.0772656 0.91423827 0.05678726 0.99435973
-1.0776953 0.93816406 0.057426833 0.99429637
-5.4232812 5.6317186 0.3142384 0.96918565
-5.3151169 5.6600389 0.31206554 0.96939528
-4.9785938 5.8664355 0.30924556 0.96966767
-4.8333397 6.1509471 0.31441021 0.96916902
-4.8394532 6.4879098 0.32531193 0.96811706
-6.7261329 10.032266 0.48545238 0.95279783
-5.4652734 15.484981 0.65999877 0.93637651
0.14109375 3.7403417 0.15043865 0.98512763
0.18605468 3.6984863 0.14883719 0.98528475
0.28041014 3.7122166 0.14962551 0.98520732
0.42162108 3.7121191 0.15015651 0.98515528
2.1298828 16.859629 0.68300426 0.93423301
2.3292186 16.743017 0.67941344 0.93456733
2.6315234 13.795088 0.56444681 0.9453305
2.7516406 13.500645 0.55377185 0.94633627
2.9282811 13.498301 0.5551402 0.94620717
0.82960933 3.6048534 0.14867237 0.98530084
0.87128901 3.5795703 0.14806919 0.98535997
0.92749995 3.6124218 0.14990032 0.9851805
2.8710155 10.625781 0.44238544 0.95689386
2.6484179 8.9066896 0.37346637 0.96348494
2.6429491 8.4960642 0.35761225 0.96500754
2.6379297 8.1188087 0.34311655 0.96640331
2.7944531 7.9176364 0.3374615 0.9669463
3.3641405 7.910078 0.34547755 0.9661746
3.641289 7.997539 0.35318407 0.9654333
3.762578 7.9959178 0.35517231 0.96524209
4.0094142 7.9926562 0.35938868 0.96483654
4.5218358 7.9858298 0.3688477 0.96392834
4.6542969 7.9840722 0.37143734 0.96367961
4.788672 7.9822946 0.37412432 0.96342164
5.145 7.8864059 0.37845653 0.96300608
5.286211 7.8845506 0.38152468 0.96271175
5.4297266 7.882617 0.38470408 0.96240711
6.0984373 7.9648829 0.40318239 0.96063739
7.2789841 7.9491992 0.43320194 0.95776933
7.4242969 7.9060645 0.43590236 0.95751178
8.2413673 7.9364257 0.45985332 0.9552303
8.4485159 7.9336715 0.46580905 0.95466369
8.6610546 7.9308395 0.47199512 0.95407563
9.3345308 7.9218946 0.49206865 0.95217031
9.5721092 7.9187498 0.49930409 0.95148414
10.684531 7.9698534 0.53574491 0.94803733
10.964414 7.9661422 0.54470956 0.94719064
1.3132812 0.85676754 0.063021123 0.99374241
1.3128906 0.83319336 0.062496793 0.9937945
1.312539 0.81002927 0.061991308 0.99384457
1.3116015 0.74268556 0.060580786 0.99398422
1.3719531 0.70996094 0.062087666 0.99383503
1.4152343 0.70997071 0.063637808 0.99368161
1.5087109 0.70995116 0.067016482 0.99334723
1.5592968 0.70997071 0.068860702 0.99316466
1.6127148 0.70995116 0.070820846 0.99297088
1.6692578 0.70995116 0.072907865 0.99276459
1.7931055 0.70997071 0.077512398 0.99230933
1.8611327 0.70997071 0.080059506 0.99205744
1.9451367 0.71414059 0.083282433 0.99173927
1.9454882 0.68666017 0.082920261 0.99177492
1.9458202 0.6593945 0.08257366 0.99180907
20.632343 6.703867 0.87192261 0.91681772
21.565487 6.708652 0.90772414 0.91355437
22.463282 6.6795406 0.94189876 0.91044933
1.9457812 -0.65937501 0.082573734 0.99180925
1.9451562 -0.7141211 0.083282582 0.99173921
1.8611327 -0.70993161 0.080059625 0.9920575
1.7931055 -0.70994139 0.077512279 0.99230933
1.6127148 -0.70993161 0.070820808 0.99297088
1.5592773 -0.70994139 0.068860546 0.99316478
1.3719727 -0.70993161 0.062087554 0.99383503
1.3307031 -0.70995116 0.060620345 0.99398035
1.3112891 -0.72089845 0.060144041 0.99402755
1.3118945 -0.76478511 0.061033782 0.9939394
1.3122265 -0.78721678 0.06150379 0.99389279
1.312539 -0.81000972 0.061991196 0.99384463
1.3129101 -0.83316404 0.062496908 0.9937945
1.3132422 -0.85674804 0.063021086 0.99374259
1.3136327 -0.88069332 0.063564412 0.99368876
1.3139648 -0.90509766 0.064128302 0.99363309
1.3143555 -0.92991209 0.064712755 0.99357533
15.18873 -11.035254 0.75457656 0.92759705
17.470312 -13.031445 0.87599361 0.91644692
16.580801 -13.029042 0.84754622 0.91904724
16.124237 -13.001288 0.8324942 0.92042613
15.306973 -12.990449 0.80690092 0.92277509
14.84121 -12.919473 0.79084474 0.92425197
14.464335 -12.914453 0.77935088 0.92531091
14.098242 -12.90959 0.76830411 0.92632943
13.742266 -12.904882 0.75768447 0.92730975
13.058867 -12.895801 0.73764569 0.9291625
12.730449 -12.891445 0.72818768 0.93003821
12.410274 -12.887187 0.71908033 0.93088222
12.097988 -12.883046 0.71030957 0.9316957
10.920078 -12.867382 0.67830092 0.93467104
10.102558 -12.856513 0.65717405 0.9366399
9.8411322 -12.853056 0.65062273 0.93725115
9.0866404 -12.843007 0.63231742 0.93896168
8.8443747 -12.839805 0.62663692 0.939493
8.1424608 -12.830488 0.61076111 0.94097996
7.9162302 -12.82746 0.60583383 0.94144183
7.6935935 -12.824512 0.60108012 0.94188762
7.4743161 -12.821621 0.5964933 0.94231802
7.2583981 -12.81873 0.59207088 0.94273335
6.6289062 -12.81039 0.57972401 0.94389331
6.4247656 -12.807675 0.57590342 0.94425273
5.8277731 -12.799746 0.56525767 0.94525415
5.6335349 -12.797148 0.56197315 0.9455635
5.2516208 -12.792089 0.55577791 0.94614714
4.8929491 -12.826777 0.55176812 0.94652522
4.8815622 -13.831103 0.5895052 0.94297409
4.3631835 -12.875606 0.54640055 0.94703132
3.9931641 -12.836376 0.54030538 0.9476065
5.0958591 -17.960566 0.75036037 0.92798638
3.9115233 -14.476689 0.60271108 0.94173467
3.3276951 -14.459902 0.59636152 0.94233036
4.7222071 -21.767481 0.89522731 0.91469264
3.5854883 -21.752382 0.88606685 0.91552758
3.3047071 -21.748652 0.88415253 0.91570204
2.1923437 -21.733887 0.87795788 0.91626716
0.34777343 -9.2206831 0.37086093 0.96373516
-8.3390036 -9.1067867 0.49628955 0.95177007
-8.3045311 -8.4095116 0.47502917 0.95378828
-8.692461 -8.5838966 0.49100444 0.95227128
-8.7857809 -8.4606152 0.49022937 0.95234472
-1.0776953 -0.93812495 0.05742687 0.99429649
-1.0757031 -0.82359374 0.05445198 0.99459118
-1.0753516 -0.80210936 0.053919449 0.99464387
-1.0749999 -0.78101563 0.053405873 0.99469477
-1.0740625 -0.72006834 0.051971968 0.99483681
-1.0882422 -0.70993161 0.052222747 0.99481195
-1.1187109 -0.70995116 0.0532526 0.99470991
-1.1504102 -0.70994139 0.054332618 0.99460292
-1.1834375 -0.70994139 0.055466652 0.99449056
-1.2178515 -0.70995116 0.056657866 0.99437261
-1.2914063 -0.70994139 0.059229888 0.99411786
-1.4153124 -0.70994139 0.063638188 0.99368137
-1.5087109 -0.70994139 0.067016371 0.99334723
-1.5593164 -0.70994139 0.068861008 0.99316466
-1.7343946 -0.66158199 0.074607506 0.99259639
-23.829531 -4.8568163 0.9774437 0.9072327
-1.7385546 0.68835938 0.069965363 0.99254322
-1.7382617 0.71363282 0.07030838 0.99250674
-1.6692969 0.70996094 0.067874908 0.99276525
-1.50875 0.70997071 0.062390175 0.99334776
-1.4608008 0.70996094 0.060772207 0.99351978
-1.2914063 0.70996094 0.055141028 0.99411845
-1.2537891 0.70997071 0.053913075 0.99424917
-1.2178515 0.70996094 0.052746542 0.9943732
-1.1834375 0.70995116 0.051637456 0.99449116
-1.0882422 0.70996094 0.048617627 0.99481243
-1.0715625 0.71844727 0.048273046 0.99484921
-1.0718554 0.73833007 0.048699874 0.99480373
-1.0728124 0.80021483 0.050077476 0.99465704
-1.073125 0.82166016 0.050570793 0.99460459
-1.0734375 0.84351563 0.05108257 0.99455029
-1.0741796 0.88864255 0.052163199 0.99443519
-1.0745507 0.9119336 0.052734334 0.99437451
-1.0749609 0.93577147 0.053326719 0.99431145
-5.21457 5.6946969 0.28891629 0.96956521
-5.1227341 5.7375488 0.28780207 0.96968091
-5.053359 5.8050294 0.28797886 0.96966249
-4.9141798 5.9402537 0.28846759 0.96961188
-4.8731251 6.0436912 0.29049402 0.96940178
-4.8395896 6.1589255 0.29308489 0.96913296
-4.8054295 6.2761717 0.29576823 0.96885484
-6.3989453 15.586806 0.63045168 0.93478018
-5.6778903 15.465459 0.61644167 0.93618208
-5.3534765 15.798085 0.62413722 0.93541151
0.14082031 3.733418 0.13979484 0.98515654
0.28035155 3.7111816 0.1392578 0.98521298
0.3726953 3.6951268 0.13896365 0.98524404
0.42128906 3.7091308 0.13967822 0.9851687
2.743242 16.642714 0.63112658 0.93471241
2.8329492 15.936367 0.60564381 0.93726414
2.6315234 13.795088 0.52548242 0.94533616
2.7516406 13.500645 0.51554292 0.94634187
2.9283202 13.498301 0.5168184 0.94621277
0.82960933 3.6048534 0.13840942 0.98530239
0.87128901 3.5795703 0.13784793 0.98536158
0.9275195 3.6124413 0.13955212 0.98518199
2.8710155 10.625781 0.41184452 0.95689839
2.6543748 9.3554983 0.36387476 0.96182162
2.6429491 8.4960451 0.33292514 0.9650113
2.6379297 8.1188087 0.31940478 0.96640688
2.7025194 7.9751368 0.31507578 0.96685576
2.7944531 7.9176364 0.31416607 0.96694976
2.9062891 7.916152 0.31553119 0.96680856
3.1330078 7.913125 0.31845036 0.96650684
3.2480078 7.9116211 0.32000697 0.96634585
3.5213671 7.9991207 0.32702288 0.96562076
3.762578 7.9959178 0.33065408 0.96524578
4.5218358 7.9858298 0.34338352 0.96393216
4.788672 7.9822946 0.34829783 0.96342552
5.0060349 7.8882613 0.34957638 0.96329391
5.7898045 7.9689941 0.36856845 0.96133876
5.9426951 7.9669628 0.37189868 0.96099633
6.2570701 7.9627829 0.37892604 0.9602741
6.7521091 7.9562206 0.39045557 0.95909053
6.9239841 7.9539256 0.39458233 0.95866716
7.2789841 7.9491992 0.40329647 0.95777375
7.4242969 7.9060545 0.40581051 0.95751631
7.5636325 7.8542871 0.40800044 0.95729208
7.7536716 7.851748 0.41289783 0.95679075
8.4485159 7.9336715 0.43365368 0.95466846
8.6610546 7.9308395 0.43941265 0.95408046
9.1037893 7.9249606 0.45162439 0.9528349
10.212168 7.8191013 0.48125446 0.94981951
10.68457 7.9698534 0.49875599 0.94804269
1.3105859 0.87871093 0.05904045 0.9937039
1.3102343 0.85479492 0.05853691 0.99375755
1.3099219 0.83133787 0.058051031 0.99380904
1.3096093 0.80823243 0.057582207 0.99385887
1.3092968 0.78549802 0.05713062 0.99390697
1.3090038 0.76311523 0.056694791 0.99395329
1.3087305 0.74105465 0.05627491 0.99399799
1.3307421 0.70995116 0.056435585 0.99398082
1.3719531 0.70996094 0.057801552 0.99383569
1.4152343 0.70997071 0.059244957 0.99368227
1.6692969 0.70995116 0.067874983 0.99276525
1.950703 0.66103512 0.077066153 0.99178946
20.632343 6.703867 0.81173414 0.91682631
21.569511 6.7099218 0.84522277 0.91354781
22.46332 6.6795506 0.87688839 0.91045833
23.493944 6.6658497 0.91377681 0.90687245
23.378008 4.155869 0.88845623 0.90933239
23.82625 3.9273436 0.90354264 0.90786588
1.9503906 -0.68836915 0.077390634 0.99175519
1.9500781 -0.7159375 0.077729799 0.99171925
1.8611327 -0.70993161 0.074532889 0.9920584
1.7931055 -0.70994139 0.072161712 0.99231017
1.7293164 -0.70995116 0.069947012 0.99254519
1.6692773 -0.70994139 0.067874908 0.99276531
1.6127148 -0.70993161 0.065932043 0.99297166
1.4607617 -0.70994139 0.060771942 0.99351996
1.3719727 -0.70993161 0.057801589 0.99383569
1.3084766 -0.71931636 0.055870209 0.99404103
1.3090234 -0.76307613 0.056694832 0.99395335
1.3096093 -0.80819333 0.057582472 0.99385899
1.3105664 -0.87867188 0.05904026 0.99370402
1.3112891 -0.92777342 0.060104102 0.99359089
1.3116796 -0.95297849 0.060665283 0.99353123
17.471367 -13.032236 0.81556118 0.91645068
17.025682 -13.035956 0.80234754 0.91774774
16.582382 -13.030273 0.78911287 0.91904819
16.124199 -13.001308 0.77502424 0.92043442
15.709199 -12.9958 0.76286465 0.92163223
14.464375 -12.914453 0.72555202 0.92531848
13.396015 -12.900273 0.69586945 0.92826092
13.058867 -12.895801 0.68672132 0.92916989
12.730469 -12.891425 0.67792022 0.93004549
12.410274 -12.887187 0.66944182 0.93088937
12.097968 -12.883027 0.66127622 0.93170291
11.793164 -12.878984 0.65340984 0.93248725
11.495449 -12.875029 0.64582747 0.93324381
11.204512 -12.871161 0.63852036 0.93397367
10.920058 -12.867373 0.63147509 0.9346779
10.641777 -12.863682 0.62468183 0.93535739
10.369375 -12.860058 0.61812752 0.93601328
9.8411322 -12.853046 0.60570753 0.93725771
9.0866404 -12.843007 0.58866638 0.93896806
8.8443747 -12.839805 0.58337778 0.93949932
8.1424608 -12.830488 0.56859779 0.9409861
7.693574 -12.824512 0.55958468 0.94189376
7.0456052 -12.815918 0.5472244 0.94313991
6.8358202 -12.813125 0.54339373 0.94352645
6.2232809 -12.80498 0.53271711 0.94460493
5.8277731 -12.799746 0.52623749 0.94525987
5.4415426 -12.794609 0.52023882 0.9458667
5.2516208 -12.792089 0.51741207 0.94615281
4.3631835 -12.875606 0.50868195 0.94703686
4.715879 -14.513994 0.57104701 0.94074196
3.9931641 -12.836367 0.5030064 0.94761199
3.8083007 -12.807285 0.49995279 0.94792169
3.6331053 -12.80496 0.49803874 0.94811565
5.0583591 -20.781816 0.80030513 0.91794837
4.7222071 -21.767481 0.83342892 0.9147014
4.435781 -21.763672 0.83107895 0.914931
3.8675194 -21.756132 0.8268196 0.91534823
3.3047071 -21.748652 0.82311875 0.91571075
2.7465625 -21.741249 0.81996608 0.91601956
2.4689844 -21.737558 0.81859082 0.91615427
1.9610742 -22.23625 0.83525068 0.91452295
-2.6056249 -9.1836033 0.35718867 0.96250975
-8.1461325 -9.1237307 0.45765796 0.9522202
-8.3045311 -8.4095116 0.44222996 0.95379311
-8.7281246 -8.4051075 0.45339298 0.95265484
-1.0749414 -0.93574214 0.053326681 0.99431157
-1.073125 -0.82162106 0.050570831 0.99460465
-1.0727735 -0.80019528 0.050077591 0.99465722
-1.0724609 -0.77916992 0.049601592 0.99470782
-1.072168 -0.75856441 0.049142648 0.99475658
-1.071582 -0.71841794 0.048273124 0.99484921
-1.0882422 -0.70993161 0.048617553 0.99481255
-1.1834375 -0.70994139 0.051637307 0.99449116
-1.253828 -0.70994139 0.053912964 0.99424911
-1.4153124 -0.70994139 0.05924511 0.99368203
-1.5087109 -0.70994139 0.062390212 0.99334794
-1.6127148 -0.70993161 0.065931894 0.99297166
-1.7382421 -0.7136035 0.070308305 0.99250686
-1.7385546 -0.68833005 0.069965206 0.99254328
-1.7430859 0.69014645 0.064946592 0.99252462
-1.7427734 0.71549803 0.065265886 0.99248809
-1.6127343 0.70997071 0.061043929 0.9929722
-1.5592968 0.70996094 0.059354704 0.99316609
-1.50875 0.70997071 0.057764702 0.99334842
-1.4607812 0.70996094 0.056266669 0.9935205
-1.4152734 0.70996094 0.054852791 0.9936828
-1.1834375 0.70995116 0.047809485 0.9944917
-1.1503906 0.70996094 0.046832312 0.99460405
-1.0693749 0.73664063 0.044985123 0.99481618
-1.0696484 0.75678712 0.045393027 0.99476939
-1.0702149 0.79830074 0.046254538 0.99467045
-1.0705469 0.81967771 0.046708982 0.99461806
-1.0708203 0.84145504 0.047180519 0.99456406
-1.0711719 0.86371094 0.047669448 0.99450779
-1.0715234 0.88643551 0.04817665 0.9944495
-1.0722265 0.93339843 0.049247969 0.99432641
-5.7842579 5.7120018 0.28162464 0.96798712
-5.4364061 5.6452928 0.27151057 0.96911871
-5.3278513 5.673574 0.26962855 0.96932942
-5.0586524 5.8111134 0.26690897 0.96963418
-4.8793945 6.051445 0.26930338 0.96936607
-6.7259569 10.031962 0.4184235 0.95280874
-5.8892965 15.438799 0.57244533 0.93600416
-5.5433006 15.706103 0.57700551 0.93551093
0.18593749 3.6958396 0.12819821 0.98529822
0.23324218 3.7079003 0.12870765 0.98524016
0.28027344 3.7101269 0.12889725 0.98521858
0.32714844 3.7095213 0.12900905 0.98520589
0.37261719 3.6941991 0.12862934 0.98524916
2.1541405 17.051865 0.59542692 0.93352193
2.353086 16.914541 0.5916214 0.93393284
2.743242 16.642714 0.58433831 0.93471873
2.8329296 15.936337 0.56074566 0.93727028
2.6315625 13.795107 0.48652506 0.94534141
2.9282811 13.498301 0.4785029 0.94621807
2.8710155 10.625791 0.38131276 0.95690256
2.6483984 8.9066696 0.32190844 0.96349245
2.6379297 8.1188087 0.2957291 0.96641016
3.1330078 7.913125 0.29484224 0.96651012
3.2480078 7.9116211 0.29628161 0.96634918
3.3641405 7.910078 0.2977843 0.96618146
3.5213671 7.9991207 0.30277759 0.96562415
4.1350389 7.9909763 0.311701 0.96462929
4.3911719 7.9875779 0.31577411 0.96417546
4.788672 7.9822946 0.32247815 0.96342909
4.9249997 7.9804783 0.32487857 0.96316183
5.286211 7.8845506 0.32885593 0.96271938
5.4297266 7.882617 0.33159557 0.96241474
5.5756836 7.880703 0.33443531 0.96209902
6.2570701 7.9627829 0.35083452 0.96027803
6.418828 7.9606347 0.35426563 0.95989734
6.7521091 7.9562206 0.361507 0.95909452
7.2789841 7.9492087 0.3733983 0.95777786
7.5636129 7.8542967 0.37775195 0.95729625
7.9484177 7.8491797 0.38699335 0.95627475
8.4485159 7.9336715 0.40150416 0.95467287
8.6610546 7.9308395 0.40683725 0.95408493
8.8793745 7.927949 0.41238034 0.95347416
9.7055855 7.82583 0.43192074 0.95132411
10.684531 7.9698534 0.46178058 0.94804782
1.3082422 0.92562497 0.055518225 0.99360633
1.3079101 0.9009375 0.055019148 0.99366361
1.3061132 0.76141602 0.052376136 0.99396724
1.3058593 0.73943359 0.051989097 0.9940117
1.4152734 0.70995116 0.054852791 0.9936828
1.5087109 0.70995116 0.057764854 0.9933486
1.5592968 0.70997071 0.059354629 0.99316609
1.6692969 0.70995116 0.062843092 0.99276596
1.9550195 0.71778321 0.07214985 0.99169916
1.9553515 0.69012696 0.07183449 0.9917351
1.9556249 0.66270506 0.071532778 0.99176967
20.632305 6.7038474 0.7515704 0.91683441
21.573456 6.7111425 0.78269911 0.91354096
23.493944 6.6658592 0.84603608 0.90688127
23.378008 4.155869 0.82259077 0.90934104
1.9550781 -0.71775389 0.07214985 0.99169898
1.8610938 -0.70995116 0.069007374 0.99205929
1.6127148 -0.70993161 0.061044272 0.99297237
1.5592773 -0.70994139 0.059354477 0.99316621
1.4607617 -0.70994139 0.056266632 0.99352062
1.3719727 -0.70993161 0.053516388 0.99383628
1.3058593 -0.73941404 0.05198906 0.99401176
1.3061328 -0.76138669 0.052376136 0.99396724
1.3064063 -0.78372067 0.052777633 0.9939211
1.3066406 -0.80638671 0.053194199 0.99387342
1.3075781 -0.87666988 0.054538079 0.99371898
17.027266 -13.037188 0.74293715 0.91774821
14.84121 -12.919473 0.681669 0.92426705
14.464335 -12.914473 0.67175871 0.92532569
14.098242 -12.90959 0.66223752 0.9263441
13.742266 -12.904882 0.65308803 0.9273243
13.396015 -12.900273 0.64428407 0.92826784
12.730469 -12.891425 0.62765902 0.93005222
11.495468 -12.875029 0.59794939 0.93325019
11.204512 -12.871161 0.59118211 0.93398005
10.920058 -12.867373 0.58465886 0.93468416
10.641777 -12.863682 0.57836914 0.93536365
10.369375 -12.860058 0.57230306 0.93601948
10.102539 -12.856503 0.56645113 0.93665272
8.6063671 -12.83664 0.53540546 0.94001818
7.693574 -12.824512 0.51810056 0.94189936
7.4743552 -12.821601 0.51414728 0.94232959
7.0456052 -12.815918 0.50665575 0.94314545
6.6289062 -12.81039 0.4996928 0.94390464
6.2232809 -12.80498 0.49322435 0.9446103
5.4415426 -12.794609 0.48167118 0.94587195
5.0648437 -12.792255 0.47663981 0.94642198
4.8815622 -13.831094 0.50812328 0.94298559
4.3631835 -12.875586 0.47096905 0.94704211
4.715879 -14.513994 0.52869534 0.94074768
3.9931836 -12.836348 0.46571636 0.94761711
3.4592187 -12.802636 0.45943239 0.94830531
3.5224414 -14.471533 0.51597857 0.94213003
4.7222071 -21.7675 0.7716409 0.91470951
4.435781 -21.763691 0.76947004 0.91493905
3.8674998 -21.756151 0.76552171 0.91535622
3.5854883 -21.752401 0.76374495 0.91554421
3.3047071 -21.748671 0.76209438 0.91571873
3.0250976 -21.744961 0.76057386 0.91587979
1.6633984 -22.019638 0.76500535 0.91541064
1.3851172 -22.015947 0.76421326 0.91549456
0.34779295 -9.2207031 0.31966358 0.96374243
-2.6056249 -9.1836033 0.33070949 0.96251339
-8.136035 -9.1124315 0.42320415 0.95228261
-8.3045311 -8.4095116 0.40944454 0.95379764
-8.7281246 -8.4051361 0.41978291 0.95265937
-1.071875 -0.90963864 0.04870224 0.99438912
-1.0715234 -0.88641602 0.048176344 0.99444956
-1.0711719 -0.86369139 0.047669448 0.99450785
-1.0699219 -0.77733397 0.045816153 0.99472088
-1.0696679 -0.75677735 0.04539318 0.99476933
-1.1187109 -0.70995116 0.045901068 0.99471098
-1.1834375 -0.70994139 0.047809411 0.9944917
-1.3307421 -0.70994139 0.052251622 0.99398148
-1.3719531 -0.70993161 0.0535165 0.99383634
-1.4153124 -0.70994139 0.054852791 0.99368268
-1.4608008 -0.70994139 0.056266896 0.9935205
-1.6127148 -0.70993161 0.061044198 0.99297237
-1.6692969 -0.70994139 0.062842786 0.99276596
-1.747871 0.66675782 0.059619598 0.99254125
-1.7473437 0.71736324 0.060198095 0.99246919
-1.6127343 0.70997071 0.056156918 0.99297285
-1.50875 0.70997071 0.053140298 0.99334902
-1.4607812 0.70996094 0.051762275 0.99352109
-1.3307226 0.70997071 0.048068352 0.99398202
-1.2537891 0.70997071 0.045920067 0.9942503
-1.2178515 0.70996094 0.044926412 0.99437428
-1.1503906 0.70996094 0.043082848 0.99460453
-1.1187109 0.70997071 0.04222637 0.9947114
-1.0666797 0.71515626 0.040927809 0.99487364
-1.0691797 0.90738279 0.044691429 0.9944036
-5.2269726 5.7082419 0.24666774 0.96949971
-5.1335154 5.7495995 0.24564868 0.96962386
-5.0639648 5.8172264 0.24579968 0.96960551
-4.885664 6.0591989 0.24806072 0.96933019
-4.8189454 6.2937989 0.25262469 0.96877462
-4.8785543 6.5403223 0.26003972 0.96787316
-6.7258592 10.031836 0.38492006 0.95281357
-5.8924217 15.446953 0.52689409 0.93597716
-5.5314841 15.672587 0.52968049 0.93564969
-5.3768554 15.867002 0.53392541 0.9351511
0.14054687 3.7263865 0.11884441 0.98518711
2.1541405 17.051865 0.54775947 0.93352783
2.353086 16.914551 0.54425722 0.93393874
2.6315429 13.795078 0.44757542 0.94534642
0.82958984 3.6048534 0.11788894 0.98530519
0.87128901 3.5795801 0.11741092 0.98536432
2.6429491 8.4960251 0.2835674 0.96501797
2.6379688 8.1187696 0.27204594 0.96641332
2.7025194 7.9751172 0.26836354 0.96686208
3.1330078 7.913125 0.27123776 0.96651316
3.2480078 7.9116015 0.27256268 0.96635228
3.641289 7.9975195 0.28005436 0.96544355
4.1350389 7.9909763 0.28674641 0.96463245
4.2622657 7.9892774 0.28858432 0.96440983
4.6542969 7.9840722 0.29452923 0.96369028
4.9249997 7.9804783 0.29886913 0.96316516
5.0060349 7.8882613 0.29774904 0.96330082
5.286211 7.8845506 0.30252817 0.96272272
5.5756836 7.880703 0.30766207 0.96210241
5.7898045 7.9689941 0.31392443 0.96134603
6.0984373 7.9648924 0.31970105 0.96064889
6.418828 7.9606347 0.32590365 0.95990098
6.5837498 7.958447 0.32917607 0.95950681
6.7521091 7.9562206 0.33256656 0.95909822
7.2790232 7.9492087 0.34350383 0.95778155
7.5636129 7.8542967 0.34750995 0.95730013
7.9484177 7.8491797 0.35601261 0.95627868
8.2413673 7.9364352 0.36463901 0.95524341
8.6610546 7.9308496 0.37426639 0.95408905
9.1037893 7.9249706 0.38466755 0.95284373
9.3345308 7.9219041 0.39018282 0.95218426
9.5721092 7.9187498 0.39591953 0.95149827
9.7055464 7.82583 0.39734188 0.95132858
9.9549217 7.8225098 0.40349445 0.95059389
10.68457 7.9698534 0.4248167 0.94805235
1.3049023 0.89885741 0.050497625 0.99367875
1.3045703 0.87466794 0.050056685 0.99373394
1.3042969 0.85090816 0.049631957 0.99378693
1.3034766 0.7819922 0.048445053 0.99393517
1.3032422 0.7597363 0.048076972 0.99398106
1.3307421 0.70995116 0.048068579 0.99398202
1.4152343 0.70997071 0.050461385 0.99368346
1.4607812 0.70997071 0.051762197 0.99352109
1.5087109 0.70995116 0.053140298 0.99334919
1.6127148 0.70995116 0.056157149 0.99297297
1.7931055 0.70997071 0.061462898 0.9923116
1.8611327 0.70997071 0.063482814 0.99205983
1.9602734 0.69187498 0.06625095 0.99171513
1.9605078 0.66436523 0.065971904 0.99174994
20.632305 6.7038474 0.69138277 0.91684175
23.493906 6.6658397 0.77830046 0.90688956
23.378008 4.1558299 0.75673538 0.90934902
23.82621 3.9273241 0.76958984 0.90788287
1.9605273 -0.66437501 0.065972097 0.99174988
1.9602734 -0.69184572 0.066250801 0.99171519
1.6692773 -0.70994139 0.057811737 0.99276668
1.6127148 -0.70993161 0.056157187 0.99297297
1.4607617 -0.70994139 0.051762238 0.99352121
1.4152734 -0.70994139 0.050461575 0.9936834
1.3719727 -0.70993161 0.049232025 0.99383688
1.3307031 -0.70995116 0.048068542 0.99398214
1.3037499 -0.80459958 0.048826255 0.99388748
1.3040234 -0.82755858 0.049221992 0.99383813
1.3051562 -0.92344725 0.050954551 0.99362195
1.3055078 -0.94850582 0.051427994 0.99356276
17.473436 -13.033809 0.69470471 0.91645646
17.028906 -13.038457 0.68352371 0.91774786
16.585449 -13.032734 0.67224377 0.91904867
16.124237 -13.001308 0.66012192 0.92044896
15.709199 -12.9958 0.64976209 0.92164671
15.306973 -12.990439 0.63982683 0.92279726
14.84121 -12.919473 0.62709755 0.92427379
14.464335 -12.914473 0.61798131 0.92533237
12.730449 -12.891436 0.57741398 0.93005842
12.410274 -12.887177 0.57019031 0.93090218
12.097988 -12.883037 0.56323522 0.93171549
11.793144 -12.878974 0.55653483 0.93249983
11.495449 -12.875029 0.55007672 0.93325621
11.204551 -12.871161 0.5438531 0.93398583
10.920058 -12.867373 0.53785419 0.93469
10.641758 -12.863671 0.53206795 0.93536949
9.8411322 -12.853046 0.51590836 0.93726939
9.5848045 -12.849628 0.51089579 0.93785954
9.0866404 -12.843007 0.5013923 0.93897939
8.8443747 -12.839805 0.49688944 0.93951058
7.9162498 -12.82748 0.48039013 0.94145876
7.4743552 -12.821601 0.47298548 0.94233477
7.2583981 -12.81873 0.46947718 0.94274998
7.0456052 -12.815918 0.46609539 0.94315052
6.4247851 -12.807675 0.45665735 0.94426888
5.4415426 -12.794609 0.44310945 0.94587678
5.2516208 -12.792089 0.44070193 0.94616282
5.0648046 -12.792246 0.43848032 0.94642687
4.3631835 -12.875566 0.43326336 0.94704688
4.715879 -14.513994 0.48638064 0.94075298
3.9931641 -12.836367 0.42843172 0.94762176
3.8083007 -12.807285 0.42583087 0.94793141
3.4592187 -12.802636 0.42265132 0.94830996
3.3277147 -14.459902 0.47288072 0.94234705
4.435781 -21.763691 0.70786774 0.91494656
4.1509376 -21.759922 0.70599121 0.91516197
3.3047266 -21.748671 0.70108533 0.91572613
2.7465625 -21.741268 0.69840038 0.91603494
2.1923437 -21.733887 0.69617307 0.91629118
1.9610547 -22.236053 0.71141267 0.91453934
1.3851172 -22.015947 0.7030316 0.91550201
-8.1342182 -9.1103907 0.38923639 0.95229727
-8.3223438 -8.6421576 0.38237101 0.95311874
-8.7281446 -8.4051266 0.38617769 0.9526636
-1.0695312 -0.93102539 0.045190733 0.99434119
-1.0691797 -0.90736324 0.044691581 0.99440366
-1.0671484 -0.75501949 0.041661911 0.99478209
-1.0669141 -0.73490232 0.041288223 0.9948287
-1.1187109 -0.70995116 0.04222637 0.99471146
-1.1834375 -0.70994139 0.043982048 0.99449223
-1.2178515 -0.70995116 0.044926453 0.99437433
-1.253828 -0.70994139 0.045919951 0.99425018
-1.3307421 -0.70994139 0.048068505 0.99398202
-1.3719531 -0.70993161 0.049232215 0.99383694
-1.5087109 -0.70994139 0.053140409 0.99334925
-1.5593164 -0.70994139 0.054602735 0.99316669
-1.6692969 -0.70994139 0.057811812 0.99276662
-23.594961 7.666533 0.72187012 0.9054901
-23.518711 7.9698434 0.7225467 0.90540612
-1.7521679 0.69374019 0.054833639 0.99248713
-1.7519531 0.71923828 0.055104256 0.99245006
-1.5592968 0.70996094 0.049852066 0.99316728
-1.50875 0.70997071 0.048516884 0.99334961
-1.4607812 0.70996094 0.047258642 0.99352163
-1.4152734 0.70996094 0.046070974 0.99368387
-1.3719921 0.70997071 0.044948537 0.99383724
-1.3307226 0.70997071 0.043886069 0.99398255
-1.2914063 0.70996094 0.0428796 0.99412006
-1.2537891 0.70997071 0.041924398 0.99425077
-1.1834375 0.70995116 0.040155068 0.99449265
-1.0882422 0.70996094 0.037806775 0.99481386
-1.0642383 0.71350586 0.037281454 0.9948858
-1.0644336 0.73323238 0.037609022 0.99484104
-1.0646875 0.75327146 0.037948377 0.99479455
-1.0649219 0.77372068 0.038300209 0.99474633
-1.0651562 0.79453123 0.038665082 0.9946965
-1.0656641 0.83739257 0.039435729 0.99459112
-1.0668359 0.92870116 0.041155051 0.99435586
-5.8091211 5.7365723 0.23755343 0.9678573
-5.612031 5.6829882 0.23239735 0.96854407
-5.138906 5.7556348 0.22451068 0.96959502
-5.0692968 5.823359 0.22464901 0.96957654
-4.9996095 5.8911424 0.22482242 0.96955329
-4.9297462 5.959043 0.2250323 0.96952546
-4.891953 6.0669823 0.22676845 0.96929389
-6.1879296 15.628994 0.48910221 0.93494642
-5.7007031 15.527538 0.48129129 0.93595141
-5.5196872 15.639179 0.48256275 0.93578762
-5.3730469 15.855791 0.48712558 0.93520069
0.14042969 3.7237694 0.10842647 0.98519868
0.23316406 3.7062891 0.10805496 0.9852491
0.32695311 3.7074413 0.10829319 0.98521674
2.1541405 17.051865 0.50010163 0.93353331
2.353086 16.914541 0.49690136 0.93394417
2.5294921 16.647011 0.48993573 0.93483907
2.743242 16.642714 0.49078608 0.93472987
2.8329296 15.936298 0.47096783 0.93728119
2.7516406 13.500645 0.40090594 0.9463563
0.87128901 3.5795801 0.10719494 0.98536551
2.8710155 10.625791 0.32026476 0.95691001
2.6429687 8.496006 0.25889409 0.96502095
2.6379688 8.1187696 0.24838825 0.96641612
2.9062891 7.9161325 0.24536845 0.96681768
3.0191405 7.9146285 0.24647816 0.96667004
3.1330078 7.913125 0.24763736 0.9665159
3.5213671 7.9991012 0.2543053 0.96563017
3.6413281 7.9975195 0.2556873 0.96544635
3.762578 7.9958982 0.25712848 0.96525526
3.8852344 7.994277 0.25862506 0.96505654
4.0093751 7.9926367 0.26018229 0.96484995
4.3911719 7.9875584 0.26522014 0.96418172
4.7886329 7.982275 0.27084833 0.96343559
4.9249997 7.9804587 0.27286577 0.96316826
5.0060153 7.8882613 0.271842 0.96330386
5.5756836 7.8806834 0.28089252 0.96210563
5.7898045 7.9689941 0.28661105 0.96134925
6.0984373 7.9648924 0.29188496 0.96065217
6.418828 7.9606347 0.29754794 0.95990431
6.5837889 7.958447 0.30053446 0.95951003
6.7521091 7.9562206 0.30363116 0.95910156
6.9239841 7.9539351 0.30684146 0.95867831
7.2790232 7.9492087 0.31361523 0.95778507
7.4242578 7.9060545 0.31557071 0.95752788
7.5636129 7.8542967 0.31727457 0.95730364
7.9484177 7.8491797 0.3250362 0.95628226
8.4485159 7.9336815 0.33722362 0.95468068
8.8793745 7.927959 0.34635884 0.95348215
9.1037893 7.9249706 0.35119945 0.9528476
9.3345699 7.9219041 0.35623294 0.95218807
9.5721092 7.9187598 0.36147204 0.95150226
9.9549217 7.8225193 0.36838648 0.95059794
10.68457 7.9698534 0.38785312 0.94805664
1.3024218 0.94628906 0.046843223 0.99357837
1.3021485 0.9212988 0.046412926 0.9936372
1.301875 0.89678711 0.045997925 0.99369389
1.3013281 0.84898436 0.045210723 0.99380153
1.3011132 0.82572263 0.044838369 0.99385232
1.300625 0.78026366 0.044131964 0.99394894
1.3307421 0.70995116 0.043886449 0.99398249
1.7931055 0.70997071 0.056115303 0.99231225
1.8611327 0.70997071 0.057959441 0.99206048
1.9647266 0.69343746 0.06062397 0.99169707
20.632284 6.7038574 0.63124657 0.91684848
21.581446 6.713613 0.65763259 0.91352493
22.46332 6.6795311 0.68189317 0.91048199
23.493944 6.6658397 0.71057892 0.90689695
23.378008 4.1558299 0.69089186 0.9093563
1.9648046 -0.66580075 0.060364265 0.99173266
1.9647266 -0.69343746 0.060624234 0.99169707
1.9646288 -0.72128904 0.060896225 0.99166
1.7293164 -0.70995116 0.054393426 0.99254721
1.6692773 -0.70994139 0.052781828 0.99276733
1.6127148 -0.70993161 0.051270943 0.99297357
1.5592773 -0.70994139 0.049851913 0.9931674
1.4607617 -0.70994139 0.047258377 0.99352175
1.3719727 -0.70995116 0.044948425 0.99383736
1.3307031 -0.70995116 0.043886337 0.99398267
1.2999609 -0.71466798 0.04316467 0.99408126
1.3001953 -0.73620117 0.043475568 0.9940387
1.300625 -0.78025389 0.044132002 0.99394894
1.3008593 -0.80278319 0.044478644 0.99390161
1.3010937 -0.82569337 0.044838216 0.99385244
1.3016406 -0.87264645 0.045597151 0.99374861
1.3024218 -0.94624996 0.046843298 0.99357849
17.474472 -13.034551 0.63427979 0.91645855
16.586561 -13.033613 0.61379516 0.91904998
16.124237 -13.001299 0.60268503 0.9204554
15.709238 -12.99579 0.59323192 0.92165297
15.306973 -12.990439 0.58415985 0.92280358
14.84121 -12.919473 0.57253122 0.92427993
14.098242 -12.90959 0.5562157 0.92635661
13.742305 -12.904882 0.54852754 0.92733651
13.058867 -12.895801 0.53402072 0.92918873
12.410274 -12.887177 0.52058017 0.93090785
12.097988 -12.883037 0.51422811 0.93172103
10.920078 -12.867373 0.49105754 0.9346953
10.369375 -12.860058 0.4806779 0.93603039
10.102578 -12.856503 0.47576311 0.93666345
9.3333979 -12.846309 0.46202824 0.93843418
9.0866404 -12.843027 0.45776835 0.93898433
8.3724604 -12.833535 0.44585696 0.94052374
8.1424799 -12.830488 0.44216061 0.94100189
7.2583981 -12.81873 0.42862964 0.94275469
7.0455856 -12.815918 0.42554057 0.94315523
6.6289454 -12.81037 0.41969082 0.94391423
6.4247656 -12.807675 0.41692379 0.94427353
5.8277926 -12.799746 0.40922105 0.94527453
5.6335349 -12.797148 0.40684307 0.94558382
5.4415426 -12.794609 0.40455621 0.94588125
5.064785 -12.792188 0.40032634 0.94643152
4.8789454 -12.790156 0.39831272 0.94669372
4.6948633 -12.787793 0.39637041 0.94694656
4.3631639 -12.875566 0.39556667 0.94705129
4.5777926 -14.089024 0.43104395 0.94244152
3.9931836 -12.836348 0.39115396 0.94762611
4.3142185 -14.508662 0.44042268 0.9412263
3.6424022 -12.837764 0.3882851 0.94800025
3.5224218 -14.471514 0.43337262 0.94214004
3.3276951 -14.459902 0.43173686 0.94235182
4.7222071 -21.767481 0.64810163 0.91472393
4.435781 -21.763672 0.64627606 0.91495347
3.5854883 -21.752382 0.64147294 0.91555858
3.3047266 -21.748652 0.64008421 0.91573304
2.7465625 -21.741249 0.63763249 0.91604179
2.1923437 -21.733868 0.63559878 0.91629803
1.6633984 -22.019629 0.64253354 0.915425
0.34777343 -9.2207031 0.26848567 0.96374875
-2.6056445 -9.1835938 0.2777628 0.96251994
-8.7281837 -8.4051466 0.3525767 0.95266736
-1.0671289 -0.95278317 0.041625824 0.9942916
-1.0665039 -0.90508789 0.04070114 0.99441808
-1.0659375 -0.85946286 0.03984211 0.99453557
-1.0651562 -0.79452145 0.038665313 0.9946965
-1.0649219 -0.77367187 0.038300399 0.99474645
-1.0646679 -0.75327146 0.037948303 0.99479461
-1.0644531 -0.73321289 0.037608869 0.99484098
-1.0882422 -0.70993161 0.037806854 0.99481398
-1.1187109 -0.70995116 0.038552511 0.99471194
-1.1504102 -0.70994139 0.039334219 0.99460495
-1.1834375 -0.70994139 0.04015499 0.99449271
-1.2178515 -0.70995116 0.041017607 0.99437475
-1.2914063 -0.70994139 0.04287979 0.99412012
-1.4153124 -0.70994139 0.046070974 0.99368382
-1.5593164 -0.70994139 0.049851913 0.99316722
-1.6127148 -0.70993161 0.051270943 0.99297357
-1.6692969 -0.70994139 0.052781753 0.99276721
-1.7521875 -0.69374019 0.054833218 0.99248707
-23.518711 7.9698434 0.65369719 0.90541303
-1.7569921 0.67023438 0.049502142 0.9925037
-1.7565429 0.72113281 0.049984891 0.99243093
-1.6692969 0.70996094 0.047752455 0.99276775
-1.5592968 0.70996094 0.045101929 0.99316782
-1.4607812 0.70996094 0.04275547 0.99352217
-1.3719921 0.70997071 0.040665627 0.99383771
-1.2914063 0.70996094 0.038793828 0.99412054
-1.2537891 0.70997071 0.037929725 0.99425119
-1.1503906 0.70996094 0.035586432 0.99460542
-1.1187109 0.70997071 0.034878805 0.99471229
-1.0882422 0.70996094 0.03420433 0.99481428
-1.0618359 0.71190429 0.033652153 0.99489772
-1.0619922 0.73153317 0.033947065 0.99485326
-1.0622265 0.75152344 0.03425312 0.99480695
-1.0624218 0.77190429 0.034569856 0.99475902
-1.0628711 0.81379879 0.035238989 0.99465787
-1.0630859 0.83539063 0.035592001 0.99460453
-1.0633398 0.8574121 0.035957985 0.99454916
-1.0638672 0.90287107 0.036731377 0.99443227
-1.0641406 0.92636716 0.037139814 0.99437046
-1.064414 0.95038086 0.037563588 0.99430645
-5.623867 5.6949801 0.21069568 0.96848112
-5.4560742 5.6657715 0.20706187 0.96901631
-5.3470311 5.693994 0.20562206 0.96922839
-5.1443162 5.7616992 0.20333163 0.96956575
-5.0746679 5.8294725 0.20345691 0.96954721
-4.9349608 5.965332 0.20380451 0.96949607
-4.8982615 6.0747752 0.20542485 0.96925735
-4.8442578 6.3268747 0.20976543 0.96861809
-4.9049606 6.5757518 0.2159563 0.96770716
-6.6868358 9.9736128 0.31609797 0.95308828
-6.1917577 15.638721 0.44277409 0.93491215
-5.8986521 15.463252 0.4356727 0.93592179
