# .PCD v0.7 - Point Cloud Data file format
VERSION 0.7
FIELDS x y z intensity
SIZE 4 4 4 4
TYPE F F F F
COUNT 1 1 1 1
WIDTH 1082
HEIGHT 1
VIEWPOINT 0 0 0 1 0 0 0
POINTS 1082
DATA ascii
-15.501152 -0.19479492 -0.49405867 0.93984437
-14.278252 -9.7656248e-06 -0.49464688 0.94445497
-14.238194 1.0755762 -0.494665 0.94445306
-14.167129 1.7897265 -0.49469841 0.94444937
-14.143877 1.9676465 -0.49470937 0.94444805
-14.11833 2.1452734 -0.4947215 0.94444692
-14.090683 2.3225877 -0.49473464 0.94444525
-13.994404 2.8522754 -0.49478039 0.94444036
-13.878525 3.3780859 -0.49483559 0.94443429
-13.743144 3.899287 -0.49490017 0.94442719
-13.69373 4.0718651 -0.49492377 0.94442457
-13.642168 4.2438378 -0.49494839 0.94442183
-13.588388 4.4151368 -0.49497405 0.94441932
-13.532637 4.5857911 -0.49500072 0.94441617
-1.781787 0.6796875 -0.066065446 0.99239635
-1.7818261 0.70547849 -0.066390872 0.9923591
-1.6127343 0.70995116 -0.061043777 0.99297225
-1.5592871 0.70995116 -0.059354477 0.99316615
-1.5087402 0.70994139 -0.057764776 0.99334854
-1.4607714 0.70993161 -0.056266326 0.99352062
-1.3719727 0.70994139 -0.053516272 0.99383628
-1.3307323 0.70994139 -0.052251473 0.99398148
-1.2537988 0.70993161 -0.049915772 0.99424976
-1.2178613 0.70994139 -0.048835866 0.9943738
-1.1834375 0.70995116 -0.047809143 0.9944917
-1.058916 0.70994139 -0.044165723 0.99491042
-1.0350391 0.71293944 -0.043540228 0.99498236
-1.0349609 0.7322461 -0.04392067 0.99493861
-1.0347949 0.77185547 -0.04472309 0.9948464
-1.0341601 0.92332029 -0.048027761 0.9944666
-1.034043 0.94683594 -0.048571508 0.99440414
-8.2962008 7.7906442 -0.39426577 0.95547158
-7.9995704 8.1007128 -0.39440817 0.9554559
-7.8980956 8.201601 -0.39445689 0.95545059
-7.7953711 8.3012304 -0.39450622 0.95544517
-7.5862498 8.4966602 -0.39460662 0.95543408
-7.3987303 8.4992476 -0.39037725 0.95590103
-7.0271287 8.4943161 -0.38191664 0.95683587
-6.8472462 8.4919233 -0.37790927 0.95727885
-6.4984374 8.4872847 -0.37031597 0.95811898
-6.3291798 8.4850388 -0.36672008 0.95851725
-5.8402538 8.4785452 -0.35666507 0.95963132
-2.913408 4.8563867 -0.19618817 0.97758836
-4.652451 8.4627733 -0.33456129 0.96208501
-4.2425294 8.457324 -0.32778779 0.96283823
-4.1094627 8.4555569 -0.32569236 0.96307141
-3.978076 8.4538183 -0.32367244 0.963296
-3.4678416 8.4470406 -0.31633496 0.96411312
-3.2210057 8.4437599 -0.31308028 0.96447563
-2.8597264 8.4389553 -0.30868387 0.9649657
-2.6242578 8.4358301 -0.30605906 0.9652583
-2.3925977 8.4327536 -0.30366951 0.96552485
-2.2781055 8.4312305 -0.30256081 0.96564859
-2.1643944 8.4297171 -0.30150685 0.96576625
-2.0514843 8.4282227 -0.30050638 0.96587771
-1.6066601 8.4223242 -0.29703942 0.96626478
-1.4969727 8.4208689 -0.29630077 0.96634722
-1.3877929 8.419404 -0.29561293 0.96642405
-1.1708984 8.4165335 -0.29438442 0.96656114
-1.0630859 8.4150972 -0.29384536 0.96662152
-0.95564449 8.4136715 -0.29335219 0.96667647
-0.84857422 8.4122458 -0.29290703 0.96672612
-0.31703123 8.4051857 -0.29139027 0.96689552
-0.10560547 8.4023733 -0.29110861 0.96692699
0.21109374 8.3981733 -0.29103297 0.96693552
0.31667969 8.3967676 -0.29109901 0.96692812
0.52808595 8.3939648 -0.29137009 0.96689785
0.63396484 8.3925581 -0.29157436 0.96687496
0.9527539 8.3883295 -0.29246828 0.96677518
1.0594921 8.3869038 -0.29286051 0.96673143
1.1665429 8.385478 -0.29329786 0.96668243
1.2739258 8.3840523 -0.29378596 0.96662807
1.7075976 8.3782911 -0.29621941 0.96635634
1.8172461 8.3768358 -0.29695162 0.9662745
2.0382226 8.3739061 -0.29856932 0.9660939
2.2617774 8.3709373 -0.30039608 0.96589005
2.3746288 8.3694334 -0.3013894 0.96577924
2.4882226 8.3679199 -0.30243701 0.96566236
2.7178905 8.3648634 -0.30469954 0.96540993
2.8340819 8.3633204 -0.30591691 0.96527421
2.9511914 8.3617573 -0.30719241 0.965132
3.1884961 8.358613 -0.3099235 0.96482754
3.4301953 8.3554001 -0.31290326 0.96449554
3.5528319 8.3537598 -0.31448939 0.96431881
3.676748 8.3521385 -0.31614155 0.96413463
4.1862988 8.3453608 -0.32344756 0.96332121
4.3175097 8.3436232 -0.32545775 0.96309751
4.5849705 8.3400679 -0.32971123 0.96262443
4.7213769 8.3382521 -0.33195823 0.96237445
4.8596778 8.3364162 -0.33429131 0.96211523
4.9999704 8.3345604 -0.33670959 0.96184641
6.0817089 9.8547945 -0.40118122 0.95470858
6.3292966 9.7017088 -0.40130049 0.95469558
6.4516697 9.6228313 -0.40135947 0.95468903
7.048193 9.2053223 -0.40164688 0.95465732
7.3931932 8.9368353 -0.40181318 0.95463902
7.5059471 8.8444529 -0.40186751 0.95463288
7.6175094 8.7505856 -0.4019213 0.95462698
7.83707 8.5586615 -0.40202713 0.95461529
7.9449997 8.4605465 -0.40207916 0.95460975
8.1571875 8.2603416 -0.40218148 0.95459837
8.2613964 8.1582127 -0.40223169 0.95459276
8.3642673 8.0547361 -0.40228134 0.9545874
10.660664 10.011025 -0.50663507 0.94314778
11.034326 9.6055269 -0.50681525 0.94312811
11.622207 8.8986912 -0.50709885 0.94309717
1.2650195 0.84813476 -0.052763633 0.99392277
1.2654198 0.73767579 -0.050743941 0.99415469
1.3307323 0.70993161 -0.052251358 0.99398154
1.3719629 0.70994139 -0.053516082 0.99383628
1.4152637 0.70995116 -0.054852523 0.99368286
1.6127245 0.70996094 -0.061043851 0.99297225
1.6692969 0.70994139 -0.062842481 0.99276596
1.7293164 0.70994139 -0.064761311 0.99254596
1.7930957 0.70994139 -0.066811599 0.992311
1.861123 0.70993161 -0.069007151 0.99205917
1.9337401 0.70994139 -0.071363561 0.99178916
2.0123827 0.68194336 -0.073610149 0.99153179
2.0122755 0.65381837 -0.073299825 0.99156737
14.008808 4.3578806 -0.50825197 0.94297159
14.063193 4.1817384 -0.50827825 0.94296867
14.115371 4.0048828 -0.50830358 0.94296581
14.212852 3.6492381 -0.50835085 0.94296074
14.258154 3.4704883 -0.50837284 0.94295853
14.34207 3.1113575 -0.50841361 0.94295388
14.450624 2.5688477 -0.50846642 0.94294822
14.511436 2.2049999 -0.50849605 0.94294506
14.538388 2.0225389 -0.50850922 0.94294357
14.638124 1.1057812 -0.50855821 0.94293821
14.661601 0.73758787 -0.50856984 0.94293702
14.669814 0.55328125 -0.50857401 0.9429366
14.679238 0.18446289 -0.50857896 0.94293606
14.679257 -0.18448241 -0.50857931 0.942936
14.66166 -0.73760742 -0.50857145 0.94293678
14.638184 -1.105791 -0.50856054 0.94293797
14.585332 -1.6566503 -0.50853574 0.94294089
14.511621 -2.205039 -0.50850087 0.94294435
14.482305 -2.3871582 -0.50848693 0.94294614
14.416894 -2.7501757 -0.50845581 0.94294941
14.342207 -3.1113865 -0.50842029 0.94295335
14.258379 -3.4705565 -0.50838035 0.94295764
13.231953 -3.7542479 -0.47649267 0.9464379
12.596777 -3.7457128 -0.45527866 0.94876033
12.01958 -3.7391014 -0.43608192 0.95086694
2.0122948 -0.65382808 -0.073299937 0.99156725
1.8611327 -0.70995116 -0.069007449 0.99205911
1.7293261 -0.70995116 -0.064761691 0.9925459
1.6693066 -0.70994139 -0.062842824 0.99276596
1.4607812 -0.70996094 -0.056266859 0.9935205
1.4152637 -0.70996094 -0.05485275 0.9936828
1.3719727 -0.70996094 -0.053516272 0.99383622
1.2913965 -0.70996094 -0.0510532 0.99411911
1.2655078 -0.71659178 -0.050381966 0.99419618
1.2654296 -0.73769528 -0.050743826 0.99415463
1.2653711 -0.75910157 -0.051119611 0.99411148
1.265205 -0.80292964 -0.051912308 0.99402046
1.2649316 -0.87133789 -0.053212393 0.99387121
1.2647656 -0.91891599 -0.054159123 0.99376243
1.2646484 -0.94333982 -0.054658089 0.99370521
9.2335348 -7.0697947 -0.40287676 0.9545216
8.9575586 -7.4103317 -0.40274432 0.95453626
8.7664843 -7.6313477 -0.40265265 0.95454645
8.9537497 -7.9943552 -0.41583294 0.95309371
8.74792 -8.2148533 -0.41573417 0.95310473
8.6429491 -8.3231249 -0.41568375 0.95311034
8.4289846 -8.5355711 -0.41558105 0.95312166
7.8713083 -9.0421486 -0.41531324 0.95315117
7.7560544 -9.1391602 -0.4152579 0.95315713
7.6395507 -9.2346382 -0.41520193 0.95316339
7.5218749 -9.3286667 -0.41514546 0.95316952
7.4030466 -9.4211273 -0.41508839 0.9531759
7.2830663 -9.5121241 -0.41503075 0.95318216
7.161953 -9.6014938 -0.41497257 0.95318872
6.9164352 -9.7756834 -0.41485465 0.95320165
6.7920704 -9.8603907 -0.41479486 0.95320827
6.1549606 -10.259833 -0.41448879 0.953242
6.0246677 -10.334829 -0.41442618 0.9532488
5.8934178 -10.408134 -0.41436309 0.95325577
5.4944139 -10.617964 -0.41417137 0.95327681
5.3597169 -10.684458 -0.41410664 0.95328403
5.2241797 -10.749272 -0.41404146 0.9532913
4.8989649 -11.12854 -0.42123619 0.95249951
4.603828 -11.21419 -0.41996145 0.9526394
4.4557714 -11.254043 -0.41932386 0.95270962
4.3074217 -11.29186 -0.41868612 0.95278013
4.1587987 -11.327744 -0.41804335 0.95285064
4.0099707 -11.361587 -0.41740051 0.95292145
3.7117577 -11.423662 -0.41612947 0.9530623
3.5673242 -11.467481 -0.41606003 0.95306998
1.1383593 -4.0122166 -0.14448272 0.98344624
2.984668 -11.624453 -0.41577986 0.95310056
2.8378417 -11.659058 -0.41570926 0.95310843
2.5431151 -11.72268 -0.41556752 0.95312405
2.3951757 -11.751665 -0.41549635 0.95313203
2.0983789 -11.804091 -0.41535363 0.95314771
1.8004687 -11.849013 -0.41521034 0.95316344
1.6511328 -11.868657 -0.41513851 0.95317137
1.5016016 -11.88642 -0.4150666 0.95317924
1.3518847 -11.90225 -0.41499457 0.95318729
0.60133785 -11.953271 -0.41463351 0.95322692
0.45101562 -11.957803 -0.41456118 0.95323491
0.1503125 -11.961205 -0.41441652 0.95325077
0 -11.960019 -0.41434419 0.95325887
-0.45052734 -11.945278 -0.41412741 0.95328271
-0.89996094 -11.913589 -0.41391116 0.9533065
-1.1986718 -11.883096 -0.41376743 0.95332229
-1.4963769 -11.845073 -0.41362414 0.95333827
-1.6448241 -11.823316 -0.4135527 0.95334601
-1.9407324 -11.774145 -0.41341025 0.95336187
-2.0882225 -11.746855 -0.41333926 0.9533695
-2.3819335 -11.68665 -0.41319788 0.95338517
-2.6739843 -11.619208 -0.41305733 0.95340037
-2.8192968 -11.582695 -0.41298735 0.95340824
-3.628242 -11.166499 -0.40676033 0.95409423
-4.0031638 -10.903745 -0.40240729 0.9545747
-4.1258788 -10.815888 -0.40104443 0.95472473
-4.2474804 -10.727871 -0.39972606 0.95486993
-4.5043945 -10.591157 -0.39872584 0.95498037
-4.6484079 -10.559253 -0.39969411 0.95487368
-4.7927051 -10.526367 -0.40069643 0.954763
-4.9373631 -10.492412 -0.40173522 0.95464855
-5.3734961 -10.384248 -0.4050653 0.95428133
-5.519629 -10.346065 -0.40624985 0.9541508
-5.9605856 -10.224877 -0.41002682 0.95373446
-6.1084571 -10.182251 -0.41136429 0.95358717
-6.4985743 -9.9611378 -0.41204062 0.95351261
-6.626914 -9.8841991 -0.41226688 0.95348734
-7.0069141 -9.6441841 -0.41298956 0.95340824
-7.5015817 -9.3034668 -0.41403538 0.95329297
-7.6229978 -9.2146387 -0.41431132 0.95326245
-7.9815426 -8.939414 -0.4151786 0.95316708
-8.2156639 -8.7488031 -0.41578594 0.9531002
-8.3312693 -8.6514063 -0.41610011 0.95306551
-8.4458008 -8.5526075 -0.41641718 0.95303035
-8.6716604 -8.3507614 -0.41707247 0.95295829
-8.7829885 -8.2477436 -0.41741064 0.95292139
-1.0340234 -0.94685543 -0.048571508 0.99440414
-1.0341406 -0.92333007 -0.048027877 0.9944666
-1.034248 -0.90032226 -0.04750343 0.99452686
-1.0343652 -0.87782222 -0.046997603 0.99458486
-1.0344336 -0.85577148 -0.046509743 0.99464107
-1.0345312 -0.83416992 -0.046038855 0.99469513
-1.0346289 -0.81301755 -0.0455846 0.99474728
-1.0347949 -0.77187496 -0.04472328 0.99484634
-1.034873 -0.75188476 -0.044314802 0.99489331
-1.0350488 -0.71295899 -0.043540228 0.99498224
-1.0589062 -0.70996094 -0.044166107 0.99491042
-1.0882519 -0.70996094 -0.045013428 0.99481297
-1.1187109 -0.70996094 -0.045901183 0.99471098
-1.1504102 -0.70996094 -0.046832196 0.99460399
-1.1834375 -0.70996094 -0.047809601 0.9944917
-1.2178613 -0.70995116 -0.048836324 0.99437374
-1.2538183 -0.70996094 -0.049916226 0.99424964
-1.2914063 -0.70996094 -0.051053312 0.99411905
-1.4153028 -0.70995116 -0.054852903 0.99368268
-1.4608008 -0.70995116 -0.056266896 0.99352044
-1.5087206 -0.70996094 -0.057764892 0.99334854
-1.6127148 -0.70995116 -0.061044347 0.99297231
-1.6693164 -0.70995116 -0.062843129 0.9927659
-1.7293066 -0.70995116 -0.064761773 0.99254596
-1.7818261 -0.70546871 -0.066391028 0.99235916
-1.7818066 -0.67969728 -0.066065446 0.9923963
-12.117139 -3.4379394 -0.43634641 0.95083773
-13.87875 -3.3781543 -0.49484268 0.94443339
-13.99459 -2.852334 -0.49478635 0.94443965
-14.028857 -2.676162 -0.49476969 0.94444144
-14.0908 -2.3226171 -0.49473953 0.94444484
-14.118496 -2.1453125 -0.49472597 0.94444627
-14.167246 -1.7897265 -0.49470219 0.94444895
-14.223896 -1.2544433 -0.49467432 0.94445175
-14.250498 -0.89656246 -0.49466118 0.94445336
-14.260488 -0.71742183 -0.49465618 0.94445395
-14.268291 -0.5381543 -0.49465224 0.94445425
-14.277089 -0.17941406 -0.49464759 0.94445509
-13.233212 -9.7656248e-06 -0.49514964 0.94840854
-13.232178 0.16628906 -0.49514997 0.94840854
-13.223857 0.49874023 -0.49515364 0.94840837
-13.21667 0.66490233 -0.49515691 0.94840789
-13.182695 1.1625879 -0.49517271 0.9484061
-13.167197 1.3281738 -0.49518001 0.9484055
-13.149658 1.4935547 -0.4951883 0.94840479
-13.130107 1.658711 -0.4951975 0.94840384
-13.084844 1.9882324 -0.4952189 0.94840163
-13.059121 2.1525488 -0.49523112 0.9484005
-13.031377 2.3165429 -0.49524429 0.94839919
-12.969814 2.6434472 -0.49527359 0.94839621
-12.936015 2.8063281 -0.49528965 0.94839448
-12.862353 3.1307421 -0.49532476 0.94839084
-12.822471 3.2922363 -0.49534377 0.94838899
-12.780557 3.4532323 -0.49536377 0.94838715
-12.736718 3.6137402 -0.49538466 0.94838488
-12.690859 3.7736621 -0.49540657 0.94838268
-12.593223 4.0917869 -0.49545321 0.94837785
-12.541406 4.2498927 -0.49547797 0.94837552
-1.7825879 0.65446287 -0.071052894 0.99242777
-1.7827051 0.70582032 -0.071741864 0.99235463
-1.729287 0.70994139 -0.069946557 0.99254531
-1.6126952 0.70995116 -0.0659317 0.99297166
-1.5592871 0.70995116 -0.064106904 0.99316543
-1.5087011 0.70995116 -0.062389717 0.99334794
-1.4152734 0.70993161 -0.059244461 0.99368221
-1.3719823 0.70994139 -0.057801131 0.99383563
-1.3307421 0.70994139 -0.05643528 0.99398088
-1.2914063 0.70996094 -0.055140495 0.99411845
-1.2537988 0.70993161 -0.053912506 0.99424922
-1.1834179 0.70995116 -0.051637191 0.99449122
-1.1504004 0.70993161 -0.050581738 0.99460351
-1.0882324 0.70994139 -0.048617363 0.99481255
-1.0343456 0.71247071 -0.046995275 0.99498516
-1.0340918 0.77132809 -0.048271332 0.99484938
-1.0339062 0.81243163 -0.049200553 0.9947505
-1.0337012 0.85514647 -0.050198287 0.99464434
-1.0334766 0.8996582 -0.051269989 0.99453038
-1.0333691 0.92263669 -0.051835366 0.99447018
-1.0332519 0.94615233 -0.052421797 0.99440777
-7.6868749 7.2184277 -0.39455953 0.95866948
-7.5963864 7.3152537 -0.39460298 0.95866507
-7.5046778 7.4109664 -0.39464697 0.9586606
-7.4118261 7.505537 -0.39469159 0.95865595
-7.2225289 7.6911912 -0.39478248 0.95864666
-7.0286326 7.8721385 -0.39487556 0.95863706
-6.9299607 7.9607615 -0.39492294 0.95863235
-6.8302145 8.0482025 -0.39497083 0.95862734
-6.7293649 8.1343746 -0.39501926 0.95862246
-6.6274414 8.2193356 -0.3950682 0.95861739
-6.4204001 8.3853903 -0.39516765 0.9586072
-6.1631641 8.482832 -0.39233378 0.95889777
-5.6830859 8.4764643 -0.38185439 0.95997339
-5.5286326 8.4744043 -0.37860146 0.96030748
-5.3767576 8.4723921 -0.37546363 0.96062994
-5.2273827 8.4704103 -0.37243491 0.96094114
-4.935586 8.4665232 -0.36669341 0.96153158
-4.7929883 8.4646292 -0.36397353 0.96181136
-4.5139451 8.460928 -0.3588213 0.96234161
-4.3773241 8.4591112 -0.3563832 0.96259266
-4.2425389 8.457324 -0.3540349 0.9628346
-3.9780858 8.4538088 -0.34959021 0.96329242
-3.8483007 8.4520798 -0.34749275 0.96350873
-3.0994432 8.4421387 -0.33649841 0.96464252
-2.9790332 8.4405365 -0.33491537 0.9648059
-2.6242676 8.4358301 -0.33056641 0.96525484
-2.507998 8.4342871 -0.32924408 0.96539134
-2.2781153 8.4312305 -0.32678795 0.96564519
-2.1644042 8.4297266 -0.32564938 0.96576285
-2.0514941 8.4282227 -0.32456806 0.96587437
-1.8278027 8.4252539 -0.32258421 0.96607953
-1.7169043 8.423789 -0.321675 0.96617341
-1.6066699 8.4223146 -0.32082233 0.96626151
-1.3878027 8.419404 -0.31928274 0.96642077
-1.1709082 8.4165335 -0.31795821 0.9665578
-1.0630957 8.4150972 -0.31737322 0.96661824
-0.95565426 8.4136715 -0.31684098 0.9666732
-0.74178708 8.41082 -0.31593293 0.96676725
-0.63530272 8.4094143 -0.31555432 0.96680629
-0.52901363 8.4079981 -0.31522673 0.96684015
-0.31704101 8.4051857 -0.31472343 0.96689224
-0.10561523 8.4023733 -0.31441873 0.96692371
0.21110351 8.3981733 -0.3143369 0.9669323
0.74000973 8.3911524 -0.31519264 0.96684366
0.95274413 8.3883104 -0.31588733 0.96677196
1.1665332 8.385478 -0.31678417 0.96667916
1.3816894 8.382617 -0.31788731 0.96656507
1.4898926 8.3811913 -0.31851882 0.96649981
1.9274316 8.375371 -0.32157615 0.96618378
2.1496582 8.3724117 -0.3234351 0.96599162
2.2617676 8.3709373 -0.32445014 0.96588671
2.4882128 8.3679199 -0.3266542 0.96565896
2.7179003 8.3648729 -0.32909814 0.96540654
2.8340721 8.3633204 -0.3304117 0.96527082
3.1884863 8.358613 -0.33474037 0.96482408
3.5528417 8.3537788 -0.3396703 0.96431524
3.802002 8.3504686 -0.34331465 0.96393949
3.9286132 8.3487787 -0.34524697 0.96374023
4.0566993 8.3470802 -0.34725711 0.96353292
4.1863279 8.3453712 -0.34934738 0.96331751
4.4503903 8.341855 -0.35377082 0.96286166
4.5849805 8.3400784 -0.35611138 0.96262068
4.7213864 8.3382521 -0.35853949 0.96237075
4.8596873 8.3364058 -0.36105812 0.96211153
5.6277637 9.1192379 -0.40096357 0.958013
5.8567677 8.9774122 -0.4010739 0.95800167
5.9699216 8.9042969 -0.40112841 0.95799613
6.0821776 8.8297853 -0.4011825 0.95799053
6.1934571 8.7537985 -0.40123615 0.95798516
7.0479784 8.0963478 -0.40164798 0.95794284
7.2509961 7.9186034 -0.40174583 0.95793277
7.3508005 7.8277731 -0.40179396 0.95792794
7.6432614 7.5478125 -0.40193495 0.95791352
7.8323145 7.3550196 -0.40202612 0.95790416
10.208261 8.8864355 -0.50641859 0.94726622
10.320253 8.7584181 -0.50647259 0.94726062
10.430595 8.6289158 -0.50652581 0.94725525
10.539277 8.4980373 -0.50657827 0.94725001
10.646358 8.3657904 -0.50662988 0.94724464
10.751699 8.2321682 -0.50668073 0.94723958
1.2638965 0.91828126 -0.058456 0.99376607
1.2640039 0.89429688 -0.057936516 0.99382132
1.2641015 0.87074214 -0.057434883 0.99387467
1.2641895 0.84758788 -0.056950875 0.99392611
1.264375 0.80240232 -0.056032714 0.99402374
1.2646484 0.73721677 -0.054772642 0.99415767
1.2647167 0.71613282 -0.054381829 0.99419922
1.2913672 0.70992184 -0.055140685 0.99411869
1.3307226 0.70994139 -0.056435164 0.99398094
1.4607714 0.70994139 -0.060771789 0.99351996
1.5087011 0.70994139 -0.062389754 0.993348
1.6127245 0.70996094 -0.065931551 0.99297154
1.6692969 0.70994139 -0.067874297 0.99276525
1.7930957 0.70994139 -0.072161332 0.99231023
1.861123 0.70992184 -0.074532583 0.9920584
2.0146191 0.71102536 -0.079939917 0.99148482
12.957334 4.0307908 -0.5077464 0.94713157
13.101855 3.5400586 -0.50781643 0.94712448
13.145869 3.3752735 -0.50783777 0.94712228
13.227539 3.0440917 -0.50787747 0.9471184
13.365566 2.375957 -0.50794452 0.94711155
13.421797 2.039453 -0.50797194 0.94710869
13.524677 1.1927637 -0.50802237 0.94710368
13.538798 1.0227441 -0.50802934 0.9471029
13.550713 0.85252929 -0.50803524 0.94710243
13.576817 0.17060547 -0.50804853 0.947101
13.577909 -1.953125e-05 -0.50804925 0.94710088
13.576826 -0.170625 -0.50804895 0.94710094
13.568134 -0.51174802 -0.50804514 0.94710135
13.550771 -0.85253906 -0.50803709 0.94710219
13.538857 -1.0227441 -0.50803155 0.94710273
13.508534 -1.3626367 -0.50801736 0.94710404
13.490068 -1.5322363 -0.50800866 0.94710505
13.469511 -1.7016015 -0.50799888 0.947106
13.446787 -1.8706933 -0.50798815 0.94710708
13.394873 -2.2079101 -0.50796354 0.94710958
13.300938 -2.7109571 -0.50791889 0.94711423
13.265439 -2.8777928 -0.50790197 0.94711572
13.187968 -3.2100194 -0.50786507 0.94711947
13.055947 -3.7043359 -0.50780207 0.94712597
2.0143945 -0.65453124 -0.079252124 0.99155766
2.0145018 -0.68268555 -0.079588123 0.99152207
1.9337499 -0.70996094 -0.077078134 0.99178827
1.8611132 -0.70996094 -0.074533194 0.9920584
1.7931445 -0.70995116 -0.072161637 0.99231005
1.6693066 -0.70994139 -0.067874789 0.99276519
1.6127245 -0.70994139 -0.065932237 0.9929716
1.5087206 -0.70995116 -0.062390212 0.99334788
1.4607812 -0.70996094 -0.060772169 0.99351984
1.3307226 -0.70996094 -0.05643566 0.99398088
1.2913965 -0.70996094 -0.055141106 0.99411851
1.2647265 -0.71612304 -0.054381829 0.99419922
1.2645605 -0.75863278 -0.05517761 0.99411458
1.2644531 -0.7803418 -0.055597611 0.99407005
1.2643945 -0.80240232 -0.056032639 0.99402368
1.2642969 -0.82481444 -0.056483649 0.99397576
1.2641991 -0.84757811 -0.056950834 0.99392611
1.2640917 -0.87075192 -0.05743492 0.99387467
8.541914 -6.5402441 -0.4025434 0.95785111
8.4582224 -6.6463962 -0.40250328 0.95785517
8.3731833 -6.7514844 -0.40246248 0.95785934
8.2868166 -6.8554492 -0.40242103 0.95786369
8.1991501 -6.9583302 -0.40237895 0.95786798
7.9285154 -7.2600389 -0.40224907 0.95788133
7.646709 -7.5512109 -0.4021138 0.95789498
7.6976562 -7.9934669 -0.41522861 0.95655197
7.5956836 -8.0885839 -0.41517961 0.9565571
7.4925389 -8.1824121 -0.41513011 0.95656222
7.2828121 -8.3661184 -0.41502941 0.95657235
7.1762109 -8.4559278 -0.41497821 0.95657766
6.9596777 -8.6314306 -0.41487423 0.95658833
6.7388477 -8.801343 -0.41476816 0.95659924
6.3998241 -9.0455074 -0.41460529 0.95661592
6.1688671 -9.2010794 -0.41449437 0.95662701
5.8152833 -9.4231195 -0.41432449 0.95664465
5.6956248 -9.4941111 -0.41426694 0.95665061
5.5750976 -9.5636225 -0.41420904 0.95665646
5.453711 -9.6315575 -0.41415071 0.95666248
5.3315039 -9.6979542 -0.414092 0.95666844
4.9600587 -9.8877735 -0.41391349 0.95668662
4.9214454 -10.126362 -0.42128012 0.95593315
4.7872071 -10.173374 -0.42070287 0.95599246
4.517539 -10.262055 -0.41953808 0.95611125
4.3821387 -10.303686 -0.41895539 0.95617086
3.9739256 -10.417559 -0.4171966 0.95635092
3.8372655 -10.45188 -0.41660842 0.9564113
3.7012303 -10.486879 -0.41612342 0.95646161
3.4354882 -10.573339 -0.41599563 0.95647466
1.1383691 -4.012207 -0.15605102 0.98344463
2.8981249 -10.725971 -0.41573727 0.95650089
2.7626562 -10.759868 -0.41567209 0.95650756
2.4906054 -10.822475 -0.41554129 0.95652097
2.3540528 -10.851211 -0.41547564 0.95652765
2.2171581 -10.878169 -0.4154098 0.95653456
1.9424707 -10.927002 -0.41527766 0.95654798
1.528496 -10.987163 -0.41507858 0.95656842
1.3901172 -11.003736 -0.415012 0.95657521
1.2515038 -11.018574 -0.41494533 0.95658207
0.97389644 -11.043013 -0.41481182 0.9565956
0.55673826 -11.066504 -0.41461113 0.95661622
0.27835938 -11.073383 -0.4144772 0.95663005
9.7656248e-06 -11.073344 -0.41434324 0.95664358
-0.13914062 -11.070659 -0.4142763 0.95665056
-0.27820313 -11.066284 -0.4142094 0.95665723
-0.41714844 -11.060117 -0.41414011 0.95666414
-0.69475585 -11.042583 -0.41400898 0.95667779
-0.83331054 -11.031201 -0.41393983 0.95668459
-1.1099023 -11.003227 -0.41380918 0.9566983
-1.2478808 -10.986665 -0.41374278 0.95670503
-1.385625 -10.968374 -0.41367647 0.95671171
-1.660293 -10.926567 -0.4135443 0.95672536
-1.9337305 -10.87793 -0.41341266 0.95673883
-2.0699511 -10.85102 -0.41334713 0.95674568
-2.3412402 -10.792188 -0.41321653 0.95675898
-2.4763086 -10.760239 -0.4131515 0.95676553
-2.610908 -10.726562 -0.41308668 0.95677227
-2.8787401 -10.654238 -0.41295776 0.95678544
-3.0119336 -10.615585 -0.41289365 0.95679194
-3.4082909 -10.489653 -0.41270283 0.95681161
-3.5393262 -10.444419 -0.41263974 0.95681792
-3.7994921 -10.349052 -0.41251445 0.95683074
-3.9286621 -10.298911 -0.41244978 0.95683718
-4.057158 -10.247202 -0.41239035 0.9568435
-4.1854296 -10.194995 -0.41237253 0.95684522
-4.4430661 -10.092841 -0.41262689 0.95681906
-4.5710545 -10.039556 -0.41276544 0.95680499
-4.8253126 -9.9284906 -0.4130556 0.95677531
-4.9515333 -9.8707905 -0.41320965 0.95675939
-5.2021289 -9.7509375 -0.41353816 0.95672596
-5.573164 -9.5602875 -0.41407478 0.95667124
-5.6954684 -9.4938478 -0.41426244 0.95665181
-6.0580955 -9.2859955 -0.41486904 0.95658982
-6.1774802 -9.2138815 -0.41508251 0.95656794
-6.4139647 -9.0654688 -0.41552764 0.95652229
-6.5309863 -8.9891357 -0.41575935 0.95649874
-6.6472263 -8.9114599 -0.41599387 0.95647436
-7.2156248 -8.5023432 -0.41726536 0.95634449
-7.326582 -8.4164209 -0.41753659 0.95631707
-7.436738 -8.3292332 -0.41781309 0.95628858
-7.6541209 -8.1508102 -0.41838336 0.95623034
-7.793828 -8.0933447 -0.42042667 0.95602125
-7.4150977 -7.5088768 -0.39486709 0.95863801
-7.6902733 -7.2216406 -0.39473438 0.95865154
-1.0333788 -0.92264646 -0.051835477 0.99447012
-1.033711 -0.85516602 -0.050198134 0.99464428
-1.0338086 -0.83358395 -0.049690399 0.99469835
-1.0339062 -0.81245112 -0.049200516 0.99475044
-1.0340136 -0.79169923 -0.048727646 0.99480075
-1.0340918 -0.77134764 -0.048271369 0.99484932
-1.0589062 -0.70996094 -0.047702789 0.99490988
-1.0882519 -0.70996094 -0.048617706 0.99481243
-1.1504102 -0.70995116 -0.050582044 0.99460346
-1.1834375 -0.70996094 -0.051637724 0.9944911
-1.5593164 -0.70995116 -0.064107247 0.99316537
-1.6127148 -0.70995116 -0.065932199 0.9929716
-1.7826953 -0.70582032 -0.071741983 0.99235463
-9.9209375 -3.5014942 -0.39365718 0.95876211
-12.112285 -3.4365528 -0.47109699 0.95085216
-12.690381 -3.4288867 -0.49186736 0.94874179
-12.822637 -3.2923045 -0.49535072 0.94838828
-12.900312 -2.9687891 -0.49531299 0.94839221
-13.031543 -2.316582 -0.49524915 0.94839859
-13.084931 -1.9882519 -0.4952231 0.94840127
-13.108603 -1.8236327 -0.49521154 0.94840235
-13.182675 -1.1625977 -0.49517521 0.94840616
-13.196084 -0.99684566 -0.4951686 0.94840682
-13.207402 -0.83092773 -0.49516296 0.94840741
-13.216699 -0.66490233 -0.49515828 0.94840783
-13.223896 -0.49876952 -0.49515468 0.94840825
-12.33044 -0 -0.49558401 0.95183688
-12.329512 0.15493163 -0.49558428 0.95183671
-12.321816 0.46473631 -0.49558768 0.95183641
-12.315048 0.61954099 -0.49559075 0.95183623
-12.2833 1.0832813 -0.49560553 0.95183486
-12.252568 1.3916601 -0.49561998 0.95183343
-12.234365 1.5455567 -0.49562857 0.95183247
-12.142304 2.1584864 -0.49567223 0.95182842
-12.019912 2.7661815 -0.49573046 0.95182294
-11.984629 2.9170897 -0.4957473 0.95182133
-11.947441 3.0675781 -0.495765 0.95181966
-11.86751 3.3671093 -0.49580315 0.95181596
-11.824756 3.5161133 -0.49582353 0.951814
-11.68537 3.9598241 -0.49589014 0.9518078
-11.635224 4.1065331 -0.4959141 0.95180565
-1.7834375 0.65475583 -0.076357916 0.99242342
-1.7835058 0.68032223 -0.076720312 0.99238753
-1.7293066 0.70993161 -0.075133324 0.99254447
-1.6692969 0.70994139 -0.072907522 0.99276447
-1.6126952 0.70995116 -0.070820384 0.99297094
-1.5087011 0.70995116 -0.067016177 0.99334729
-1.4607714 0.70993161 -0.065278016 0.99351925
-1.4152539 0.70993161 -0.06363754 0.99368161
-1.3307421 0.70994139 -0.060620155 0.99398023
-1.2537988 0.70993161 -0.05791023 0.99424857
-1.2178711 0.70994139 -0.056657448 0.99437261
-1.1834179 0.70995116 -0.055466231 0.99449062
-1.1504102 0.70994139 -0.054332502 0.99460292
-1.1187011 0.70994139 -0.053252373 0.99470991
-1.0882324 0.70994139 -0.052222479 0.99481195
-1.058916 0.70993161 -0.051239319 0.99490941
-1.0335742 0.73125976 -0.05088684 0.99494433
-1.0331836 0.81186521 -0.052812193 0.9947536
-1.0329492 0.854541 -0.053882256 0.99464762
-1.0328711 0.87654293 -0.05444679 0.99459159
-1.0327246 0.89901364 -0.055031698 0.99453372
-7.1608105 6.7244625 -0.39481318 0.9614386
-7.0764842 6.8146091 -0.39485365 0.96143466
-6.9044333 6.9917188 -0.39493623 0.96142685
-6.8167381 7.078701 -0.39497837 0.96142286
-6.7279978 7.1645994 -0.39502093 0.96141863
-6.2683396 7.5771189 -0.39524165 0.96139759
-5.9804001 7.8107224 -0.39537993 0.96138436
-5.8824706 7.8861914 -0.39542702 0.96137989
-5.7835937 7.9604492 -0.39547446 0.96137536
-5.481504 8.1757908 -0.3956196 0.96136129
-2.9134374 4.8564548 -0.22761601 0.97758347
-4.7929883 8.4646292 -0.39096323 0.96180737
-3.9780858 8.4538088 -0.3755132 0.96328855
-3.4678514 8.447031 -0.36699951 0.96410584
-3.2210155 8.4437494 -0.36322352 0.96446842
-3.0994334 8.4421387 -0.36145049 0.96463883
-2.9790235 8.4405365 -0.35975033 0.96480215
-2.6242578 8.4358301 -0.35507891 0.96525121
-2.5079882 8.4342871 -0.35365862 0.9653877
-2.1644139 8.4297171 -0.34979525 0.96575922
-2.0514843 8.4282227 -0.34863573 0.9658708
-1.9392968 8.4267282 -0.34753886 0.96597636
-1.8277735 8.4252443 -0.34650359 0.96607602
-1.6066797 8.4223146 -0.34461233 0.96625793
-1.4969531 8.4208593 -0.34375536 0.96634036
-1.3878125 8.4194136 -0.34295836 0.96641719
-1.2791308 8.4179688 -0.34221786 0.96648848
-1.1708887 8.416523 -0.34153408 0.96655434
-1.0630957 8.4150877 -0.34090668 0.96661472
-0.95565426 8.4136715 -0.34033549 0.96666968
-0.84858394 8.4122362 -0.33981934 0.96671939
-0.31702149 8.4051857 -0.33805972 0.96688879
-0.10561523 8.4023733 -0.33773392 0.9669202
-2.9296874e-05 8.4009762 -0.33765045 0.96692818
0.10553711 8.39956 -0.33762148 0.9669311
0.21110351 8.3981638 -0.33764496 0.96692884
0.63397461 8.3925486 -0.33827323 0.96686828
0.95274413 8.38832 -0.33931017 0.96676844
1.381709 8.382617 -0.34145966 0.9665615
1.9274218 8.375371 -0.3454209 0.96618021
2.0382226 8.3738966 -0.34638858 0.96608704
2.2617579 8.3709278 -0.34850791 0.96588314
2.3746092 8.3694239 -0.34966031 0.96577233
2.488203 8.3679104 -0.35087544 0.96565539
3.0693164 8.3602047 -0.35794109 0.96497601
3.3087499 8.3570013 -0.36125293 0.9646579
3.8019922 8.3504591 -0.36877105 0.96393573
4.0567188 8.3470802 -0.37300721 0.96352905
4.5849609 8.3400583 -0.38251686 0.96261686
4.7213864 8.3382521 -0.38512519 0.96236682
4.8596873 8.3364258 -0.3878305 0.96210748
4.9999804 8.3345509 -0.39063597 0.96183866
5.3437595 8.4203711 -0.40082768 0.9608627
5.555068 8.2855177 -0.40092948 0.96085304
5.6594334 8.2160645 -0.40097976 0.96084833
5.7629786 8.1453419 -0.40102965 0.96084338
5.8655763 8.0732718 -0.40107912 0.96083874
6.1679392 7.8493261 -0.40122482 0.96082473
6.4616599 7.613945 -0.40136641 0.96081132
6.5575876 7.5330272 -0.40141264 0.96080679
6.9308982 7.1972461 -0.40159258 0.96078962
7.0215721 7.1103516 -0.4016363 0.96078545
7.1995897 6.9331346 -0.40172213 0.96077716
7.2868943 6.8428416 -0.40176424 0.96077317
7.3730664 6.7514257 -0.40180579 0.96076924
7.4580855 6.658916 -0.4018468 0.9607653
9.4971676 8.2674217 -0.50607711 0.95084256
9.8049116 7.9059081 -0.50622553 0.95082849
10.002382 7.6584568 -0.50632077 0.95081943
1.2629199 0.94204098 -0.063325539 0.99371248
1.2630371 0.91765624 -0.062748261 0.99376965
1.2632715 0.87017578 -0.061652716 0.99387801
1.2633593 0.84703124 -0.06113369 0.99392945
1.2634473 0.82427734 -0.060632322 0.9939791
1.26375 0.75812501 -0.059231337 0.9941178
1.263828 0.73675781 -0.058796994 0.99416077
1.263916 0.7156738 -0.058377571 0.99420232
1.2913867 0.70994139 -0.059229504 0.99411792
1.3719823 0.70995116 -0.062087171 0.99383497
1.4152539 0.70995116 -0.063637465 0.99368155
1.5592871 0.70995116 -0.068860471 0.99316472
1.6127245 0.70996094 -0.070820466 0.99297082
1.7930957 0.70993161 -0.077511974 0.99230939
1.861123 0.70992184 -0.08005932 0.99205756
1.9337207 0.70993161 -0.082793385 0.99178755
2.0167675 0.7117871 -0.085958444 0.99147487
2.0166113 0.6833691 -0.085579835 0.99151236
12.099238 3.5977342 -0.50733399 0.95072353
12.186855 3.2928319 -0.50737649 0.95071948
12.266669 2.9857519 -0.50741518 0.9507159
12.303672 2.8314843 -0.50743318 0.95071411
12.338701 2.6767383 -0.50745016 0.9507125
12.371699 2.5215333 -0.50746626 0.95071119
12.402793 2.3659375 -0.5074814 0.9507097
12.459003 2.0536425 -0.5075087 0.95070708
12.484189 1.8969727 -0.50752103 0.95070571
12.613095 0.63453126 -0.50758439 0.95069975
12.620127 0.47599608 -0.50758791 0.95069957
12.625185 0.31736326 -0.50759053 0.95069927
12.628232 0.15870117 -0.50759214 0.95069909
12.629218 -9.7656248e-06 -0.5075928 0.95069909
12.625224 -0.31738281 -0.50759125 0.95069915
12.613095 -0.63455075 -0.50758576 0.95069975
12.604023 -0.79297853 -0.50758153 0.95070016
12.547626 -1.4251856 -0.50755507 0.95070261
12.528496 -1.5827343 -0.50754601 0.95070344
12.507402 -1.74 -0.50753605 0.95070428
12.484258 -1.8969921 -0.50752509 0.95070541
12.459111 -2.0536718 -0.50751317 0.95070666
12.402939 -2.3660059 -0.50748646 0.9507091
12.371865 -2.5216014 -0.50747168 0.95071048
12.303789 -2.8315136 -0.50743926 0.95071363
12.22792 -3.1396093 -0.50740308 0.95071691
12.144189 -3.4456346 -0.50736314 0.95072073
12.099433 -3.5978124 -0.50734174 0.95072269
12.01958 -3.7391014 -0.50592655 0.95085698
2.016494 -0.65521485 -0.085218161 0.991548
2.0167675 -0.7118066 -0.085958481 0.99147487
1.8611132 -0.70996094 -0.0800597 0.99205756
1.7931249 -0.70997071 -0.077512741 0.99230927
1.5592871 -0.70995116 -0.068860777 0.99316472
1.4608008 -0.70996094 -0.065278396 0.99351913
1.3719823 -0.70995116 -0.062087819 0.99383497
1.2913965 -0.70995116 -0.059230004 0.99411786
1.2637304 -0.75813472 -0.059231412 0.9941178
1.2636621 -0.77984375 -0.059681851 0.99407315
1.2635742 -0.80188477 -0.060148656 0.9940269
1.2633789 -0.84703124 -0.061133306 0.99392939
1.2629297 -0.94206053 -0.063325763 0.99371243
7.9465818 -6.0844336 -0.40225649 0.96072602
7.8687496 -6.1832223 -0.40221915 0.96072966
7.7896972 -6.2810154 -0.40218124 0.96073329
7.202734 -6.9362106 -0.40189955 0.96076024
7.0247169 -7.1135349 -0.40181407 0.96076822
6.8421679 -7.2861814 -0.40172639 0.96077693
6.6554489 -7.4541793 -0.40163675 0.96078539
6.5605078 -7.5363574 -0.40159118 0.9607898
6.3734179 -8.1108303 -0.41459164 0.95954639
6.1660743 -8.2664499 -0.41449201 0.95955592
5.8479881 -8.4898338 -0.41433921 0.95957053
5.7401366 -8.5615911 -0.41428742 0.95957541
5.2999997 -8.8346291 -0.41407591 0.9595958
4.688086 -9.3456297 -0.42022952 0.9590078
4.4404588 -9.4364643 -0.4191632 0.95910972
4.3159962 -9.4793987 -0.41862482 0.95916092
4.1911621 -9.5206251 -0.41808632 0.9592123
3.9403808 -9.5980663 -0.4170087 0.95931554
3.5676172 -9.7173977 -0.4160583 0.95940703
3.3213282 -9.8011761 -0.4159399 0.95941842
3.0731053 -9.878706 -0.41582054 0.95942986
2.5713866 -10.014829 -0.41557929 0.95945287
2.318203 -10.073305 -0.41545752 0.95946461
2.0637305 -10.12544 -0.41533518 0.95947617
1.9360546 -10.149038 -0.41527379 0.95948213
1.8080664 -10.171044 -0.41521221 0.95948809
1.6799023 -10.191464 -0.41515055 0.95949388
1.2939843 -10.242993 -0.41496494 0.95951152
1.1649804 -10.256894 -0.4149029 0.95951754
1.0358593 -10.269189 -0.41484082 0.95952344
0.51828122 -10.30209 -0.41459179 0.95954716
0.38872069 -10.306196 -0.41452944 0.9595533
0.12957031 -10.309614 -0.41440478 0.95956522
1.953125e-05 -10.308916 -0.41434246 0.959571
-0.12950195 -10.306528 -0.41428012 0.95957708
-0.38835937 -10.296968 -0.41415557 0.95958877
-0.51763672 -10.289658 -0.41409338 0.95959502
-0.90469724 -10.258252 -0.41390711 0.95961267
-1.161875 -10.229218 -0.41378337 0.95962447
-1.2901269 -10.212285 -0.41372162 0.95963043
-1.6733594 -10.151855 -0.41353717 0.95964813
-2.4327147 -9.9945211 -0.41343534 0.95965779
-2.687578 -9.9467573 -0.41412321 0.95959198
-2.9375877 -9.8791409 -0.41425186 0.95957977
-3.062041 -9.8431635 -0.41432381 0.95957285
-3.1860936 -9.805727 -0.41440079 0.95956546
-3.3097069 -9.7668896 -0.41448531 0.95955747
-3.4329295 -9.7266254 -0.41457492 0.95954895
-3.7998242 -9.5972996 -0.41487429 0.95952016
-4.0420508 -9.5040379 -0.41510436 0.95949823
-4.1623926 -9.4553223 -0.41522709 0.95948637
-4.7558985 -9.190752 -0.41592756 0.95941949
-4.8728318 -9.1336966 -0.41608608 0.95940459
-5.4480958 -8.8281097 -0.41695154 0.9593215
-5.6734762 -8.6964598 -0.41733858 0.9592846
-6.2241015 -8.3441896 -0.41840145 0.95918339
-6.3319335 -8.2698488 -0.41862777 0.95916146
-6.4389257 -8.1942043 -0.41886431 0.95913917
-6.3651562 -7.5002246 -0.39537224 0.96138513
-6.4581637 -7.418828 -0.39532736 0.96138936
-6.6411133 -7.2525778 -0.3952392 0.96139771
-6.7309961 -7.1677732 -0.39519587 0.96140182
-6.9074802 -6.9948535 -0.39511076 0.96141005
-1.0325097 -0.94543946 -0.056267355 0.99441123
-1.0326172 -0.92197263 -0.055638503 0.99447358
-1.0327538 -0.89902341 -0.055031851 0.9945336
-1.0328614 -0.8765527 -0.054446716 0.99459159
-1.0329688 -0.85455078 -0.053882025 0.99464756
-1.0330859 -0.83299804 -0.053337667 0.99470145
-1.0332714 -0.79116207 -0.052304801 0.99480385
-1.0333788 -0.77083004 -0.051815338 0.9948523
-1.033496 -0.75087887 -0.051342964 0.99489903
-1.0589062 -0.70996094 -0.051240005 0.99490935
-1.3720019 -0.70995116 -0.062087819 0.99383485
-1.5087206 -0.70997071 -0.067016445 0.99334717
-1.6127148 -0.70995116 -0.070821263 0.99297088
-1.7835253 -0.68035156 -0.076720275 0.99238741
-9.8385057 -3.4724023 -0.41933304 0.95909333
-10.221972 -3.4639256 -0.43378776 0.95771348
-11.090742 -3.4501269 -0.46682671 0.95456696
-11.580928 -3.4436231 -0.48559943 0.95278376
-11.947627 -3.0676367 -0.49577147 0.95181888
-11.984804 -2.9171484 -0.49575338 0.95182061
-12.020048 -2.7662108 -0.4957363 0.9518224
-12.085029 -2.4631152 -0.49570471 0.95182532
-12.142422 -2.1585157 -0.49567676 0.95182794
-12.234443 -1.5455761 -0.49563184 0.95183218
-12.252686 -1.3916796 -0.4956229 0.95183301
-12.283379 -1.0832909 -0.49560779 0.95183456
-12.321836 -0.46473631 -0.49558863 0.95183629
-12.32665 -0.30985349 -0.49558616 0.95183653
-11.539268 0.29006836 -0.49596435 0.95483738
-11.528447 0.57997072 -0.49596927 0.95483691
-11.52037 0.72478515 -0.49597296 0.95483649
-11.5104 0.86951172 -0.49597761 0.95483631
-11.469932 1.3027734 -0.49599662 0.9548344
-11.452842 1.4468261 -0.4960047 0.95483369
-11.433955 1.5906445 -0.49601364 0.95483297
-11.413281 1.7342383 -0.49602345 0.95483208
-11.366631 2.0206053 -0.49604556 0.95483005
-11.340586 2.1633301 -0.49605796 0.9548291
-11.251953 2.5894432 -0.49610016 0.95482528
-11.109189 3.151953 -0.49616823 0.95481914
-11.027324 3.4303906 -0.49620733 0.95481575
-10.983848 3.5688672 -0.4962281 0.95481372
-10.938535 3.7067578 -0.49624974 0.95481205
-1.6692969 0.70994139 -0.077941395 0.99276364
-1.6127343 0.70994139 -0.075710677 0.99296999
-1.5592871 0.70994139 -0.073615186 0.99316394
-1.4152539 0.70993161 -0.06803184 0.99368089
-1.3719823 0.70994139 -0.06637428 0.99383426
-1.3307421 0.70994139 -0.064805642 0.99397951
-1.2914063 0.70996094 -0.06331905 0.99411714
-1.2537988 0.70993161 -0.061908875 0.99424791
-1.1834179 0.70995116 -0.059296113 0.99448997
-1.1504102 0.70994139 -0.058083877 0.99460226
-1.1187011 0.70995116 -0.056929436 0.99470931
-1.0882324 0.70994139 -0.055828206 0.99481136
-1.058916 0.70994139 -0.054777298 0.99490875
-1.0328711 0.73078126 -0.054364089 0.99494714
-1.0327832 0.75036132 -0.054850958 0.99490196
-1.0326855 0.77030271 -0.055355377 0.99485517
-1.0323731 0.83241206 -0.056980591 0.99470454
-1.0319922 0.89836913 -0.058789022 0.994537
-1.031875 0.92128903 -0.059436452 0.99447697
-1.0317285 0.9447363 -0.060108069 0.99441481
-6.3798728 6.6250486 -0.39518902 0.96384579
-6.2126465 6.7846484 -0.3952693 0.96383858
-5.9543848 7.0161815 -0.39539331 0.96382743
-5.8663669 7.0912204 -0.3954356 0.96382368
-5.6875486 7.2379785 -0.39552146 0.96381593
-5.5967479 7.3096581 -0.39556506 0.96381211
-5.5050778 7.3802438 -0.39560908 0.96380812
-5.2247849 7.5850582 -0.39574376 0.96379602
-4.8393259 7.84166 -0.39592892 0.96377945
-4.5419922 8.0213861 -0.39607176 0.96376652
-4.4413671 8.0788088 -0.39612013 0.96376222
-4.3400192 8.1349802 -0.39616886 0.96375787
-4.0318456 8.2958784 -0.39631695 0.96374458
-3.8230662 8.396719 -0.39641729 0.96373546
-3.7177148 8.4451466 -0.39646792 0.96373105
-3.5932422 8.4487009 -0.39448309 0.96390921
-3.4678514 8.447031 -0.39233822 0.96410179
-3.2209959 8.4437494 -0.38830361 0.96446443
-3.0994334 8.4421387 -0.38640738 0.96463484
-2.9790235 8.4405365 -0.38459083 0.96479821
-2.3926172 8.4327536 -0.37663186 0.96551389
-2.1644139 8.4297171 -0.37394816 0.96575534
-1.8277735 8.4252443 -0.37042838 0.9660722
-1.6066797 8.4223042 -0.36840767 0.96625417
-1.4969921 8.4208393 -0.36749163 0.96633661
-1.2791406 8.4179487 -0.36584678 0.96648479
-1.1708984 8.4165134 -0.36511496 0.96655059
-0.84859371 8.4122267 -0.36328372 0.96671563
-0.6352734 8.4094038 -0.36235726 0.96679908
-0.42294919 8.4065819 -0.36166245 0.96686161
-0.21126953 8.4037695 -0.36119926 0.96690339
0.10552734 8.3995504 -0.3609331 0.96692741
0.21109374 8.3981543 -0.36095786 0.96692508
0.31667969 8.3967476 -0.36104101 0.96691769
0.42234373 8.3953514 -0.36117995 0.96690512
0.74000001 8.3911324 -0.36194161 0.96683651
1.0594921 8.3868847 -0.36322433 0.966721
1.4898828 8.3811712 -0.36576015 0.96649253
1.5984765 8.3797169 -0.36654541 0.96642196
1.7076172 8.3782711 -0.36739078 0.96634573
1.9274218 8.375351 -0.36927199 0.96617645
2.0382226 8.3738861 -0.37030533 0.96608323
2.1496484 8.3724117 -0.3714056 0.96598423
2.2617579 8.3709173 -0.37257206 0.96587932
2.3746092 8.3694334 -0.37380409 0.9657684
2.602617 8.366396 -0.37647209 0.96552837
2.7178905 8.3648634 -0.37790966 0.96539903
2.9511914 8.3617678 -0.38100123 0.96512097
3.3087695 8.3570213 -0.38619593 0.96465379
3.4301953 8.3554096 -0.38808405 0.96448421
3.8019922 8.3504686 -0.39423445 0.96393162
3.9286132 8.3487787 -0.39645374 0.9637323
4.177002 8.3267279 -0.40026641 0.96338987
4.2818456 8.2746191 -0.40031692 0.9633854
4.4895506 8.1664553 -0.40041697 0.9633764
4.6945019 8.0530176 -0.40051571 0.96336764
4.8965917 7.9344234 -0.40061304 0.96335888
4.9965134 7.8732324 -0.4006612 0.96335447
5.095664 7.8107419 -0.40070894 0.96335024
5.1940231 7.7470407 -0.40075636 0.96334589
5.38833 7.6158199 -0.40084997 0.96333754
5.4842286 7.5483885 -0.40089622 0.96333337
5.766777 7.3388281 -0.40103236 0.96332115
5.8592091 7.2665625 -0.40107688 0.96331722
6.0412793 7.1186032 -0.40116465 0.96330929
6.1309376 7.0428905 -0.40120786 0.96330535
6.3073044 6.8880367 -0.40129292 0.96329778
6.394033 6.8089452 -0.4013347 0.96329403
6.4797654 6.7287498 -0.40137604 0.96329033
6.6481442 6.5651269 -0.40145725 0.96328306
6.7307811 6.481709 -0.40149707 0.96327949
6.8929005 6.311748 -0.40157524 0.96327239
8.9758101 7.6174412 -0.50582695 0.9539603
9.2590628 7.2756934 -0.50596356 0.95394802
9.3505564 7.1593652 -0.50600773 0.95394427
1.2620801 0.94140625 -0.067651935 0.99371594
1.2623144 0.89310545 -0.066440351 0.99382818
1.2624316 0.86958981 -0.065866008 0.99388134
1.262666 0.82374024 -0.06477657 0.9939822
1.2628515 0.77934569 -0.063761674 0.99407625
1.2631152 0.71522456 -0.062369268 0.9942053
1.2913867 0.70994139 -0.063319087 0.99411726
1.3307226 0.70994139 -0.064805605 0.99397957
1.4152539 0.70994139 -0.068031617 0.99368083
1.7292968 0.70992184 -0.080321237 0.99254364
1.9337305 0.70994139 -0.088509634 0.9917866
2.0187597 0.68409181 -0.091585465 0.99150234
2.0186327 0.6558789 -0.091198117 0.99153811
11.265664 3.5045507 -0.50693303 0.95386201
11.429296 2.9345508 -0.50701237 0.95385498
11.53292 2.5019238 -0.50706267 0.95385057
11.592852 2.2114551 -0.50709182 0.95384783
11.620019 2.0656445 -0.50710505 0.95384669
11.789199 0.59308594 -0.50718802 0.95383936
11.79583 0.44489256 -0.50719136 0.95383894
11.803369 0.14833984 -0.50719529 0.95383865
11.7958 -0.44491211 -0.50719231 0.95383906
11.780781 -0.74118161 -0.5071854 0.95383948
11.77041 -0.88916016 -0.50718057 0.95383996
11.758154 -1.0369922 -0.50717485 0.95384055
11.710185 -1.4793359 -0.5071522 0.95384264
11.668877 -1.7731054 -0.50713265 0.95384431
11.563954 -2.3569336 -0.50708276 0.95384854
11.465791 -2.7908494 -0.50703603 0.95385295
11.429462 -2.9345899 -0.50701869 0.95385432
11.265849 -3.5046191 -0.5069406 0.95386124
1.7293066 -0.70997071 -0.080321617 0.99254352
1.6692871 -0.70997071 -0.077942163 0.99276364
1.612705 -0.70997071 -0.075711288 0.99297005
1.4608008 -0.70996094 -0.069785841 0.99351835
1.3719823 -0.70995116 -0.066374622 0.99383426
1.3307226 -0.70996094 -0.064806096 0.99397957
1.2913965 -0.70995116 -0.063319586 0.9941172
1.2631152 -0.71522456 -0.062369421 0.9942053
1.2630371 -0.73627931 -0.062816769 0.99416381
1.262832 -0.77934569 -0.063761555 0.99407631
1.262539 -0.84647459 -0.065311544 0.99393272
1.2621875 -0.917041 -0.067035481 0.9937731
1.2620703 -0.94140625 -0.06765198 0.993716
7.3560157 -5.7803125 -0.40197203 0.96323681
7.2071581 -5.962275 -0.40190062 0.96324319
7.1310058 -6.0518165 -0.40186408 0.96324652
6.8959274 -6.3145313 -0.40175125 0.96325654
6.8153515 -6.4000683 -0.4017126 0.96326011
6.6510839 -6.568037 -0.40163374 0.96326709
6.4826169 -6.7317381 -0.40155283 0.96327436
6.3100681 -6.8910937 -0.40147004 0.96328193
6.2223339 -6.969111 -0.40142787 0.96328568
6.1336231 -7.0460057 -0.40138525 0.9632895
6.0439649 -7.1217771 -0.40134224 0.96329325
5.8618164 -7.269834 -0.40125471 0.96330106
5.7693357 -7.3420701 -0.40121031 0.96330523
5.5817575 -7.4830661 -0.40112022 0.96331328
5.3907127 -7.6192183 -0.40102842 0.96332157
5.2654295 -8.0709858 -0.41405848 0.96215254
5.0597262 -8.1987886 -0.41395968 0.96216142
4.8632226 -8.5887547 -0.42408738 0.961254
4.2571483 -8.759531 -0.41846392 0.96175754
4.1404686 -8.7989845 -0.41783163 0.96181434
4.024785 -8.8397512 -0.4173317 0.96185905
3.450664 -9.0458641 -0.41600132 0.96197921
3.2214258 -9.1273193 -0.41589111 0.96198905
3.106035 -9.165864 -0.41583565 0.96199399
2.8739257 -9.2385302 -0.41572407 0.96200407
1.1383399 -4.0121775 -0.17919584 0.98344111
2.2866504 -9.3943844 -0.41544166 0.96202928
2.0492773 -9.4462738 -0.41532749 0.96203959
1.6910547 -9.5128412 -0.4151552 0.96205509
1.4510839 -9.5496674 -0.41503978 0.96206546
1.3307714 -9.5658445 -0.4149819 0.96207052
1.2103125 -9.5804443 -0.41492397 0.96207583
0.84796876 -9.6152344 -0.41474971 0.96209139
0.60591793 -9.6307859 -0.41463324 0.96210188
0.48478514 -9.6362982 -0.41457495 0.96210706
0.36361328 -9.6402588 -0.41451666 0.96211231
0.24241211 -9.6427441 -0.41445839 0.96211743
-0.12115234 -9.6409369 -0.41428101 0.96213317
-0.24226563 -9.6373196 -0.41422516 0.96213835
-0.363291 -9.6321535 -0.41416693 0.9621436
-0.48422849 -9.6254683 -0.41410872 0.96214885
-0.72577149 -9.6075439 -0.41399252 0.96215934
-0.84630859 -9.5963278 -0.4139345 0.96216452
-0.96669918 -9.5835838 -0.41387656 0.96216971
-1.4461914 -9.5175924 -0.4136458 0.96219045
-1.5654687 -9.4973726 -0.4135884 0.96219552
-1.6844434 -9.4756098 -0.41353109 0.96220076
-2.0395508 -9.4015083 -0.41336021 0.96221602
-2.3923047 -9.3173923 -0.41333443 0.96221828
-2.5116503 -9.2956591 -0.41373596 0.9621821
-2.7497852 -9.2474852 -0.41453934 0.96211022
-2.8685448 -9.221118 -0.41493869 0.96207428
-3.1053123 -9.1637106 -0.41574022 0.96200275
-3.2233202 -9.13272 -0.41613755 0.96196699
-3.340996 -9.1001759 -0.41653255 0.96193141
-3.6883006 -8.984087 -0.4172906 0.96186352
-4.0276661 -8.8460741 -0.41763988 0.96183228
-4.1397462 -8.7974606 -0.41776657 0.96182084
-4.251338 -8.74751 -0.41789836 0.96180898
-4.4728122 -8.6437159 -0.41818231 0.96178383
-4.8007421 -8.4783449 -0.41864207 0.9617424
-4.9088087 -8.4206295 -0.4188073 0.9617278
-5.0162497 -8.36166 -0.41897768 0.9617126
-5.229238 -8.2399559 -0.41933161 0.96168071
-5.3347068 -8.1772022 -0.41951519 0.96166414
-5.4459276 -8.1227293 -0.42019892 0.96160287
-5.5595312 -8.0710745 -0.42110857 0.96152151
-5.5075388 -7.3835449 -0.39578477 0.9637922
-5.6900582 -7.2411914 -0.39569676 0.96380019
-5.7799997 -7.1683493 -0.3956534 0.96380395
-5.8689647 -7.0943747 -0.39561048 0.96380788
-5.9570117 -7.0192871 -0.3955681 0.96381176
-6.0440917 -6.9431348 -0.39552611 0.96381557
-6.299541 -6.7083106 -0.39540294 0.9638266
-6.3826852 -6.6279588 -0.39536288 0.96383017
-6.4648242 -6.5465918 -0.39532325 0.96383369
-6.545908 -6.46417 -0.39528415 0.96383733
-6.7050095 -6.2964063 -0.39520743 0.96384418
-1.0317187 -0.94474608 -0.060107801 0.99441481
-1.0323535 -0.83241206 -0.056980629 0.9947046
-1.0325781 -0.79059571 -0.055878066 0.99480677
-1.0326855 -0.77029294 -0.055355377 0.99485523
-1.0328027 -0.75035155 -0.054850958 0.99490196
-1.0328906 -0.73078126 -0.054363973 0.99494708
-1.058916 -0.70996094 -0.054777984 0.99490875
-1.1187207 -0.70995116 -0.056929778 0.99470925
-1.253828 -0.70996094 -0.061909329 0.99424779
-1.3307421 -0.70996094 -0.064806215 0.99397951
-1.3720019 -0.70996094 -0.066374704 0.99383414
-1.5593164 -0.70996094 -0.073615603 0.99316382
-1.6127539 -0.70997071 -0.075711176 0.99296987
-1.7844238 -0.70651364 -0.082462117 0.99234557
-1.7843652 -0.68068355 -0.082057491 0.99238294
-1.7842871 -0.65508789 -0.081669383 0.99241889
-9.8231153 -3.4669726 -0.44758764 0.95915139
-10.636972 -3.4561522 -0.48055801 0.956209
-11.02749 -3.4304492 -0.49621454 0.95481509
-11.069258 -3.2914844 -0.4961943 0.95481694
-11.147646 -3.0120409 -0.49615631 0.95482022
-11.184189 -2.8716114 -0.49613857 0.95482188
-11.252099 -2.5894823 -0.49610555 0.95482475
-11.31294 -2.3057616 -0.49607599 0.95482737
-11.340703 -2.1633496 -0.49606249 0.95482862
-11.366699 -2.0206347 -0.49604982 0.95482975
-11.413388 -1.7342772 -0.49602705 0.95483166
-11.434013 -1.5906738 -0.49601698 0.95483273
-11.510498 -0.86952144 -0.4959794 0.95483589
-11.520391 -0.7248047 -0.49597448 0.95483637
