# .PCD v0.7 - Point Cloud Data file format
VERSION 0.7
FIELDS x y z intensity
SIZE 4 4 4 4
TYPE F F F F
COUNT 1 1 1 1
WIDTH 1081
HEIGHT 1
VIEWPOINT 0 0 0 1 0 0 0
POINTS 1081
DATA ascii
4.7103515 7.851748 -0.24103387 0.96402526
4.9805861 7.8481736 -0.2446913 0.96348965
5.1778321 7.9367185 -0.24946159 0.96279132
5.611289 7.9309959 -0.25575173 0.96187121
5.7607617 7.9290233 -0.25800377 0.96154225
5.91291 7.927031 -0.26033393 0.96120137
6.0678711 7.9249802 -0.26275101 0.96084839
6.3866992 7.9207811 -0.26784968 0.96010393
6.5508204 7.918613 -0.27053913 0.95971161
6.9836326 7.8217673 -0.27603289 0.95891047
7.4863672 7.972158 -0.28789112 0.9571836
7.6747265 7.9696679 -0.2912612 0.95669347
7.8676171 7.9671288 -0.29475832 0.95618504
8.2678127 7.9618554 -0.3021583 0.95511025
8.4755859 7.9591012 -0.30607149 0.95454222
8.6888475 7.9562988 -0.31013843 0.95395243
8.9079103 7.9534082 -0.31436434 0.95333976
9.6029291 7.9442577 -0.32808554 0.95135361
9.8484373 7.9410152 -0.33303404 0.95063782
10.101523 7.9376755 -0.33819187 0.94989282
10.362577 7.934238 -0.34356892 0.94911712
1.267207 0.94525391 -0.041618232 0.99369407
1.2673047 0.92075193 -0.041237336 0.99375153
1.2673827 0.89668941 -0.040869977 0.99380702
1.2674609 0.87306637 -0.04051502 0.99386054
1.2675781 0.82696289 -0.039842263 0.99396229
1.2676171 0.80447263 -0.039523389 0.99401057
1.2677149 0.78234375 -0.039215621 0.99405694
1.2677734 0.76053709 -0.038918607 0.99410182
1.2678906 0.71791989 -0.038356017 0.99418682
1.2913672 0.70994139 -0.038793869 0.99412072
1.3719727 0.70995116 -0.040665779 0.99383783
1.4152343 0.70995116 -0.04168129 0.99368453
1.4607812 0.70995116 -0.042755585 0.99352217
1.5087109 0.70995116 -0.043893814 0.99335027
1.5592577 0.70994139 -0.045101888 0.993168
1.6126952 0.70994139 -0.046385802 0.99297416
1.6692773 0.70994139 -0.04775257 0.99276787
1.7292773 0.70993161 -0.049210507 0.99254799
1.7931055 0.70992184 -0.050768241 0.99231291
1.8611327 0.70992184 -0.052436788 0.9920612
1.9337305 0.70992184 -0.054227334 0.99179131
2.0061133 0.70801759 -0.056003608 0.99152362
2.0059373 0.65175778 -0.055523794 0.99159592
14.334257 4.4591403 -0.39517951 0.9417004
14.49082 3.9153514 -0.39514381 0.94170552
14.538437 3.732832 -0.39513296 0.94170725
14.583906 3.5497754 -0.39512265 0.94170839
14.667695 3.1819725 -0.3951036 0.94171154
16.786718 2.9841309 -0.44882995 0.93405199
18.821602 1.6599023 -0.4973937 0.92718256
18.84082 1.4232519 -0.49738953 0.92718309
18.888184 0.47480467 -0.49737951 0.9271844
18.894062 -0 -0.49737868 0.92718476
18.888203 -0.47482422 -0.49738055 0.92718434
18.857187 -1.1864063 -0.49738848 0.92718321
18.840899 -1.4232812 -0.49739251 0.92718279
18.821699 -1.6599219 -0.49739721 0.9271822
18.774452 -2.1324608 -0.49740866 0.92718065
18.746523 -2.3682518 -0.49741539 0.92717934
18.681679 -2.8386912 -0.49743089 0.92717713
18.468397 -4.0065331 -0.49748155 0.92717016
18.416992 -4.238379 -0.49749374 0.92716867
18.362852 -4.4695997 -0.4975065 0.92716646
18.245741 -4.9299121 -0.49753413 0.92716259
17.894335 -5.0771093 -0.48965269 0.92827398
2.0059373 -0.65180665 -0.055523679 0.99159586
1.9337109 -0.70997071 -0.054227293 0.99179131
1.7930859 -0.70997071 -0.050768431 0.99231291
1.4152343 -0.70995116 -0.041680794 0.99368453
1.3719531 -0.70996094 -0.040665358 0.99383783
1.2913476 -0.70997071 -0.038793601 0.99412072
1.2678516 -0.71793944 -0.038355939 0.99418688
1.2676367 -0.80449218 -0.039523467 0.99401045
1.2675977 -0.82699215 -0.039842263 0.99396217
1.2675195 -0.84983397 -0.040172577 0.99391228
1.2674609 -0.87307614 -0.040514868 0.99386054
1.2673047 -0.92077148 -0.041237336 0.99375147
12.635038 -9.6742678 -0.41891241 0.93830937
12.389628 -9.9900684 -0.4189696 0.93830127
6.4655075 -5.3487792 -0.22089352 0.96698099
6.2913084 -5.3392186 -0.21721809 0.96752155
6.2671289 -5.5956249 -0.22116981 0.96694052
11.742109 -10.752197 -0.41912046 0.93827975
11.606934 -10.899726 -0.4191519 0.93827522
11.46996 -11.045567 -0.41918379 0.93827057
11.331152 -11.189726 -0.4192161 0.9382658
10.903926 -11.611572 -0.41931555 0.93825173
10.461074 -12.017197 -0.4194186 0.93823731
10.310137 -12.148749 -0.41945374 0.93823212
10.157519 -12.278408 -0.41948923 0.938227
10.003262 -12.406133 -0.41952506 0.93822193
9.8474407 -12.531934 -0.4195613 0.93821675
9.6899996 -12.655771 -0.41959792 0.93821168
9.3705664 -12.897568 -0.41967219 0.93820101
6.6498632 -12.850879 -0.38090292 0.94374627
6.0433593 -12.842891 -0.37364227 0.9447881
5.6513867 -12.837714 -0.36924294 0.94542021
5.2682614 -12.832656 -0.3651731 0.94600528
5.0798044 -12.830175 -0.36325666 0.94628084
4.7085743 -12.825293 -0.35965434 0.94679928
4.3444724 -12.820469 -0.3563433 0.94727576
3.9867382 -12.815762 -0.35331562 0.94771188
3.8100975 -12.813437 -0.35190269 0.94791526
3.6348436 -12.811113 -0.35055792 0.94810921
3.4608397 -12.808818 -0.34927666 0.94829381
3.288125 -12.806553 -0.34806135 0.9484691
3.1165819 -12.804287 -0.34690773 0.9486354
2.7767186 -12.799794 -0.3447853 0.94894141
2.6083202 -12.797587 -0.34381554 0.94908124
2.4408202 -12.795381 -0.34290493 0.94921261
2.2741797 -12.793193 -0.34205306 0.94933546
1.9436133 -12.791367 -0.34059286 0.94954658
1.7792187 -12.789404 -0.33991703 0.94964391
1.4521874 -12.785507 -0.33873546 0.94981438
1.2894726 -12.783613 -0.33822948 0.94988751
0.96539062 -12.779834 -0.33738026 0.95001
0.8039062 -12.778144 -0.33704287 0.95005882
0.32175779 -12.800215 -0.33706534 0.9500556
0.18167968 -14.458955 -0.38065603 0.94378167
-1.953125e-05 -16.024326 -0.421832 0.93789291
-0.11630859 -9.2554102 -0.24366333 0.96364009
-0.60419923 -16.018242 -0.42197195 0.93787301
-0.80552733 -16.011211 -0.42201862 0.93786609
-1.0067773 -16.001572 -0.42206523 0.93785954
-1.2079102 -15.989394 -0.42211181 0.93785304
-1.4088867 -15.974755 -0.42215839 0.93784624
-1.6096874 -15.95752 -0.42220488 0.93783969
-1.8102539 -15.937832 -0.42225134 0.93783295
-1.4045702 -9.2433596 -0.24611878 0.96328032
-2.8089843 -15.801309 -0.42248261 0.93780017
-3.4036522 -15.689336 -0.42262024 0.9377805
-3.6009374 -15.647031 -0.42266592 0.93777388
-3.9938672 -15.554941 -0.42275688 0.93776095
-4.3844528 -15.453017 -0.42284724 0.9377479
-2.7418554 -9.2208004 -0.25323579 0.96223879
-4.7723827 -15.341152 -0.42293701 0.93773532
-5.1575193 -15.21957 -0.42302611 0.93772262
-5.3489256 -15.155214 -0.4230704 0.93771607
-6.1061325 -14.873398 -0.42324555 0.93769139
-6.2931833 -14.79703 -0.42328879 0.93768519
-7.2134957 -14.379941 -0.42350158 0.93765473
-7.3943357 -14.289512 -0.42354339 0.93764901
-7.5740819 -14.196895 -0.42358494 0.93764293
-7.7526169 -14.101953 -0.42362624 0.93763715
-7.9299998 -14.004745 -0.42366716 0.93763137
-8.1061325 -13.9054 -0.42370787 0.93762529
-8.2810154 -13.8037 -0.42374831 0.93761975
-9.1356831 -13.262695 -0.42394575 0.93759149
-9.4678125 -13.031308 -0.42402244 0.93758047
-9.9548626 -12.668554 -0.42413488 0.93756449
-10.114141 -12.543535 -0.42417166 0.93755931
-10.271835 -12.416513 -0.4242081 0.93755418
-10.427988 -12.287529 -0.42424414 0.93754882
-11.035781 -11.751914 -0.42438439 0.93752909
-11.183516 -11.613271 -0.42441848 0.93752408
-11.329512 -11.472754 -0.42445213 0.93751907
-11.615976 -11.186113 -0.4245182 0.93751001
-1.0363672 -0.94897461 -0.036990583 0.99439299
-1.0365235 -0.90228516 -0.036175154 0.99451625
-1.0366015 -0.87971675 -0.035789337 0.99457461
-1.0367578 -0.83592772 -0.035057638 0.99468517
-1.0368164 -0.81470704 -0.034710884 0.99473763
-1.036875 -0.7938965 -0.034376677 0.99478823
-1.0369922 -0.75340819 -0.033742104 0.99488419
-1.0370507 -0.73373044 -0.033441275 0.99492967
-1.1187304 -0.70995116 -0.034878768 0.99471223
-1.1504492 -0.70996094 -0.035586089 0.99460524
-1.1834375 -0.70995116 -0.036328774 0.99449307
-1.2178711 -0.70995116 -0.037109222 0.99437517
-1.2538671 -0.70996094 -0.037929572 0.99425095
-1.2914257 -0.70995116 -0.038793676 0.99412048
-1.3719921 -0.70995116 -0.040665437 0.99383771
-1.4608008 -0.70995116 -0.042754974 0.99352211
-1.50875 -0.70996094 -0.043893699 0.99335015
-1.5592968 -0.70996094 -0.045101546 0.99316782
-1.6693164 -0.70995116 -0.04775238 0.99276769
-1.7792969 -0.70447266 -0.05037567 0.99237186
-14.892832 -4.6329002 -0.41057608 0.93949872
-15.529297 -4.6176853 -0.42648923 0.93722898
-17.027187 -4.6006641 -0.46430424 0.93185735
-18.789022 -4.0760741 -0.50611401 0.92595381
-18.83918 -3.8397264 -0.50612539 0.9259522
-18.886366 -3.6027637 -0.50613606 0.92595065
-18.971601 -3.1271386 -0.50615531 0.92594814
-19.044804 -2.6494727 -0.50617176 0.92594588
-19.076874 -2.409961 -0.50617892 0.92594481
-19.131874 -1.9298437 -0.50619119 0.92594308
-19.216093 -0.7247656 -0.50620937 0.92594016
-19.223671 -0.48325193 -0.50621086 0.92594022
-19.228222 -0.24164061 -0.5062117 0.92594022
-17.382772 -0 -0.50578386 0.93280369
-17.381407 0.2184082 -0.50578332 0.93280363
-17.370195 0.6551367 -0.50578022 0.93280452
-17.360546 0.87337887 -0.50577778 0.9328047
-17.215467 2.3949511 -0.50574249 0.93280935
-17.149414 2.8267772 -0.50572675 0.93281096
-17.112186 3.0419629 -0.50571793 0.93281227
-17.072266 3.2566991 -0.5057084 0.93281358
-16.936308 3.8976073 -0.50567627 0.93281776
-16.885664 4.1100292 -0.50566429 0.93281901
-16.832207 4.3217773 -0.50565171 0.93282086
-16.776073 4.5328126 -0.50563848 0.93282276
-16.655996 4.9526854 -0.50561017 0.93282616
-16.592031 5.1614842 -0.50559515 0.93282777
-16.525312 5.3693848 -0.50557941 0.93282992
-16.384043 5.782578 -0.50554627 0.93283439
-1.7801172 0.67902344 -0.055435255 0.99240488
-1.7293359 0.70994139 -0.054393195 0.99254721
-1.6693554 0.70993161 -0.05278179 0.99276704
-1.6127539 0.70994139 -0.051271018 0.99297345
-1.5592968 0.70994139 -0.049851988 0.99316734
-1.4608203 0.70993161 -0.047258377 0.99352157
-1.3307812 0.70994139 -0.043886185 0.99398237
-1.2914063 0.70993161 -0.0428796 0.99412012
-1.253828 0.70994139 -0.041924477 0.99425066
-1.2178906 0.70995116 -0.041017454 0.99437463
-1.1834375 0.70993161 -0.040154953 0.99449271
-1.1504296 0.70994139 -0.039334182 0.99460489
-1.1187304 0.70994139 -0.038552396 0.99471188
-1.0882422 0.70994139 -0.037806664 0.99481392
-1.0363867 0.73321289 -0.036938515 0.99493265
-1.0363085 0.75289059 -0.03727062 0.99488723
-1.0361718 0.7933203 -0.037970733 0.99479145
-1.0360937 0.81413084 -0.03834011 0.9947409
-1.0360156 0.83533204 -0.038722724 0.99468857
-1.0357617 0.90161133 -0.039956205 0.99451989
-1.0357031 0.92465818 -0.040397871 0.99445945
-10.045312 9.4331341 -0.40095869 0.94634897
-9.8034372 9.6809759 -0.40089211 0.94635773
-9.6801558 9.8025484 -0.40085819 0.94636226
-9.5553904 9.9225388 -0.4008238 0.94636685
-9.3014259 10.157803 -0.40075392 0.94637573
-9.172226 10.272978 -0.40071842 0.94638038
-8.9095306 10.498301 -0.40064621 0.94638997
-2.8852735 3.6717772 -0.13587619 0.98148656
-2.7470312 3.6827245 -0.1336824 0.98178256
-2.6199608 3.7030175 -0.13198818 0.98201156
-2.6235156 3.9130077 -0.13707875 0.9813242
-7.5163279 11.521162 -0.40026373 0.94643974
-2.2089648 3.579375 -0.12238517 0.98330927
-6.9251757 11.879492 -0.40010169 0.94646066
-6.5245895 12.608632 -0.41308129 0.94477254
-6.3650389 12.688417 -0.41304424 0.94477767
-5.8806639 12.915742 -0.41293174 0.94479245
-5.7173829 12.98749 -0.41289386 0.94479716
-5.5532031 13.057079 -0.41285574 0.94480217
-5.2223825 13.190068 -0.41277891 0.94481206
-5.0557423 13.253447 -0.41274032 0.94481701
-4.8883395 13.314677 -0.4127014 0.94482201
-4.7201953 13.37374 -0.41266239 0.94482726
-4.3817577 13.485537 -0.41258389 0.94483763
-4.0407419 13.588867 -0.41250473 0.94484758
-3.8692968 13.637226 -0.41246501 0.94485283
-3.3515625 13.769365 -0.41234487 0.94486845
-2.829375 13.881806 -0.41222376 0.94488424
-2.654453 13.914873 -0.41218323 0.94488961
-2.4791601 13.945829 -0.41214254 0.94489461
-2.3034766 13.974443 -0.41210181 0.9449001
-1.0730078 10.637168 -0.31108159 0.95811957
-0.93796873 10.635371 -0.3106586 0.95817512
-0.66890621 10.631836 -0.3099663 0.95826638
0.099453121 7.9125485 -0.2302497 0.96883005
0.40242186 7.9996872 -0.23306172 0.96845549
0.70515621 7.9957027 -0.23355386 0.96838987
1.0096093 7.9916992 -0.23438361 0.96827948
1.2139453 7.9890037 -0.23512486 0.96818072
1.3166015 7.9876366 -0.23555188 0.96812373
1.4196875 7.9862499 -0.23602003 0.96806163
1.920078 7.888525 -0.23623466 0.96803302
2.130703 7.8857517 -0.237681 0.96784049
2.3440235 7.8829393 -0.23929675 0.9676255
2.5603905 7.8800879 -0.24108732 0.9673872
2.8121874 7.9679098 -0.24585895 0.96675247
3.1529295 7.963418 -0.2492121 0.96630675
3.5035937 7.9587889 -0.25302336 0.96580046
3.6229491 7.9572067 -0.25440052 0.96561754
4.2408204 7.9490623 -0.26215267 0.9645887
4.7103124 7.8517284 -0.26642019 0.9640227
4.9805861 7.8481736 -0.27046156 0.96348691
5.319922 7.9348435 -0.27797052 0.96249259
5.91291 7.927031 -0.28775287 0.96119845
6.2257419 7.9229002 -0.29319194 0.9604798
6.5508204 7.9186034 -0.29903302 0.95970863
7.4863281 7.9721484 -0.31821519 0.9571805
8.0652342 7.9645309 -0.32981619 0.95565426
8.4755859 7.9591208 -0.33830741 0.95453876
8.6888666 7.9563184 -0.34280142 0.95394886
9.1330662 7.9504685 -0.35232931 0.9526996
9.3646088 7.9473925 -0.35738105 0.95203799
9.6029291 7.9442477 -0.36263859 0.95134997
10.101484 7.9376855 -0.37381104 0.94988918
10.362577 7.9342284 -0.37975255 0.94911331
1.2663672 0.94460934 -0.045969885 0.99369782
1.2664453 0.92013669 -0.045549583 0.99375528
1.266582 0.8724609 -0.044752233 0.99386436
1.2666601 0.84925777 -0.044374388 0.99391598
1.2670898 0.71747071 -0.042368811 0.99418998
1.2913672 0.70994139 -0.042879563 0.99412024
1.3307031 0.70995116 -0.043886375 0.99398267
1.3719336 0.70993161 -0.044948537 0.99383754
1.5592577 0.70993161 -0.049852028 0.99316746
1.6692773 0.70993161 -0.052782018 0.99276733
1.7292968 0.70992184 -0.054393616 0.99254733
1.8611327 0.70992184 -0.057959557 0.9920606
2.0082421 0.7087695 -0.061967008 0.99151403
2.0081639 0.68047851 -0.061695058 0.99155098
12.978691 4.0374413 -0.39549404 0.94706106
13.028086 3.8739355 -0.39548278 0.94706231
13.075371 3.7098045 -0.39547199 0.94706374
13.120625 3.5451269 -0.39546165 0.94706506
13.204883 3.2141113 -0.39544249 0.94706774
13.243964 3.0478613 -0.3954336 0.94706875
13.962148 3.0289061 -0.41570723 0.94443178
14.778984 3.0121679 -0.43886518 0.94142854
15.717207 2.9982128 -0.46557188 0.93797725
16.786718 2.9841211 -0.49610168 0.93404704
16.974024 2.1443262 -0.49782127 0.93382639
17.102617 0.42992187 -0.49779329 0.93382984
17.106602 0.21496093 -0.49779257 0.93383008
17.106621 -0.21499023 -0.49779305 0.93383002
17.086639 -0.85959959 -0.49779838 0.93382901
17.059765 -1.2887402 -0.49780506 0.93382853
17.042421 -1.5030273 -0.49780929 0.93382776
17.022343 -1.71708 -0.49781418 0.93382722
16.974257 -2.1443748 -0.49782577 0.93382555
16.915468 -2.5703321 -0.49783984 0.93382382
16.882071 -2.7827442 -0.49784783 0.93382287
16.722227 -3.6277244 -0.49788573 0.93381792
16.675703 -3.8376367 -0.49789676 0.93381649
16.626484 -4.0469728 -0.49790838 0.93381524
16.251055 -5.055449 -0.49521011 0.93416166
2.0080469 -0.6524902 -0.061435506 0.99158645
2.0081251 -0.68052733 -0.061695211 0.9915511
1.9337109 -0.70997071 -0.059938353 0.99179071
1.7930859 -0.70997071 -0.056115188 0.99231231
1.6692969 -0.70997071 -0.05278179 0.99276721
1.5592577 -0.70995116 -0.049851723 0.99316746
1.5087109 -0.70995116 -0.048516463 0.99334979
1.3719531 -0.70996094 -0.04494812 0.99383742
1.3307031 -0.70995116 -0.043885995 0.99398267
1.2671094 -0.71748048 -0.042368963 0.99418992
1.2670116 -0.73864257 -0.042673875 0.99414831
1.266875 -0.78186524 -0.043317907 0.99406034
1.2667577 -0.82644528 -0.044009626 0.99396569
1.266582 -0.87250972 -0.044752385 0.99386424
1.2664648 -0.92016602 -0.045549657 0.9937551
10.810527 -8.2772655 -0.39617056 0.94697285
10.706308 -8.4129686 -0.39619488 0.94696969
6.2887106 -5.3370118 -0.23999597 0.96753228
6.2796092 -5.4665036 -0.24225126 0.96723229
6.2659373 -5.5945606 -0.24441724 0.96694422
10.383203 -9.9990425 -0.41943449 0.94394785
10.2575 -10.129492 -0.41946378 0.9439438
9.8705273 -10.511113 -0.41955382 0.94393229
9.7383595 -10.635117 -0.41958457 0.94392824
9.6047268 -10.757451 -0.41961566 0.94392407
9.3327341 -10.99705 -0.41967896 0.94391602
9.1945114 -11.114326 -0.41971111 0.94391179
8.7711525 -11.455684 -0.41980955 0.94389886
8.6271877 -11.565898 -0.41984302 0.94389462
8.3348827 -11.780596 -0.4198963 0.94388753
8.1868353 -11.885332 -0.41993079 0.94388324
8.0375385 -11.988291 -0.41996542 0.94387853
7.8868356 -12.089277 -0.42000043 0.94387442
7.5819335 -12.28582 -0.42007133 0.9438647
7.1152735 -12.566084 -0.42017972 0.94385076
6.9574022 -12.655566 -0.42021641 0.94384617
6.6383395 -12.828671 -0.42029053 0.94383651
6.4771481 -12.912188 -0.42032793 0.94383186
6.1517773 -13.073281 -0.42040351 0.94382179
5.9875388 -13.150742 -0.42044166 0.9438169
5.8223243 -13.226132 -0.42048004 0.94381201
5.6562109 -13.299492 -0.42051855 0.94380689
5.3211913 -13.439902 -0.42059633 0.94379687
5.1523829 -13.506972 -0.42063552 0.94379169
4.7085743 -12.825293 -0.39753222 0.94679528
4.5256639 -12.822871 -0.39566162 0.94703871
3.8100586 -12.813437 -0.38896587 0.94791144
3.6348436 -12.811113 -0.38747782 0.94810534
3.1165819 -12.804296 -0.38344306 0.94863153
2.9461522 -12.802051 -0.38223639 0.94878888
2.7767382 -12.799805 -0.38109916 0.94893754
2.1083398 -12.791016 -0.37720019 0.9494462
1.9436327 -12.791377 -0.37646315 0.94954276
1.4521874 -12.785507 -0.37441185 0.94981062
1.127207 -12.781718 -0.37335369 0.94994897
0.70441407 -14.002598 -0.40794808 0.94543988
0.36423826 -14.489951 -0.42174599 0.94364744
-3.9062499e-05 -14.497393 -0.42183036 0.9436366
-0.11632812 -9.2554102 -0.26932642 0.96363735
-0.36441407 -14.495712 -0.42191482 0.94362569
-0.54660153 -14.491465 -0.42195702 0.94362009
-0.72873044 -14.484882 -0.42199919 0.94361466
-1.0927343 -14.464902 -0.4220835 0.94360369
-1.2745508 -14.451455 -0.42212561 0.94359827
-1.4561914 -14.435713 -0.42216769 0.94359291
-1.8188477 -14.397402 -0.4222517 0.94358206
-2.3608985 -14.32291 -0.4223772 0.94356567
-2.5409374 -14.293525 -0.42241889 0.94356024
-2.7206054 -14.261855 -0.42246047 0.94355494
-2.8999219 -14.227949 -0.42250198 0.94354945
-3.2571874 -14.15331 -0.42258468 0.9435389
-3.435117 -14.112734 -0.42262587 0.94353318
-3.9657421 -13.977245 -0.42274868 0.94351745
-4.8378711 -13.707226 -0.42295042 0.94349116
-5.1817579 -13.583897 -0.42303002 0.94348079
-5.3525782 -13.519004 -0.42306948 0.94347548
-5.5225587 -13.451933 -0.42310882 0.94347036
-5.6916404 -13.382675 -0.42314792 0.94346547
-5.8599024 -13.311308 -0.42318684 0.94346046
-6.1936913 -13.162216 -0.423264 0.94345057
-6.6871676 -12.92293 -0.42337805 0.94343567
-7.3306251 -12.575019 -0.42352679 0.94341636
-7.4887109 -12.482988 -0.4235633 0.94341165
-8.2612305 -11.993222 -0.42374179 0.94338834
-8.4119921 -11.889433 -0.42377663 0.94338381
-8.7094917 -11.676171 -0.42384532 0.94337499
-9.0015821 -11.4554 -0.42391276 0.94336641
-9.1455469 -11.342275 -0.42394599 0.94336206
-9.2880659 -11.227334 -0.42397887 0.94335777
-9.5687695 -10.992119 -0.42404369 0.94334912
-9.8434372 -10.749765 -0.42410704 0.94334102
-10.374121 -10.24456 -0.42422947 0.9433251
-10.629726 -9.9819727 -0.42428839 0.94331771
-1.0356835 -0.9246875 -0.040398024 0.99445939
-1.0357617 -0.90165037 -0.03995613 0.99451983
-1.0358398 -0.87906247 -0.039530065 0.99457818
-1.0360937 -0.81414062 -0.038340032 0.9947409
-1.0362109 -0.77293944 -0.037614554 0.9948402
-1.0363085 -0.75291014 -0.03727062 0.99488717
-1.0363672 -0.73324215 -0.036938552 0.99493265
-1.0589062 -0.70995116 -0.03709507 0.99491131
-1.0882422 -0.70996094 -0.037806585 0.99481386
-1.1187304 -0.70995116 -0.038552321 0.99471182
-1.1504492 -0.70996094 -0.039334029 0.99460483
-1.1834375 -0.70995116 -0.040154763 0.99449265
-1.2178711 -0.70995116 -0.041017301 0.99437469
-1.2538671 -0.70996094 -0.041924398 0.99425048
-1.2914257 -0.70995116 -0.042879369 0.99412006
-1.4152734 -0.70996094 -0.046070784 0.99368387
-1.4608008 -0.70995116 -0.047258224 0.99352157
-1.50875 -0.70996094 -0.048516579 0.99334961
-1.5592968 -0.70996094 -0.049851529 0.99316728
-1.7293359 -0.70997071 -0.054392774 0.99254715
-1.7800781 -0.67906249 -0.055435181 0.99240494
-1.7800781 -0.65352535 -0.055173758 0.99244052
-13.203593 -4.660078 -0.4074094 0.94550979
-13.703671 -4.6437693 -0.42100513 0.94374341
-14.265078 -4.6350193 -0.43643108 0.94174367
-15.529258 -4.6176658 -0.47140783 0.93722445
-16.246445 -4.6095214 -0.49137837 0.93465346
-16.885899 -4.1100974 -0.50567311 0.93281811
-16.936602 -3.8976758 -0.50568461 0.93281662
-17.029882 -3.4709766 -0.50570577 0.932814
-17.072557 -3.2567773 -0.50571543 0.93281251
-17.183945 -2.6111133 -0.50574052 0.93280959
-17.21578 -2.3950195 -0.50574774 0.93280816
-17.244726 -2.1785157 -0.50575417 0.93280739
-17.270859 -1.9616601 -0.50576001 0.93280691
-17.294374 -1.7445019 -0.5057652 0.93280607
-17.315001 -1.5270507 -0.50576973 0.93280578
-17.348164 -1.0914453 -0.50577694 0.93280482
-17.377226 -0.43682617 -0.50578302 0.93280387
-17.381407 -0.21842773 -0.50578374 0.93280363
-15.859219 -9.7656248e-06 -0.50543082 0.93850315
-15.84789 0.59772462 -0.5054276 0.93850338
-15.838984 0.79681641 -0.50542527 0.93850392
-15.827676 0.99578124 -0.50542247 0.9385041
-15.813808 1.1945899 -0.50541902 0.93850446
-15.733164 1.9875488 -0.50539953 0.9385069
-15.706758 2.1850684 -0.50539315 0.93850762
-15.67789 2.3822362 -0.50538629 0.93850827
-15.646484 2.5790234 -0.50537878 0.93850917
-15.576172 2.9713085 -0.50536209 0.93851131
-15.537343 3.166748 -0.50535291 0.93851233
-15.452266 3.5560839 -0.50533277 0.93851459
-15.357344 3.9430664 -0.50531036 0.93851721
-15.252695 4.3275781 -0.50528568 0.93851995
-15.19664 4.5187497 -0.50527251 0.9385218
-15.138242 4.7092381 -0.5052588 0.93852347
-15.014257 5.0878515 -0.50522965 0.93852687
-1.7293359 0.70994139 -0.059576835 0.99254656
-1.6693554 0.70993161 -0.057811927 0.99276644
-1.6127539 0.70994139 -0.056157265 0.99297285
-1.50875 0.70994139 -0.053140145 0.99334908
-1.4608203 0.70993161 -0.051762238 0.99352103
-1.4152734 0.70994139 -0.050461195 0.9936834
-1.3720312 0.70994139 -0.049232025 0.99383664
-1.3307812 0.70994139 -0.048068542 0.9939819
-1.1834375 0.70993161 -0.043981858 0.99449223
-1.1504296 0.70994139 -0.043082733 0.99460447
-1.1187304 0.70994139 -0.042226255 0.9947114
-1.0882422 0.70994139 -0.041409567 0.9948135
-1.0589453 0.70993161 -0.040630303 0.99491084
-1.0356641 0.73273438 -0.040431745 0.99493563
-1.0355078 0.77239257 -0.041170996 0.9948433
-1.0354297 0.79277343 -0.041560706 0.99479467
-1.035293 0.83473629 -0.042383041 0.99469185
-1.0351952 0.85634762 -0.042816885 0.99463773
-1.0349219 0.92399412 -0.044215314 0.99446303
-1.0348047 0.94753903 -0.044716414 0.99440056
-9.0562887 8.7211037 -0.4006907 0.95092839
-8.8328514 8.944521 -0.40062803 0.95093596
-8.6039448 9.1622458 -0.40056437 0.95094341
-8.487422 9.2688475 -0.40053213 0.95094746
-8.3696089 9.3740034 -0.4004997 0.95095134
-8.2505074 9.4776754 -0.40046698 0.95095515
-8.008359 9.6803808 -0.40040037 0.95096326
-7.8854294 9.7794628 -0.40036657 0.95096713
-2.8846874 3.6710448 -0.14879601 0.98148865
-2.2089648 3.579375 -0.13404807 0.98330784
-6.5277734 11.197743 -0.41308352 0.94944996
-6.3860154 11.277978 -0.41305059 0.94945395
-6.0996094 11.433046 -0.4129841 0.94946194
-5.3674607 11.788642 -0.41281405 0.94948214
-5.0686913 11.917822 -0.41274467 0.94949031
-4.9180861 11.979541 -0.41270971 0.9494946
-4.7667575 12.039374 -0.41267458 0.94949877
-4.614707 12.097256 -0.41263929 0.94950306
-4.3085155 12.207363 -0.41256827 0.94951129
-4.1544142 12.259462 -0.41253248 0.94951564
-3.9996874 12.309609 -0.4124966 0.94951999
-3.059453 12.569306 -0.41227847 0.94954586
-2.9010155 12.605596 -0.41224173 0.94955039
-2.7421679 12.639941 -0.41220489 0.94955468
-2.263164 12.730879 -0.41209379 0.94956797
-1.6174414 10.644355 -0.34312922 0.95782709
-1.4805859 10.642558 -0.34244406 0.95790946
-1.3442578 10.640742 -0.34181541 0.9579851
-1.2084179 10.638945 -0.34124395 0.95805395
-1.0730078 10.637168 -0.34072691 0.95811611
-0.80332029 10.633613 -0.33985943 0.95822054
-0.66890621 10.631855 -0.3395066 0.95826286
-0.2986328 7.9177928 -0.2525188 0.96878773
-0.099492185 7.9151754 -0.2522755 0.96881723
-3.9062499e-05 7.9138474 -0.25221518 0.9688248
0.19886719 7.9112301 -0.2522105 0.96882528
0.40242186 7.9996872 -0.25527275 0.96845287
0.50320309 7.9983592 -0.25541139 0.96843594
0.60410154 7.9970312 -0.25559166 0.96841407
0.70515621 7.9957027 -0.25581124 0.96838725
0.80640626 7.9943748 -0.25607264 0.96835542
1.0095702 7.9916797 -0.25671878 0.96827692
1.1116016 7.9903316 -0.2571044 0.96823007
1.2139453 7.9890037 -0.25753161 0.96817809
1.3166015 7.9876366 -0.25800112 0.96812111
1.4196875 7.9862499 -0.25851274 0.96805894
1.5231836 7.9849024 -0.25906897 0.96799141
1.6271484 7.9835348 -0.25966656 0.96791869
2.0250781 7.8871384 -0.25951743 0.96793687
2.2369921 7.8843455 -0.26119122 0.9677332
2.3440235 7.8829393 -0.26210013 0.96762282
2.5603516 7.8800683 -0.26406205 0.96738458
2.8121874 7.9679098 -0.26928887 0.96674973
2.924746 7.9664059 -0.27045965 0.96660769
3.0383203 7.9649215 -0.27168378 0.9664591
3.1529295 7.963418 -0.27296257 0.96630394
3.2686327 7.961875 -0.27429697 0.96614212
3.3855078 7.9603515 -0.27568728 0.96597332
3.7436132 7.9556251 -0.280215 0.96542436
3.8656836 7.9540038 -0.28184706 0.96522653
4.1142187 7.9507422 -0.28530502 0.96480739
4.3384767 7.8916988 -0.28700909 0.96460092
4.4478908 7.8552051 -0.28769284 0.96451819
4.7103319 7.8517184 -0.29180929 0.96401972
4.8444529 7.8499608 -0.29398337 0.96375656
5.9129295 7.9270215 -0.31517622 0.96119523
6.0678515 7.9249706 -0.31810009 0.96084231
6.2257419 7.9229002 -0.32113242 0.96047652
6.3866796 7.9207711 -0.32427382 0.96009773
6.6418552 7.8262691 -0.32713649 0.95975256
6.8109374 7.8240428 -0.3305957 0.9593358
7.1601758 7.8194528 -0.33789948 0.95845628
7.4863281 7.972168 -0.34853607 0.95717692
7.6747265 7.9696579 -0.35261604 0.95668668
7.8676171 7.9671187 -0.35684982 0.95617819
8.0652342 7.9645214 -0.36124557 0.95565063
8.2678127 7.9618454 -0.36580977 0.95510322
8.4755859 7.9591112 -0.37054741 0.95453507
9.1330471 7.950449 -0.3859069 0.95269579
9.3646088 7.9473925 -0.39144027 0.95203406
9.8911324 8.1826468 -0.40911898 0.94992304
9.9926558 8.0572853 -0.40909562 0.94992554
10.0925 7.9305954 -0.40907261 0.94992852
1.2655078 0.94396484 -0.050316352 0.99370158
1.2655663 0.91949219 -0.049856529 0.99375904
1.2656835 0.89548826 -0.049412955 0.99381429
1.2657422 0.87190425 -0.048984639 0.99386781
1.2658594 0.8486914 -0.048571203 0.99391931
1.2659374 0.82587886 -0.048172303 0.99396914
1.2661523 0.75958985 -0.047057111 0.99410832
1.266289 0.71701169 -0.046377335 0.9941932
1.2913672 0.70994139 -0.046966169 0.99411976
1.3307031 0.70995116 -0.048068579 0.99398214
1.4607812 0.70994139 -0.05176254 0.99352115
1.5592577 0.70993161 -0.054602776 0.99316692
1.6692773 0.70993161 -0.057811927 0.99276674
1.7292968 0.70992184 -0.059577025 0.99254674
1.7931055 0.70992184 -0.061463278 0.99231166
2.0103514 0.70953125 -0.06794399 0.99150443
2.0101562 0.65314454 -0.067360759 0.99157697
11.857265 3.6885936 -0.39575425 0.95151842
11.902363 3.5391991 -0.39574394 0.95151973
11.945585 3.3892577 -0.3957341 0.95152098
12.527167 3.0491502 -0.41089767 0.94971073
13.188749 3.0351562 -0.43131277 0.94727916
15.355214 2.9291699 -0.4981955 0.93935657
15.423554 2.542295 -0.49818006 0.93935817
15.454042 2.3482323 -0.49817321 0.93935907
15.507773 1.959082 -0.4981612 0.93936056
15.551797 1.5687109 -0.49815139 0.93936175
15.59957 0.98143554 -0.49814093 0.93936288
15.610585 0.78533202 -0.49813861 0.93936324
15.628984 0.19639648 -0.49813497 0.93936366
15.630195 -1.953125e-05 -0.49813491 0.93936372
15.628945 -0.19643554 -0.49813542 0.93936378
15.619141 -0.58911133 -0.49813807 0.93936354
15.599609 -0.98144531 -0.49814305 0.93936276
15.586152 -1.1774023 -0.49814636 0.93936235
15.570273 -1.373203 -0.49815023 0.93936181
15.551875 -1.56875 -0.4981547 0.93936145
15.50791 -1.9591113 -0.49816531 0.93936008
15.482265 -2.1538672 -0.49817145 0.93935931
15.423691 -2.5423241 -0.49818546 0.93935764
15.39078 -2.7359862 -0.49819326 0.93935663
15.317656 -3.1220117 -0.49821064 0.93935478
15.235 -3.5060937 -0.49823019 0.93935233
14.986484 -4.4562988 -0.49828878 0.93934566
2.0101366 -0.65316403 -0.067360841 0.99157703
1.9337109 -0.70997071 -0.065650254 0.99179
1.8610938 -0.70996094 -0.063482776 0.99206001
1.7292968 -0.70996094 -0.059576947 0.99254668
1.6126758 -0.70995116 -0.056156997 0.99297309
1.4607617 -0.70996094 -0.051761933 0.99352115
1.3719531 -0.70996094 -0.049231794 0.99383688
1.3307031 -0.70995116 -0.048068274 0.99398214
1.2913476 -0.70997071 -0.046965979 0.99411976
1.2660546 -0.78135741 -0.047415465 0.99406368
1.2659374 -0.82588863 -0.048172455 0.99396914
1.2657422 -0.87191403 -0.04898468 0.99386781
1.2655078 -0.94398433 -0.050316505 0.99370152
9.875351 -7.5612106 -0.39638647 0.95144278
6.2860937 -5.3347754 -0.26275751 0.96754295
6.2772069 -5.4644532 -0.26523724 0.96724176
9.1766205 -8.4029884 -0.39654928 0.95142347
9.070879 -8.5181637 -0.39657393 0.95142049
8.9637108 -8.6320314 -0.39659888 0.95141745
8.6336718 -8.9654779 -0.39667571 0.95140821
8.895215 -9.7142963 -0.41977897 0.94865191
8.7730274 -9.8259563 -0.41980737 0.94864857
8.3981838 -10.151757 -0.41989455 0.94863814
8.2702732 -10.256855 -0.41990966 0.94863629
8.1413279 -10.360683 -0.41993964 0.94863278
8.0110159 -10.46293 -0.41996998 0.94862932
7.8794918 -10.563535 -0.42000052 0.94862562
7.6126561 -10.759775 -0.42006254 0.94861835
7.4774413 -10.855459 -0.42009398 0.94861436
7.3409958 -10.949355 -0.42012572 0.94861066
7.2033787 -11.041562 -0.4201577 0.94860691
6.6415625 -11.393106 -0.42028829 0.94859129
6.4983397 -11.476582 -0.42032149 0.94858736
6.3541598 -11.558242 -0.42035502 0.94858336
6.2089062 -11.638105 -0.42038876 0.94857937
5.9154296 -11.792421 -0.42045692 0.94857109
5.6181641 -11.939297 -0.42052597 0.94856292
5.3172264 -12.078711 -0.42059585 0.94855464
5.1654687 -12.145605 -0.42063105 0.94855034
4.5502343 -12.393965 -0.42077383 0.94853348
3.923125 -12.611318 -0.42091942 0.94851607
3.764668 -12.660742 -0.42095619 0.9485116
3.6055858 -12.708144 -0.42099312 0.94850731
3.4459178 -12.753554 -0.4210301 0.94850296
3.1249022 -12.838418 -0.42110458 0.94849396
2.9635937 -12.877812 -0.42114198 0.94848955
2.4767578 -12.983828 -0.4212549 0.94847614
2.1500976 -13.044346 -0.42133066 0.94846702
1.3273828 -13.159492 -0.42152146 0.94844455
0.99646485 -13.191191 -0.42159811 0.94843507
0.6647656 -13.214404 -0.421675 0.94842619
0.16628906 -13.23376 -0.42179048 0.94841218
0 -13.235986 -0.42182902 0.94840771
-0.11632812 -9.2554197 -0.29499149 0.96363431
-0.33269531 -13.234179 -0.42190611 0.94839865
-0.49902344 -13.230186 -0.42194465 0.948394
-0.83152342 -13.215947 -0.42202166 0.94838452
-0.99759763 -13.205645 -0.42206016 0.94838005
-1.1635547 -13.193261 -0.42209858 0.94837546
-1.3293945 -13.17876 -0.42213699 0.94837105
-1.8256249 -13.12289 -0.42225188 0.94835728
-2.6472266 -12.988183 -0.42244211 0.94833469
-3.9401758 -12.665947 -0.42274135 0.94829887
-4.0993748 -12.616523 -0.42277816 0.94829452
-4.573164 -12.456288 -0.4228878 0.94828147
-4.8855858 -12.339551 -0.42296004 0.94827276
-5.3485546 -12.149707 -0.42306709 0.94826007
-5.6531248 -12.013456 -0.42313752 0.94825172
-5.8041406 -11.94249 -0.42317244 0.94824737
-5.9542184 -11.869551 -0.42320716 0.94824344
-6.1033983 -11.794775 -0.42324165 0.94823927
-6.2516012 -11.718046 -0.42327589 0.94823539
-6.3989062 -11.63955 -0.42330992 0.9482311
-6.545156 -11.559062 -0.42334372 0.94822741
-6.6904492 -11.476855 -0.42337731 0.94822323
-6.8346872 -11.392793 -0.42341062 0.94821918
-5.6671872 -9.1830368 -0.34390762 0.95773339
-7.4007421 -11.038388 -0.4235414 0.94820368
-7.5394335 -10.945332 -0.42357343 0.94819993
-7.6769137 -10.850517 -0.42360517 0.94819629
-7.8133006 -10.754082 -0.4236367 0.94819212
-7.9483786 -10.655801 -0.42366785 0.9481886
-7.0169139 -9.1644135 -0.36784974 0.95485818
-8.2148438 -10.454228 -0.42372939 0.94818121
-8.4761324 -10.245917 -0.42378974 0.94817424
-8.6048431 -10.139336 -0.42381942 0.94817054
-9.2276363 -9.5822458 -0.42396316 0.9481535
-9.34793 -9.4661522 -0.42399088 0.94815022
-9.0581245 -8.7229099 -0.40077454 0.95091856
-1.0348047 -0.94756836 -0.044716377 0.99440044
-1.0350195 -0.90097654 -0.043732259 0.99452335
-1.0351952 -0.85638672 -0.04281681 0.99463767
-1.0353125 -0.83477539 -0.042383041 0.99469173
-1.0353515 -0.81357419 -0.041964531 0.99474412
-1.0354687 -0.79279298 -0.041560784 0.99479449
-1.0355078 -0.77239257 -0.041170958 0.9948433
-1.0356054 -0.75241208 -0.040794905 0.99489021
-1.0357226 -0.7134375 -0.040081404 0.99497944
-1.0589453 -0.70997071 -0.040629998 0.99491072
-1.1187304 -0.70995116 -0.042226255 0.9947114
-1.1504492 -0.70996094 -0.043082654 0.99460435
-1.2178711 -0.70995116 -0.044926375 0.99437422
-1.2538671 -0.70996094 -0.045919836 0.99425
-1.2914257 -0.70995116 -0.046965905 0.99411952
-1.3307421 -0.70996094 -0.048068006 0.99398196
-1.4152734 -0.70997071 -0.050461121 0.99368334
-1.50875 -0.70997071 -0.053140067 0.99334902
-1.6692969 -0.70996094 -0.057811506 0.99276662
-1.7293359 -0.70997071 -0.059576493 0.9925465
-1.7810156 -0.70515621 -0.061046369 0.99236327
-1.780957 -0.67937499 -0.060747258 0.99240059
-1.7809179 -0.65384763 -0.060460813 0.99243629
-13.178828 -4.6513376 -0.44539958 0.94560468
-13.702754 -4.6434569 -0.46109816 0.94374245
-14.265117 -4.6350293 -0.47802475 0.94173872
-14.870429 -4.6259274 -0.49631789 0.93957752
-15.306445 -4.1357422 -0.50530714 0.93851775
-15.406211 -3.7499316 -0.50532991 0.93851513
-15.496249 -3.3617578 -0.50535035 0.93851256
-15.612773 -2.7754297 -0.5053767 0.9385094
-15.678007 -2.3822656 -0.50539136 0.93850785
-15.706875 -2.1850977 -0.50539786 0.9385072
-15.7975 -1.3932031 -0.505418 0.93850464
-15.813906 -1.1945996 -0.50542164 0.9385041
-14.576445 0.36640623 -0.50513321 0.94331104
-14.570546 0.54953122 -0.50513166 0.94331163
-14.562422 0.73260742 -0.50512964 0.94331187
-14.55207 0.91552734 -0.50512701 0.94331187
-14.539335 1.09833 -0.50512385 0.94331217
-14.524258 1.2809179 -0.50512016 0.94331264
-14.506875 1.4633105 -0.50511593 0.94331318
-14.465254 1.827373 -0.50510591 0.94331419
-14.385586 2.3711913 -0.5050869 0.94331616
-14.320937 2.7318456 -0.50507152 0.94331813
-14.285274 2.9115527 -0.50506306 0.94331896
-14.247285 3.0907714 -0.50505406 0.94331998
-14.20707 3.2695117 -0.50504452 0.94332093
-14.164648 3.447705 -0.50503457 0.94332182
-14.072812 3.8023925 -0.50501287 0.94332463
-13.918554 4.3298044 -0.50497657 0.94332838
-13.804648 4.677959 -0.50494981 0.94333118
-13.744394 4.8509178 -0.50493568 0.94333273
-1.7818359 0.67967772 -0.066065632 0.99239624
-1.781875 0.70545894 -0.066391066 0.99235898
-1.7293359 0.70994139 -0.064761616 0.9925459
-1.6127539 0.70994139 -0.061043967 0.9929722
-1.5593359 0.70993161 -0.059354398 0.99316597
-1.4608203 0.70993161 -0.056266632 0.99352044
-1.4152734 0.70994139 -0.054852828 0.9936828
-1.3720312 0.70993161 -0.053516157 0.9938361
-1.3307812 0.70994139 -0.052251816 0.9939813
-1.253828 0.70994139 -0.049916036 0.99424964
-1.1834375 0.70993161 -0.04780937 0.99449176
-1.0589453 0.70993161 -0.044166069 0.99491036
-1.0348437 0.77187496 -0.044723321 0.99484622
-1.0347265 0.79221678 -0.045146558 0.99479777
-1.0346484 0.81298828 -0.045584831 0.99474728
-1.0345703 0.83416015 -0.046039198 0.99469507
-1.0344532 0.85575193 -0.046509817 0.99464107
-1.0342578 0.90031248 -0.047503583 0.99452686
-1.0341406 0.92332029 -0.048027877 0.99446666
-8.121953 8.2246094 -0.40044144 0.95479012
-7.9114842 8.4248629 -0.400381 0.95479685
-7.8044138 8.5229588 -0.40035033 0.95480019
-7.6960936 8.6196775 -0.4003194 0.95480365
-7.5865622 8.7150192 -0.40028808 0.95480716
-7.4758592 8.8089647 -0.40025711 0.95481062
-7.2509961 8.9926367 -0.40019453 0.95481759
-2.8183985 3.6809375 -0.16060726 0.9816159
-6.5151563 9.9865036 -0.41308188 0.95339698
-2.2089648 3.579375 -0.14571373 0.98330635
-2.1622264 3.6041796 -0.14560702 0.98331857
-5.7419138 10.444394 -0.41290224 0.95341659
-5.3429489 10.650947 -0.41280964 0.95342702
-5.2083006 10.716445 -0.41277832 0.95343041
-4.9366016 10.842304 -0.41271523 0.95343733
-4.5233984 11.018106 -0.41261932 0.95344788
-4.3842187 11.073203 -0.41258702 0.95345145
-4.2443943 11.126533 -0.41255453 0.95345509
-3.6788476 11.322139 -0.41242331 0.95346951
-3.3926172 11.409169 -0.41235685 0.95347685
-2.3758202 11.656465 -0.41212103 0.95350271
-2.2289453 11.684375 -0.41208702 0.95350671
-2.0817578 11.710507 -0.41205287 0.9535104
-1.9342968 11.734804 -0.41201866 0.95351404
-1.6174219 10.644355 -0.37298888 0.95782328
-1.3442578 10.640761 -0.37156186 0.95798123
-1.2084374 10.638965 -0.37093955 0.95805013
-1.0730078 10.637168 -0.37037879 0.9581123
-0.80332029 10.633613 -0.36943421 0.95821679
-0.66890621 10.631836 -0.36905119 0.95825917
-0.2986328 7.9177928 -0.27449414 0.96878487
-0.19902344 7.9164648 -0.27434066 0.96880215
-0.099492185 7.9151754 -0.27422896 0.96881443
-3.9062499e-05 7.9138474 -0.27416238 0.968822
0.099414058 7.912539 -0.27413818 0.96882463
0.70515621 7.9957027 -0.27807337 0.96838433
0.90785152 7.9930272 -0.27868581 0.96831584
1.2139062 7.9889841 -0.27994257 0.96817529
1.731621 7.9821482 -0.28296143 0.96783769
2.025039 7.8871384 -0.28210101 0.96793401
2.1306641 7.8857517 -0.28298587 0.96783495
2.3439844 7.8829393 -0.28490955 0.9676199
3.0383203 7.9649119 -0.29532722 0.96645606
3.2686327 7.9618845 -0.29816666 0.96613902
3.3855078 7.9603415 -0.29967806 0.96597028
3.5035937 7.9587793 -0.30125284 0.96579456
3.7436328 7.955615 -0.30459958 0.9654212
3.865664 7.9539938 -0.30637383 0.96522343
3.9891796 7.952373 -0.30821794 0.9650178
4.1142187 7.9507322 -0.31013268 0.96480423
4.2408204 7.9490523 -0.3121222 0.96458256
4.3384767 7.8916988 -0.31198636 0.96459776
4.5781446 7.8534765 -0.31492528 0.96427029
4.7103319 7.8517184 -0.31720415 0.96401644
4.8444529 7.8499608 -0.31956741 0.96375328
4.9805861 7.8481641 -0.32201621 0.96348059
5.1778517 7.9367285 -0.32829359 0.96278203
5.319922 7.9348536 -0.33095625 0.96248609
5.7607813 7.9290328 -0.33953381 0.96153259
6.0678906 7.9249902 -0.34578285 0.96083862
6.2257419 7.9229198 -0.34907782 0.96047288
6.3866796 7.9207907 -0.35249281 0.96009403
6.6418552 7.8262887 -0.35560435 0.95974886
7.1601758 7.8194528 -0.36730528 0.95845252
7.4863281 7.972158 -0.37886789 0.95717311
7.6747265 7.9696579 -0.38330024 0.9566828
8.5130463 8.1980171 -0.40943825 0.95379853
8.9121876 7.758203 -0.40934622 0.95380867
9.0084763 7.6451464 -0.40932405 0.95381123
9.1033592 7.5309372 -0.40930223 0.95381361
9.1968355 7.4155955 -0.40928066 0.95381576
8.9972267 7.0699606 -0.3964133 0.95523483
1.2646484 0.9433105 -0.054657895 0.99370527
1.2647461 0.91887695 -0.054158706 0.99376255
1.2650195 0.84812498 -0.052763291 0.99392283
1.2652344 0.78083009 -0.051508635 0.99406701
1.2655078 0.71656251 -0.050381698 0.99419624
1.2913672 0.70993161 -0.051053237 0.99411923
1.3307031 0.70995116 -0.052251775 0.9939816
1.3719531 0.70992184 -0.0535165 0.9938364
1.4607812 0.70994139 -0.056266859 0.99352056
1.5592577 0.70993161 -0.059354514 0.99316627
1.6126952 0.70993161 -0.061044157 0.99297243
1.8611327 0.70992184 -0.069007605 0.99205917
10.914062 3.3951757 -0.39597309 0.95528334
11.346425 3.065742 -0.40717533 0.95404786
11.893887 3.0538182 -0.42541006 0.95204008
12.492734 3.0407813 -0.44542858 0.9498409
13.173906 3.0317578 -0.46831915 0.9473322
13.929257 3.0217967 -0.49378118 0.94454944
14.099179 2.8736327 -0.49848655 0.94403625
14.134004 2.6961913 -0.49847868 0.9440369
14.166504 2.5183399 -0.49847135 0.94403791
14.224921 2.1614745 -0.49845818 0.94403946
14.25082 1.9825195 -0.49845237 0.94404
14.274472 1.803291 -0.49844709 0.94404048
14.295859 1.62375 -0.49844232 0.94404101
14.331894 1.263955 -0.49843436 0.94404203
14.346601 1.0837598 -0.49843115 0.94404215
14.358984 0.90336913 -0.49842843 0.94404256
14.369141 0.72286129 -0.49842632 0.9440428
14.376992 0.54223633 -0.49842468 0.94404316
14.387187 -9.7656248e-06 -0.49842289 0.94404328
14.369219 -0.72291017 -0.49842784 0.9440425
14.359043 -0.90338868 -0.4984304 0.94404233
14.331992 -1.2639648 -0.49843702 0.94404161
14.27455 -1.8033105 -0.49845091 0.94404018
14.250937 -1.9825586 -0.49845657 0.94403952
14.225117 -2.1615136 -0.49846274 0.94403869
14.13414 -2.69625 -0.4984844 0.94403636
14.099375 -2.8736815 -0.49849266 0.94403547
13.938242 -3.5787597 -0.49853072 0.94403136
13.892461 -3.753701 -0.4985415 0.94403017
13.794374 -4.1018162 -0.4985646 0.94402772
2.0124609 -0.71030271 -0.073934935 0.99149472
1.9337109 -0.70997071 -0.071363598 0.99178922
1.8610938 -0.70996094 -0.069006845 0.99205929
1.7930859 -0.70997071 -0.066811599 0.992311
1.7292968 -0.70996094 -0.064761654 0.99254596
1.4152539 -0.70996094 -0.05485256 0.99368286
1.3719531 -0.70997071 -0.053516235 0.99383628
1.3307031 -0.70996094 -0.052251395 0.99398154
1.2913672 -0.70997071 -0.051052969 0.99411917
1.2654687 -0.716582 -0.050381582 0.99419636
1.2651953 -0.80293941 -0.051912114 0.99402046
1.265 -0.84816402 -0.052763365 0.99392277
1.2649219 -0.87133789 -0.053211898 0.99387121
1.2646484 -0.94333982 -0.054657821 0.99370521
9.0889063 -6.9590526 -0.39656809 0.95521772
6.6038671 -5.324863 -0.29388702 0.96661663
6.4569139 -5.3416505 -0.29031578 0.96701598
6.2635546 -5.5924315 -0.29089668 0.96695083
8.4455862 -7.7335644 -0.39671794 0.95520115
8.3481836 -7.8395309 -0.39674065 0.95519876
8.1495314 -8.0477533 -0.3967869 0.95519358
7.7367187 -8.4491205 -0.39688295 0.95518303
7.6304297 -8.5462303 -0.39690769 0.95518023
7.5229492 -8.6419916 -0.39693266 0.95517731
7.4142184 -8.7363958 -0.39695799 0.95517457
7.1932616 -8.9211226 -0.39700937 0.95516884
7.1289258 -9.8122463 -0.42017365 0.9526161
7.0055661 -9.9016991 -0.42020231 0.95261294
6.6287694 -10.16084 -0.4202899 0.95260328
6.3722458 -10.325664 -0.42034948 0.95259672
6.1116014 -10.484062 -0.42041007 0.95259011
5.5787888 -10.781064 -0.42053381 0.9525764
5.4432421 -10.851093 -0.42056534 0.95257312
5.3068943 -10.919512 -0.42059699 0.95256943
5.1696677 -10.986152 -0.42062888 0.95256591
4.6125388 -11.235449 -0.42075819 0.95255184
4.3294139 -11.349668 -0.42082396 0.95254427
4.0434766 -11.456601 -0.4208903 0.9525373
3.899492 -11.507461 -0.42092368 0.95253348
3.6096678 -11.603682 -0.42099097 0.95252603
3.4638476 -11.649053 -0.42102477 0.95252234
3.3174608 -11.692607 -0.42105871 0.95251858
3.1705468 -11.734355 -0.42109284 0.95251471
2.5777733 -11.882627 -0.42123035 0.95249993
2.2787499 -11.945674 -0.42129967 0.95249206
2.1286132 -11.974355 -0.42133448 0.95248824
1.9781641 -12.001133 -0.4213694 0.95248449
1.2211914 -12.106699 -0.42154488 0.95246518
0.61154294 -12.156856 -0.4216862 0.95244956
0.15296875 -12.174335 -0.42179245 0.95243788
0 -12.176309 -0.42182791 0.952434
-0.11632812 -9.2554197 -0.32066321 0.96363103
-0.76490235 -12.157412 -0.42200512 0.95241439
-1.070371 -12.136406 -0.42207587 0.95240653
-1.3752539 -12.107676 -0.42214644 0.95239884
-1.5274218 -12.090439 -0.4221817 0.95239502
-1.6793554 -12.071347 -0.42221689 0.95239097
-2.1336718 -12.002402 -0.42232206 0.95237958
-2.2845116 -11.975615 -0.42235702 0.95237583
-2.4349999 -11.946992 -0.42239183 0.95237184
-2.5851562 -11.916406 -0.42242658 0.95236814
-2.7349219 -11.883945 -0.42246127 0.95236433
-3.1816602 -11.775361 -0.42256466 0.95235276
-3.3296483 -11.735391 -0.4225989 0.95234901
-2.7418554 -9.2207909 -0.33326221 0.96222949
-3.6241014 -11.649882 -0.422667 0.95234156
-3.7705078 -11.604355 -0.42270094 0.9523378
-4.0615625 -11.507773 -0.42276824 0.95233041
-4.206172 -11.456728 -0.4228017 0.95232677
-4.3501759 -11.403867 -0.42283499 0.95232308
-4.4934764 -11.34916 -0.42286813 0.9523195
-4.6360936 -11.292695 -0.42290109 0.95231587
-4.919199 -11.174404 -0.4229666 0.95230842
-5.1992579 -11.048945 -0.42303133 0.95230132
-5.3380661 -10.983535 -0.42306343 0.95229799
-5.6132617 -10.847578 -0.42312706 0.95229083
-5.7495508 -10.776943 -0.42315856 0.95228755
-6.1530075 -10.554922 -0.42325178 0.95227724
-6.2856445 -10.477558 -0.42328247 0.95227367
-6.5478516 -10.317773 -0.42334303 0.95226711
-6.6774998 -10.2354 -0.42337298 0.95226371
-6.8060155 -10.151367 -0.42340267 0.95226067
-7.309453 -9.7992573 -0.42351893 0.95224798
-7.5544529 -9.6137981 -0.42357552 0.95224154
-7.6751561 -9.5186911 -0.42360336 0.95223862
-7.9129686 -9.3240423 -0.42365825 0.95223248
-8.1243162 -8.2270603 -0.40055764 0.95477712
-8.2275 -8.1247654 -0.40058142 0.95477474
-1.0340625 -0.94685543 -0.048571814 0.99440402
-1.0345703 -0.83417964 -0.046039123 0.99469501
-1.0348243 -0.77188474 -0.044723433 0.99484622
-1.0349219 -0.75189453 -0.044314954 0.99489313
-1.0349804 -0.73226559 -0.043920975 0.99493849
-1.0350391 -0.71296871 -0.043540344 0.9949823
-1.0882422 -0.70996094 -0.045013085 0.99481297
-1.1834375 -0.70995116 -0.04780918 0.9944917
-1.2178711 -0.70995116 -0.048835982 0.99437374
-1.2538671 -0.70997071 -0.049915884 0.99424946
-1.3719921 -0.70996094 -0.053516235 0.99383616
-1.4607812 -0.70996094 -0.056266326 0.9935205
-1.50875 -0.70997071 -0.057764623 0.99334842
-1.5592968 -0.70997071 -0.059354171 0.99316609
-1.6127343 -0.70997071 -0.061043929 0.9929722
-1.6692969 -0.70996094 -0.062842637 0.99276596
-1.7293359 -0.70997071 -0.064760968 0.99254584
-1.781875 -0.70548826 -0.066391066 0.99235892
-1.7817578 -0.65416014 -0.06575378 0.99243206
-13.178828 -4.6513281 -0.48415869 0.94559985
-13.702754 -4.6434665 -0.50122333 0.94373745
-13.862988 -4.504365 -0.50497311 0.94332856
-13.9725 -4.1547656 -0.50499815 0.94332582
-14.023945 -3.978955 -0.50500989 0.94332451
-14.073086 -3.8024902 -0.50502104 0.94332355
-14.285429 -2.9116015 -0.50506932 0.94331831
-14.321152 -2.731914 -0.50507736 0.94331729
-14.354589 -2.5517871 -0.50508493 0.9433164
-14.414531 -2.1902831 -0.50509846 0.94331509
-14.487305 -1.645498 -0.50511473 0.9433133
-14.524258 -1.2809277 -0.5051229 0.94331264
-14.539374 -1.09833 -0.50512624 0.94331199
-14.552109 -0.91554683 -0.50512898 0.94331169
-14.5625 -0.73260742 -0.50513119 0.94331157
-14.579922 -0.18323241 -0.50513458 0.94331098
-13.476171 0.67793941 -0.50487798 0.94742203
-13.454726 1.016377 -0.50487268 0.94742262
-13.44082 1.1853515 -0.50486928 0.94742292
-13.424766 1.3541504 -0.50486535 0.94742328
-13.38623 1.6910644 -0.50485605 0.94742429
-13.363809 1.8591309 -0.50485069 0.94742471
-13.33916 2.026875 -0.50484478 0.9474256
-13.3125 2.1943262 -0.50483841 0.94742614
-13.283691 2.3613868 -0.50483155 0.94742686
-13.252812 2.5280957 -0.50482422 0.94742745
-13.14748 3.0256445 -0.50479931 0.9474299
-12.880586 4.0069141 -0.50473642 0.94743639
-12.828886 4.1683302 -0.50472432 0.9474377
-1.7826171 0.65443361 -0.071052857 0.99242771
-1.7826757 0.67999023 -0.071390033 0.99239188
-1.7827538 0.70581055 -0.071741939 0.99235445
-1.6693554 0.70993161 -0.067874871 0.99276507
-1.6127539 0.70994139 -0.065932117 0.99297148
-1.50875 0.70994139 -0.062390249 0.99334782
-1.2914063 0.70992184 -0.055141181 0.99411851
-1.253828 0.70994139 -0.053912923 0.99424911
-1.2178906 0.70995116 -0.05274681 0.99437308
-1.1504296 0.70994139 -0.050581891 0.9946034
-1.0589453 0.70993161 -0.047702521 0.99490982
-1.0342969 0.73174804 -0.047405891 0.99494141
-1.0341992 0.75136715 -0.047831114 0.99489617
-1.0340234 0.79168946 -0.048727948 0.99480075
-1.0339062 0.81243163 -0.049200669 0.9947505
-1.0338281 0.83358395 -0.049690664 0.99469829
-1.0336328 0.87716794 -0.050724525 0.99458826
-1.033496 0.8996582 -0.051270064 0.99453032
-1.0332812 0.94613278 -0.052422065 0.99440771
-7.4198828 7.7049899 -0.40024504 0.95808655
-7.3219919 7.7971191 -0.40021941 0.95808923
-7.2229881 7.8880076 -0.40019339 0.9580918
-7.1228514 7.9776168 -0.40016696 0.95809448
-6.9191794 8.1529884 -0.40011284 0.95810008
-6.7111716 8.3231153 -0.40005577 0.95810586
-2.8835938 3.6696289 -0.17462809 0.98149216
-2.8173828 3.6796288 -0.17340618 0.98162055
-2.6312695 3.8199022 -0.17355892 0.98160452
-6.0305467 9.2436619 -0.41297042 0.95678324
-2.2089648 3.579375 -0.15738106 0.98330468
-5.3149219 9.6677828 -0.41280413 0.95680028
-5.1926951 9.7331543 -0.41277575 0.95680308
-5.0696483 9.7969427 -0.41274717 0.956806
-4.9457812 9.8591795 -0.41271842 0.95680904
-4.8211327 9.9198627 -0.41268948 0.95681202
-4.5697069 10.036465 -0.41263106 0.95681792
-4.1872654 10.199346 -0.41254228 0.95682716
-3.6684766 10.393827 -0.41242185 0.95683938
-3.2733788 10.522344 -0.41233021 0.95684886
-3.1406641 10.561846 -0.41229942 0.95685208
-3.0074608 10.599677 -0.41226852 0.95685524
