# .PCD v0.7 - Point Cloud Data file format
VERSION 0.7
FIELDS x y z intensity
SIZE 4 4 4 4
TYPE F F F F
COUNT 1 1 1 1
WIDTH 1084
HEIGHT 1
VIEWPOINT 0 0 0 1 0 0 0
POINTS 1084
DATA ascii
3.949785 3.9997461 -0.39777389 0.97771084
4.0488672 3.8990526 -0.39775673 0.9777118
4.1454101 3.7959278 -0.39774024 0.97771263
4.1926951 3.7434568 -0.39773223 0.97771311
4.239336 3.6903906 -0.39772436 0.97771353
4.2852736 3.6367772 -0.39771673 0.977714
4.3305469 3.5825779 -0.39770928 0.97771442
4.3751559 3.5277929 -0.39770195 0.97771484
1.2539062 0.88716793 -0.10869068 0.99385947
1.2540624 0.86386716 -0.10775753 0.99391216
1.2542578 0.84092772 -0.10685631 0.99396288
1.2545898 0.79619139 -0.10514679 0.99405921
1.2549218 0.75285155 -0.10355446 0.99414885
1.2552148 0.71074218 -0.10207241 0.99423242
1.3307421 0.70995116 -0.10672867 0.99397004
1.4152539 0.70995116 -0.11204178 0.99367088
1.4607812 0.70997071 -0.11492977 0.99350822
1.5592968 0.70996094 -0.12123714 0.99315315
1.6127343 0.70996094 -0.12468792 0.9929589
1.7292968 0.70995116 -0.13228115 0.9925319
1.7931249 0.70995116 -0.13646919 0.99229634
1.9337499 0.70995116 -0.14576744 0.99177361
2.0236914 0.71425778 -0.15185882 0.9914313
2.023711 0.68576169 -0.15120067 0.99146825
2.023711 0.65754879 -0.15057163 0.9915036
6.7508593 2.1000879 -0.50028563 0.97204751
6.7766404 2.0150487 -0.50028014 0.97204787
6.8249998 1.8440918 -0.50026983 0.9720484
6.8690233 1.6719629 -0.50026047 0.97204906
6.94416 1.3246679 -0.50024456 0.97204983
7.0134373 0.88601559 -0.50023001 0.97205061
7.0239844 0.79781246 -0.50022781 0.97205073
7.055078 0.4438867 -0.50022143 0.9720512
7.0640039 0.26643553 -0.5002197 0.9720512
7.0667772 0.17763671 -0.50021917 0.97205126
7.0690231 -9.7656248e-06 -0.50021887 0.9720512
7.0667772 -0.17764647 -0.50021958 0.97205126
7.0601172 -0.35517576 -0.50022119 0.97205114
7.0417771 -0.62102538 -0.50022542 0.97205085
7.0334568 -0.70947266 -0.50022733 0.97205073
7.024004 -0.7977832 -0.50022948 0.97205067
7.0134764 -0.88600582 -0.50023186 0.97205043
7.0017967 -0.97407222 -0.50023454 0.97205043
6.9890623 -1.0619824 -0.50023735 0.97205019
6.9751949 -1.1497167 -0.50024045 0.97205007
6.9602342 -1.2373047 -0.50024378 0.97204989
6.9270701 -1.4118359 -0.50025117 0.97204942
6.9088278 -1.4987891 -0.50025523 0.97204924
6.8895311 -1.585498 -0.50025952 0.97204888
6.8014255 -1.9297363 -0.50027895 0.97204787
6.7509179 -2.1000781 -0.5002901 0.97204733
2.0236914 -0.65753907 -0.15057175 0.99150366
2.023711 -0.714248 -0.15185848 0.99143124
1.8610938 -0.70993161 -0.14095291 0.99204427
1.7930859 -0.70995116 -0.13646789 0.99229646
1.6126952 -0.70994139 -0.12468716 0.99295908
1.5592968 -0.70992184 -0.12123623 0.99315321
1.4607617 -0.70993161 -0.11492901 0.99350834
1.4152734 -0.70993161 -0.11204097 0.99367088
1.3307421 -0.70993161 -0.10672802 0.9939701
1.2913672 -0.70994139 -0.10428005 0.99410808
1.2550781 -0.73165035 -0.10280006 0.99419135
1.2545898 -0.79619139 -0.10514706 0.99405921
1.2544335 -0.81837887 -0.10598644 0.99401188
1.2540624 -0.86382812 -0.1077573 0.99391222
1.2537109 -0.91085935 -0.1096577 0.99380511
1.2535156 -0.935 -0.1106591 0.99374872
5.5619531 -4.3705468 -0.50055027 0.97203302
5.5067186 -4.4402146 -0.50056225 0.97203237
5.4506445 -4.5091505 -0.50057453 0.97203165
5.3937106 -4.5774317 -0.50058693 0.97203082
5.2177343 -4.7778025 -0.50062531 0.97202885
5.157402 -4.8431444 -0.50063843 0.97202814
5.0840235 -4.8958883 -0.49944767 0.9720937
4.9560938 -4.8942089 -0.49288413 0.97245538
4.8314452 -4.8925681 -0.48656499 0.97280371
4.7099609 -4.8909669 -0.48048061 0.97313911
4.5914454 -4.8894043 -0.47462177 0.97346228
4.4757614 -4.8878808 -0.46897671 0.97377372
4.2524023 -4.8849216 -0.45829299 0.97436345
4.144453 -4.8834958 -0.45323771 0.97464263
3.8341992 -4.8794141 -0.43912363 0.9754225
3.6377149 -4.8768358 -0.43052518 0.97589791
3.1800976 -4.8745604 -0.41184813 0.97693133
3.0941014 -4.8755469 -0.40861443 0.97711045
3.009414 -4.8764844 -0.40549049 0.97728336
2.5855858 -4.9966407 -0.39810631 0.97769237
2.5226562 -5.0289159 -0.39811999 0.97769165
2.3316016 -5.1209373 -0.3981615 0.97768933
2.1371484 -5.2057419 -0.39820373 0.977687
2.0716405 -5.2323632 -0.39821801 0.97768623
2.0057812 -5.258193 -0.39823231 0.97768539
1.9396093 -5.283164 -0.39824668 0.97768462
1.8063672 -5.3306251 -0.39827558 0.97768301
1.7392968 -5.3530955 -0.39829016 0.97768223
1.6719531 -5.3747263 -0.39830479 0.9776814
1.6043555 -5.3955078 -0.39831945 0.97768062
1.5364844 -5.4154491 -0.39833418 0.97767979
1.4683594 -5.4345312 -0.39834899 0.97767895
1.3314453 -5.4701366 -0.3983787 0.97767723
1.1244531 -5.5170212 -0.39842361 0.9776749
1.0550781 -5.5309567 -0.39843866 0.97767395
0.9158203 -5.5561328 -0.39846888 0.97767228
0.84593749 -5.5674119 -0.39848402 0.9776715
0.77595699 -5.5778222 -0.39849922 0.97767061
0.70583981 -5.5873532 -0.39851448 0.97766972
0.49478516 -5.6106248 -0.39856026 0.97766721
0.42427734 -5.616611 -0.39857551 0.97766638
0.2830078 -5.6259179 -0.39860615 0.97766477
0.14156249 -5.6316895 -0.39863682 0.97766304
0.070800781 -5.6332321 -0.3986522 0.97766221
-0.070800781 -5.6336813 -0.39868286 0.97766048
-0.28312498 -5.627656 -0.39872891 0.97765791
-0.35384765 -5.6238961 -0.3987442 0.97765696
-0.49509764 -5.6136422 -0.39877483 0.97765535
-0.56562501 -5.6072068 -0.39879009 0.9776544
-0.63605469 -5.5998435 -0.39880535 0.97765368
-0.70640624 -5.5916405 -0.39882061 0.97765279
-0.7766211 -5.5825291 -0.39883581 0.97765195
-1.1258594 -5.5237989 -0.39891142 0.97764772
-1.1951953 -5.5094237 -0.39892647 0.97764695
-1.2644141 -5.4941697 -0.39894146 0.97764611
-1.4021875 -5.4610839 -0.39897129 0.97764438
-1.5390821 -5.4245114 -0.39900091 0.97764283
-1.6072069 -5.4049511 -0.39901569 0.97764194
-1.7426171 -5.3632517 -0.39904499 0.97764033
-1.8769921 -5.3181543 -0.39907408 0.97763872
-1.9437499 -5.2943358 -0.3990885 0.97763795
-2.0101953 -5.2696872 -0.3991029 0.97763711
-2.2727735 -5.162744 -0.3991597 0.97763401
-2.401953 -5.1043844 -0.39918765 0.9776324
-2.5296483 -5.0427442 -0.39921522 0.97763091
-2.5937891 -5.0124707 -0.39936686 0.97762251
-2.7182031 -4.9443359 -0.39925605 0.97762859
-2.8417969 -4.8747754 -0.39928275 0.9776271
-2.9028904 -4.8388672 -0.39929596 0.97762638
-2.9664648 -4.8068261 -0.39969888 0.97760409
-3.0486913 -4.8039355 -0.40261349 0.97744274
-3.216836 -4.7979393 -0.40875769 0.97710234
-3.3901367 -4.7915821 -0.41534409 0.97673768
-3.4789062 -4.7882714 -0.4188129 0.97654563
-3.6643944 -4.7858591 -0.42652574 0.97611898
-3.8570702 -4.783545 -0.4348217 0.9756602
-3.9563282 -4.7823439 -0.43919784 0.97541821
-4.1609569 -4.7798634 -0.4484365 0.97490782
-4.5979686 -4.7746191 -0.46905121 0.97376949
-4.8321486 -4.7717967 -0.48055437 0.97313493
-1.0245703 -0.89189452 -0.096123353 0.99456769
-1.025 -0.84791988 -0.094130859 0.99467987
-1.0253515 -0.80569333 -0.092275769 0.99478447
-1.0257031 -0.76507813 -0.090547405 0.99488187
-1.0258594 -0.74530274 -0.08972767 0.99492818
-1.0260156 -0.72591794 -0.0889365 0.99497271
-1.0589062 -0.70993161 -0.090212591 0.99490082
-1.0882226 -0.70994139 -0.09194313 0.99480325
-1.1186913 -0.70993161 -0.093756214 0.99470109
-1.1503906 -0.70994139 -0.095658146 0.99459386
-1.2913672 -0.70995116 -0.10427986 0.99410808
-1.3307421 -0.70994139 -0.10672775 0.9939701
-1.4607812 -0.70993161 -0.11492886 0.99350828
-1.5087304 -0.70994139 -0.117989 0.99333596
-1.6693164 -0.70993161 -0.12836128 0.99275219
-1.7292968 -0.70994139 -0.13228023 0.9925319
-1.793164 -0.70994139 -0.13646835 0.99229616
-1.7930468 -0.68396485 -0.13579535 0.99233407
-6.7633982 -2.1975586 -0.50321984 0.9718858
-6.8166404 -2.026953 -0.50323117 0.9718852
-6.8883982 -1.768623 -0.50324649 0.97188437
-6.9101758 -1.6819433 -0.50325108 0.97188401
-6.9687891 -1.420332 -0.50326353 0.97188348
-6.9861326 -1.3326757 -0.50326723 0.9718833
-7.0024023 -1.2447851 -0.50327063 0.971883
-7.0444531 -0.98000973 -0.50327951 0.97188252
-7.0764842 -0.71379882 -0.50328612 0.97188216
-7.0849023 -0.62482423 -0.50328785 0.97188216
-7.0922265 -0.53574216 -0.50328934 0.97188199
-7.1034765 -0.35735351 -0.50329161 0.97188193
-7.1102734 -0.17873046 -0.50329286 0.97188169
-7.1119332 -0.089365229 -0.50329316 0.97188175
-6.8337107 0.34378904 -0.50323236 0.97292984
-6.8228707 0.51542968 -0.50322986 0.97292995
-6.7041211 1.366416 -0.50320321 0.97293139
-6.686367 1.4505371 -0.50319928 0.97293156
-6.6267967 1.7014745 -0.50318605 0.97293222
-6.6048045 1.7845995 -0.50318122 0.97293252
-6.5326562 2.0321972 -0.5031653 0.97293335
-6.4793749 2.1956542 -0.50315362 0.97293395
-6.4511719 2.2768848 -0.50314736 0.97293437
-1.7939062 0.6843164 -0.14120823 0.99232882
-1.7940234 0.71029294 -0.14190868 0.99229097
-1.7293164 0.70996094 -0.13748665 0.99253035
-1.6692969 0.70995116 -0.13341354 0.99275082
-1.50875 0.70995116 -0.12263298 0.99333453
-1.4607617 0.70995116 -0.11945244 0.99350703
-1.3307421 0.70994139 -0.11092842 0.99396884
-1.2538086 0.70996094 -0.10597038 0.99423766
-1.2178711 0.70995116 -0.10367771 0.99436194
-1.1504102 0.70997071 -0.099423103 0.99459267
-1.0589257 0.70996094 -0.093763351 0.99489969
-1.0306641 0.70995116 -0.092045404 0.99499297
-1.0249609 0.76458007 -0.094046742 0.99488443
-1.0246289 0.80516601 -0.095840983 0.99478704
-1.0242773 0.84734374 -0.097766683 0.99468249
-1.0240821 0.86908203 -0.098782003 0.99462736
-1.0236328 0.91395503 -0.10092529 0.99451119
-1.0234179 0.93711913 -0.10205612 0.99444985
-3.8648436 3.8165624 -0.39948055 0.97845018
-3.8164451 3.864707 -0.39946792 0.97845089
-3.7674608 3.9122264 -0.39945519 0.97845161
-3.428828 3.6513379 -0.36838856 0.9801107
-3.3447657 3.6527538 -0.36425951 0.98033136
-3.2683983 3.660625 -0.36092257 0.98050982
-3.0680077 3.8049512 -0.35947981 0.98058701
-3.0401952 3.9707031 -0.36780632 0.98014206
-3.0796874 4.4709277 -0.39928123 0.97846085
-2.9086719 4.5833201 -0.39923915 0.97846317
-2.6146874 4.756074 -0.39916778 0.97846693
-2.5546093 4.7883787 -0.39915329 0.9784677
-2.4332812 4.8507128 -0.39912421 0.97846931
-2.3720703 4.8807325 -0.39910963 0.97847003
-2.2485156 4.9384375 -0.39908028 0.97847158
-2.1861913 4.9661231 -0.39906549 0.97847235
-2.1235547 4.9930177 -0.39905074 0.97847313
-2.0605469 5.0191212 -0.39903587 0.97847396
-1.9972265 5.044414 -0.39902103 0.9784748
-1.9336327 5.0689454 -0.39900616 0.97847551
-1.8054687 5.1155372 -0.39897627 0.97847718
-1.7409766 5.1376367 -0.39896134 0.97847795
-1.6112109 5.1793747 -0.39893126 0.97847956
-1.2162499 5.2848239 -0.39884084 0.97848433
-1.0829687 5.3133202 -0.39881065 0.97848594
-0.88179684 5.3497362 -0.39876536 0.9784885
-0.74707031 5.3698239 -0.3987352 0.97849
-0.67949218 5.3785739 -0.39872012 0.97849083
-0.6118359 5.3864746 -0.3987051 0.97849166
-0.47621092 5.3997459 -0.39867502 0.97849327
-0.40832031 5.4050975 -0.39866003 0.97849405
-0.34037107 5.4095898 -0.39864507 0.97849488
-0.27236328 5.4132419 -0.39863014 0.97849566
-0.20429687 5.4160352 -0.39861521 0.97849649
-0.13621093 5.4179883 -0.39860034 0.97849721
-0.068125002 5.4190626 -0.3985855 0.97849804
-1.953125e-05 5.4192772 -0.39857069 0.97849888
0.068085939 5.4186621 -0.3985559 0.97849959
0.13617188 5.4171481 -0.39854118 0.97850049
0.3401953 5.4075975 -0.39849722 0.97850275
0.54371095 5.3903418 -0.39845374 0.97850507
0.6789453 5.3745899 -0.39842504 0.97850662
0.88089842 5.3445997 -0.39838246 0.97850895
1.0148828 5.3204002 -0.39835441 0.97851044
1.0816602 5.3070507 -0.39834043 0.9785111
1.2145703 5.277822 -0.39831284 0.97851259
1.2807617 5.2619629 -0.39829913 0.97851336
1.3467187 5.2452731 -0.39828551 0.97851408
1.4125 5.2277637 -0.39827201 0.97851473
1.4780273 5.209414 -0.39825854 0.97851551
1.673164 5.1494923 -0.39821875 0.97851765
1.7376952 5.1278906 -0.39820567 0.97851831
1.8019335 5.1054883 -0.39819267 0.97851902
1.9294921 5.0582809 -0.39816698 0.97852039
2.1809766 4.9543066 -0.39811686 0.97852302
2.2429492 4.9263477 -0.39810461 0.97852379
2.4268358 4.8378806 -0.39806849 0.97852564
2.4873827 4.8068652 -0.39805666 0.97852623
2.666543 4.7092772 -0.398022 0.97852814
2.72541 4.6752734 -0.39801064 0.97852874
2.8418748 4.6050291 -0.39798838 0.97853005
2.9565625 4.5319333 -0.39796665 0.97853106
3.0132031 4.4942966 -0.39795595 0.97853166
3.0693555 4.4559569 -0.39794543 0.9785322
3.1801953 4.3771873 -0.39792475 0.97853333
3.2348633 4.3367677 -0.39791465 0.97853386
3.2890234 4.2956738 -0.39790466 0.9785344
3.3957617 4.2114453 -0.39788511 0.97853547
3.4483202 4.1683397 -0.39787555 0.97853607
3.5003905 4.1245899 -0.39786613 0.97853643
3.7028515 3.9431639 -0.39783004 0.97853833
3.8006053 3.8486912 -0.39781287 0.97853929
3.8485937 3.8005371 -0.39780453 0.97853976
3.8959374 3.7517869 -0.39779636 0.9785403
3.9427147 3.7024901 -0.39778835 0.9785406
4.0343747 3.6020899 -0.39777279 0.97854137
4.0792575 3.5510352 -0.39776522 0.97854179
4.2696872 3.3550975 -0.39937127 0.97845608
4.2937498 3.2875781 -0.39772716 0.97854382
1.2528515 0.91027343 -0.11389629 0.99380803
1.2532421 0.86328125 -0.11192405 0.99391496
1.2536328 0.81786132 -0.11008571 0.9940145
1.2537891 0.79569334 -0.10921436 0.99406183
1.2544141 0.71031249 -0.10602287 0.99423486
1.5086914 0.70995116 -0.12263313 0.99333477
1.6127343 0.70996094 -0.129595 0.99295753
1.6692773 0.70996094 -0.133414 0.99275088
1.7931249 0.70995116 -0.14183974 0.99229479
1.9337499 0.70994139 -0.15150367 0.991772
2.0236132 0.71421874 -0.15782943 0.99142992
2.0236328 0.68575191 -0.15714543 0.99146688
6.4959764 2.0207911 -0.50034094 0.97308326
6.5890427 1.6917676 -0.50032115 0.97308433
6.6096873 1.6088378 -0.50031674 0.97308469
6.6479297 1.4421972 -0.50030863 0.97308511
6.6974216 1.1905956 -0.5002982 0.97308564
6.7117968 1.1063281 -0.50029516 0.97308588
6.7251563 1.0218848 -0.50029236 0.97308594
6.7587891 0.76767576 -0.50028533 0.97308636
6.7678905 0.68269527 -0.50028348 0.97308636
6.7758985 0.59758788 -0.50028181 0.97308654
6.7828708 0.51239258 -0.50028038 0.97308654
6.7973437 0.25638673 -0.50027752 0.9730866
6.8016014 0.085468747 -0.5002768 0.97308677
6.8021483 1.953125e-05 -0.50027674 0.97308671
6.8000388 -0.17094727 -0.5002774 0.97308654
6.7973437 -0.2563574 -0.50027806 0.9730866
6.7828903 -0.51238281 -0.50028145 0.97308648
6.76791 -0.68268555 -0.50028491 0.9730863
6.7588282 -0.76767576 -0.500287 0.97308618
6.7374411 -0.9372949 -0.50029176 0.973086
6.6974607 -1.1905956 -0.50030071 0.97308546
6.6655078 -1.3585254 -0.5003078 0.97308517
6.6097264 -1.6088378 -0.50032014 0.97308451
6.5891013 -1.6917968 -0.50032473 0.97308409
6.5208006 -1.9389843 -0.50033981 0.9730835
6.4960155 -2.0207911 -0.50034523 0.97308308
2.0236328 -0.65752929 -0.15649219 0.99150223
2.0236328 -0.71421874 -0.15782948 0.99142987
1.8610938 -0.70993161 -0.14650001 0.99204272
1.7931249 -0.70993161 -0.14183868 0.99229479
1.7292968 -0.70993161 -0.1374858 0.99253047
1.6692578 -0.70994139 -0.13341297 0.992751
1.6126952 -0.70994139 -0.12959415 0.99295771
1.5592968 -0.70992184 -0.12600742 0.99315184
1.4152734 -0.70993161 -0.11645023 0.99366963
1.3307226 -0.70995116 -0.11092815 0.9939689
1.2542969 -0.73117185 -0.10677845 0.99419385
1.2541015 -0.75235349 -0.10756142 0.99415153
1.2539452 -0.77384764 -0.10837325 0.99410748
1.2537891 -0.79567379 -0.10921425 0.99406183
1.2536132 -0.81783199 -0.11008576 0.99401462
1.2532421 -0.8632617 -0.11192413 0.99391502
1.2526562 -0.93436521 -0.11493606 0.9937517
5.4041405 -4.1377635 -0.50058419 0.9730705
5.2447267 -4.3387985 -0.50061899 0.97306859
5.1898828 -4.4044919 -0.50063092 0.973068
5.1342969 -4.4694629 -0.50064307 0.97306722
5.0778122 -4.5337305 -0.50065541 0.97306675
4.844121 -4.7836132 -0.50070632 0.97306401
4.7837501 -4.8442383 -0.50071943 0.97306329
4.7099609 -4.8909669 -0.49939001 0.9731338
4.5914454 -4.8894043 -0.49329969 0.97345704
4.4757614 -4.8878808 -0.48743257 0.97376853
4.144453 -4.8835058 -0.47107416 0.97463763
4.0388279 -4.8821092 -0.46600655 0.97490704
3.9354491 -4.8807421 -0.46111923 0.97516692
3.7349803 -4.8781052 -0.45185614 0.97565967
3.5423045 -4.8755665 -0.44323325 0.97611856
3.1776171 -4.8707614 -0.42772171 0.97694457
3.090332 -4.8696094 -0.42417753 0.97713345
3.004492 -4.8684764 -0.42075628 0.97731572
2.9200585 -4.8674998 -0.41746798 0.97749102
2.8380272 -4.8683982 -0.41445288 0.97765177
2.757129 -4.8692579 -0.41154262 0.97780687
2.5207813 -4.8714647 -0.40340808 0.97824085
2.2433984 -4.9272656 -0.39818043 0.9785198
1.7380469 -5.1289744 -0.39829016 0.97851384
1.6735156 -5.1505957 -0.39830419 0.97851306
1.5436523 -5.1913767 -0.39833239 0.97851163
1.4783202 -5.2105565 -0.39834657 0.97851092
1.4128125 -5.2289062 -0.39836082 0.97851008
1.3470508 -5.2464552 -0.39837509 0.97850925
1.2810546 -5.2631345 -0.3983894 0.97850859
1.0818945 -5.3082614 -0.39843261 0.97850627
1.0151563 -5.3216405 -0.3984471 0.97850543
0.94822264 -5.3341699 -0.39846161 0.97850466
0.81394529 -5.3566895 -0.39849076 0.97850317
0.74660152 -5.3667088 -0.39850539 0.97850233
0.61152345 -5.38416 -0.39853469 0.97850084
0.47605467 -5.3982325 -0.39856407 0.97849923
0.40820312 -5.4039841 -0.39857879 0.97849846
0.27226561 -5.4129491 -0.39860824 0.97849685
0.20427734 -5.4161134 -0.39862299 0.97849613
0.1361914 -5.4184861 -0.39863777 0.97849524
-1.953125e-05 -5.4205856 -0.39866728 0.97849375
-0.068125002 -5.4203515 -0.39868206 0.97849298
-0.20433593 -5.4173436 -0.39871159 0.97849131
-0.34044921 -5.4108887 -0.39874107 0.97848982
-0.4763281 -5.4010253 -0.39877051 0.97848821
-0.54421872 -5.3948045 -0.39878523 0.97848743
-0.61195314 -5.3877439 -0.3987999 0.97848666
-0.81472653 -5.3614259 -0.39884382 0.97848433
-0.8820312 -5.350986 -0.3988584 0.9784835
-1.0163085 -5.3275099 -0.39888752 0.97848195
-1.2165234 -5.2860155 -0.39893085 0.97847956
-1.2828906 -5.2704883 -0.39894524 0.97847885
-1.3490624 -5.2541504 -0.39895958 0.97847807
-1.4150391 -5.2369432 -0.39897385 0.97847736
-1.4807421 -5.2189255 -0.39898807 0.9784767
-1.5462891 -5.2001171 -0.39900225 0.97847581
-1.6115625 -5.180459 -0.39901638 0.97847509
-1.8058593 -5.1165819 -0.39905846 0.97847283
-1.8700781 -5.0936718 -0.39907232 0.97847205
-1.9976171 -5.0454001 -0.39909995 0.97847062
-2.060957 -5.0200782 -0.3991136 0.97846985
-2.1866014 -4.967041 -0.39914081 0.97846842
-2.2489257 -4.9393358 -0.39915428 0.9784677
-2.3724999 -4.8815918 -0.39918101 0.97846627
-2.5665429 -4.8107324 -0.40101773 0.97836828
-2.6433594 -4.8081837 -0.40354142 0.97823352
-2.7210741 -4.8055563 -0.4061588 0.97809398
-2.7998438 -4.8028517 -0.40887129 0.97794926
-2.8796093 -4.8000584 -0.41168228 0.97779942
-3.0425389 -4.7942481 -0.41761133 0.97748327
-3.2123437 -4.7913084 -0.42425609 0.97712922
-3.2996483 -4.7902536 -0.4278006 0.97694033
-3.3884375 -4.7891989 -0.43147367 0.97674459
-3.47875 -4.7880955 -0.43528 0.97654194
-3.7598045 -4.7846971 -0.4475458 0.97588897
-4.0575585 -4.7811131 -0.4611972 0.97516274
-4.1609569 -4.7798634 -0.46608406 0.97490287
-4.2665625 -4.7786036 -0.47115189 0.97463351
-4.4849415 -4.7759571 -0.48185629 0.97406477
-4.597949 -4.7746387 -0.48750967 0.9737643
-4.7136521 -4.7732129 -0.49337608 0.97345281
-4.8321486 -4.7717967 -0.49946675 0.97312963
-4.9839258 -4.6802244 -0.50283676 0.97295088
-1.0235938 -0.91392577 -0.1009251 0.99451137
-1.0240234 -0.86905271 -0.098781966 0.99462765
-1.0242578 -0.84734374 -0.097766496 0.99468255
-1.0248437 -0.78465819 -0.094928056 0.99483651
-1.025 -0.76455075 -0.094046779 0.99488437
-1.0251952 -0.74481446 -0.093196027 0.99493045
-1.0306641 -0.70995116 -0.092044868 0.99499297
-1.0882226 -0.70994139 -0.09556137 0.99480224
-1.1186913 -0.70993161 -0.097446173 0.99470001
-1.1503906 -0.70994139 -0.099422418 0.99459279
-1.2178711 -0.70993161 -0.10367725 0.994362
-1.2538086 -0.70994139 -0.10596981 0.99423772
-1.2913672 -0.70995116 -0.10838371 0.99410689
-1.3719921 -0.70995116 -0.11361305 0.99382329
-1.4152539 -0.70994139 -0.11645035 0.99366969
-1.4607812 -0.70993161 -0.11945201 0.99350697
-1.5087304 -0.70994139 -0.12263241 0.99333465
-1.6127343 -0.70994139 -0.12959419 0.99295753
-1.7292968 -0.70994139 -0.137486 0.99253041
-1.793789 -0.6585449 -0.14053702 0.99236524
-6.4794531 -2.1956835 -0.50315827 0.97293365
-6.5327148 -2.032207 -0.50316966 0.97293311
-6.5577731 -1.9499706 -0.50317502 0.97293293
-6.5818748 -1.8674414 -0.50318015 0.97293246
-6.6864452 -1.4505273 -0.50320238 0.97293133
-6.7208591 -1.2820703 -0.50320965 0.97293097
-6.7364841 -1.1975098 -0.50321293 0.97293085
-6.7510352 -1.1127636 -0.50321603 0.97293067
-6.7645311 -1.0278418 -0.50321883 0.97293049
-6.788281 -0.85754883 -0.50322378 0.97293025
-6.7985349 -0.7721777 -0.50322592 0.97293025
-6.8077731 -0.68670899 -0.50322783 0.97292995
-6.8158593 -0.60108399 -0.5032295 0.97292995
-6.8337302 -0.34378904 -0.50323308 0.97292972
-6.8374996 -0.25786132 -0.50323385 0.97292978
-6.8402343 -0.17193359 -0.50323433 0.97292966
-6.5919528 -0 -0.50318033 0.97390205
-6.5898633 0.16566406 -0.50317967 0.97390211
-6.5872459 0.24845703 -0.50317901 0.97390217
-6.5789061 0.41392577 -0.50317705 0.97390223
-6.5664062 0.57911134 -0.50317419 0.97390229
-6.5288868 0.90829098 -0.50316566 0.97390282
-6.5169139 0.99024409 -0.50316304 0.973903
-6.5039062 1.0720605 -0.50316012 0.97390318
-6.4898825 1.1536816 -0.50315702 0.97390336
-6.4748435 1.2351464 -0.50315362 0.97390348
-6.4044137 1.5588574 -0.50313801 0.97390425
-6.3842578 1.6392187 -0.50313359 0.97390449
-6.3631248 1.719287 -0.50312889 0.97390461
-6.3409371 1.7991015 -0.503124 0.97390491
-6.3177538 1.8786132 -0.50311887 0.97390521
-6.215117 2.1935644 -0.50309628 0.97390634
-1.7948828 0.71065426 -0.14735603 0.99228567
-1.50875 0.70997071 -0.12727821 0.9933331
-1.4152734 0.70997071 -0.12086185 0.99366826
-1.2178711 0.70995116 -0.10760502 0.9943608
-1.1834375 0.70996094 -0.10534252 0.994479
-1.1504102 0.70997071 -0.1031892 0.99459153
-1.0589257 0.70996094 -0.097314984 0.99489862
-1.0241406 0.78413087 -0.09845642 0.99483895
-1.0237304 0.82545894 -0.10038288 0.99473834
-1.0235547 0.84674805 -0.10139858 0.99468511
-1.0233203 0.86847657 -0.10245075 0.99463016
-1.022871 0.91329098 -0.1046719 0.99451411
-3.8149998 3.5825195 -0.39947987 0.97922426
-3.7695701 3.6300683 -0.39946792 0.97922486
-3.6297655 3.7692285 -0.39943138 0.97922665
-3.3441014 3.6520214 -0.37798285 0.98033118
-3.2671483 3.6592381 -0.3744534 0.98051316
-3.1848438 3.6585741 -0.3702586 0.98072922
-3.0485156 3.6850195 -0.36506429 0.98099703
-3.0666406 3.8032324 -0.37292829 0.98059165
-3.0647461 3.9002049 -0.37863082 0.98029786
-2.669961 3.5794334 -0.34086621 0.98224539
-2.6183593 3.6038768 -0.34003237 0.98228836
-3.0211327 4.2700586 -0.39927721 0.97923481
-2.9126756 4.3443651 -0.39925042 0.97923613
-2.8577929 4.3804688 -0.39923689 0.97923672
-2.7466211 4.4506054 -0.39920971 0.97923809
-2.5766406 4.550488 -0.39916843 0.9792403
-2.5191796 4.582334 -0.39915454 0.97924101
-2.4030664 4.6438966 -0.39912665 0.97924238
-2.2854493 4.7024708 -0.39909855 0.97924387
-2.2260547 4.7306442 -0.39908439 0.97924471
-2.106328 4.7847266 -0.39905605 0.9792462
-1.8630078 4.8838282 -0.39899886 0.97924912
-1.8014452 4.9066892 -0.39898443 0.97924978
-1.6774218 4.9500389 -0.39895564 0.97925133
-1.3630664 5.0446873 -0.39888319 0.97925502
-1.1077343 5.1060448 -0.39882502 0.97925806
-1.0434375 5.1193943 -0.39881051 0.97925872
-0.84966797 5.1545215 -0.39876685 0.97926098
-0.78478515 5.1645899 -0.39875233 0.97926176
-0.5894922 5.1899509 -0.39870876 0.97926396
-0.45886716 5.2027245 -0.39867979 0.97926551
-0.32794923 5.2122459 -0.39865097 0.97926694
-0.26242188 5.2157712 -0.39863655 0.97926772
-0.13124999 5.2203512 -0.39860785 0.97926915
0.065624997 5.2210155 -0.39856505 0.97927141
0.13117187 5.2195702 -0.39855084 0.97927219
0.19675781 5.2173438 -0.39853668 0.97927284
0.4586328 5.2001171 -0.39848053 0.97927582
0.65421873 5.1786032 -0.39843893 0.97927791
0.71921873 5.169785 -0.39842522 0.97927868
0.91343749 5.1384959 -0.39838436 0.97928071
1.0422266 5.1135545 -0.39835745 0.97928214
1.1703125 5.0854197 -0.39833084 0.97928351
1.2976562 5.0540724 -0.39830452 0.97928482
1.3610156 5.0372071 -0.39829147 0.97928548
1.4241406 5.0195408 -0.3982785 0.97928619
1.5497656 4.9818454 -0.39825287 0.97928745
1.612168 4.9618063 -0.39824015 0.97928822
1.7362499 4.9194236 -0.39821503 0.97928947
1.8592187 4.8739352 -0.39819026 0.97929072
1.9809765 4.8253903 -0.39816591 0.97929198
2.0414062 4.7999606 -0.3981539 0.97929257
2.220664 4.7191992 -0.39811844 0.97929436
2.2797265 4.6907811 -0.39810684 0.97929502
2.3967578 4.6317286 -0.39808396 0.97929621
2.4546874 4.6011229 -0.39807269 0.9792968
2.5122266 4.5697751 -0.39806154 0.9792974
2.569375 4.537715 -0.39805052 0.979298
2.6824608 4.4714746 -0.39802885 0.97929913
2.7938671 4.4024315 -0.3980076 0.97930008
3.1692576 4.1392384 -0.39793745 0.97930372
3.2721093 4.0580859 -0.39791861 0.97930473
3.4715624 3.8882031 -0.39788267 0.97930658
3.5200779 3.8441894 -0.39787403 0.979307
3.6153905 3.7543652 -0.39785725 0.97930789
3.6622264 3.7085545 -0.39784902 0.97930831
3.7541015 3.615205 -0.39783308 0.97930914
3.9733593 3.3720508 -0.39779601 0.97931093
4.0152736 3.3217676 -0.39778751 0.97931159
4.0566406 3.2709765 -0.39777857 0.97931194
1.2517968 0.9337402 -0.11920875 0.99375468
1.252207 0.88598633 -0.1170911 0.99386525
1.2526171 0.8398242 -0.11511742 0.99396831
1.252793 0.81732422 -0.11418152 0.99401724
1.2529687 0.79518551 -0.11327827 0.99406445
1.2531641 0.77336913 -0.11240619 0.99410993
1.2533203 0.75189453 -0.11156486 0.99415392
1.2534765 0.73073238 -0.11075325 0.99419636
1.2537891 0.70995116 -0.10998467 0.99423653
1.2913867 0.70996094 -0.11249008 0.99410558
1.3307421 0.70997071 -0.11513099 0.99396759
1.4152539 0.70995116 -0.12086212 0.99366832
1.4607421 0.70995116 -0.12397754 0.99350578
1.6692773 0.70996094 -0.13846733 0.99274939
1.8610938 0.70995116 -0.15205039 0.99204105
2.0235546 0.71417969 -0.16380218 0.99142843
2.0235546 0.68571287 -0.16309246 0.99146545
6.3063474 1.7892773 -0.50038236 0.9740454
6.3282809 1.709873 -0.50037766 0.97404563
6.3492188 1.6302148 -0.50037324 0.97404581
6.3691406 1.550293 -0.50036895 0.97404605
6.3880858 1.4701074 -0.50036496 0.97404623
6.4060154 1.3897265 -0.50036114 0.97404635
6.4387889 1.2282813 -0.50035423 0.97404689
6.4922266 0.90319335 -0.50034297 0.97404742
6.5360155 0.49374023 -0.50033391 0.9740479
6.5499215 0.24704102 -0.50033116 0.97404808
6.5524998 0.16470703 -0.50033069 0.97404814
6.5540624 0.082373045 -0.50033039 0.97404808
6.5540819 -0.082353517 -0.50033063 0.97404802
6.5525389 -0.16469726 -0.50033104 0.97404796
6.5416989 -0.4115625 -0.50033367 0.9740479
6.5360351 -0.49373046 -0.50033498 0.97404778
6.4922462 -0.9031738 -0.50034487 0.97404736
6.4803905 -0.98468751 -0.50034755 0.97404736
6.4536719 -1.1472363 -0.50035352 0.97404706
6.438828 -1.2282617 -0.50035679 0.97404671
6.4228907 -1.309082 -0.50036037 0.97404671
6.3880858 -1.4701074 -0.50036806 0.97404623
6.3691797 -1.5502832 -0.50037229 0.97404593
6.3492575 -1.630205 -0.50037664 0.97404569
6.3283005 -1.7098827 -0.50038129 0.97404557
6.3063865 -1.7892871 -0.50038612 0.97404528
6.2835155 -1.8683984 -0.50039119 0.97404486
2.0235741 -0.65749019 -0.16241413 0.99150074
2.023535 -0.68573242 -0.1630923 0.99146551
2.023535 -0.71419919 -0.163802 0.99142849
1.7292968 -0.70993161 -0.14269394 0.99252892
1.6692578 -0.70994139 -0.13846652 0.99274945
1.6126952 -0.70994139 -0.1345031 0.99295622
1.5087109 -0.70993161 -0.12727772 0.99333334
1.4607617 -0.70993161 -0.12397686 0.99350572
1.4152734 -0.70993161 -0.1208614 0.99366832
1.3307226 -0.70995116 -0.11513004 0.99396765
1.2537891 -0.70993161 -0.10998424 0.99423659
1.2534765 -0.73072267 -0.11075321 0.99419636
1.2531445 -0.77335936 -0.11240623 0.99410999
1.2529882 -0.79514647 -0.11327816 0.99406445
1.2526171 -0.8398242 -0.11511753 0.99396831
1.2520117 -0.90963864 -0.11813148 0.99381095
1.2517968 -0.9337402 -0.11920895 0.99375468
5.1569529 -4.0522852 -0.50063771 0.9740324
5.105742 -4.1168652 -0.50064886 0.97403181
5.0537109 -4.1808105 -0.50066024 0.97403121
5.0008984 -4.244072 -0.50067174 0.97403061
4.9473047 -4.3066797 -0.50068343 0.97402996
4.8928905 -4.3686132 -0.50069529 0.97402942
4.8377147 -4.429863 -0.50070733 0.97402883
4.7251172 -4.5502539 -0.50073189 0.97402751
4.6676755 -4.6093845 -0.5007444 0.97402692
4.5506053 -4.7254782 -0.50076985 0.97402555
4.4909763 -4.7823925 -0.50078285 0.97402495
4.3627734 -4.8863964 -0.50002766 0.97406358
4.2524023 -4.8849316 -0.49437216 0.97435313
4.144453 -4.8835058 -0.48891798 0.97463244
3.9354491 -4.8807516 -0.47858661 0.97516179
3.8341992 -4.8794236 -0.47369322 0.97541261
3.4486718 -4.8743162 -0.45578113 0.97633129
3.3567188 -4.8731055 -0.45168748 0.9765414
3.2664061 -4.8719335 -0.44773707 0.97674406
3.1776366 -4.8707614 -0.44392386 0.9769398
3.0903516 -4.8695898 -0.44024551 0.9771288
3.004492 -4.8684764 -0.43669486 0.97731107
2.9199803 -4.867363 -0.43326873 0.97748703
2.6740625 -4.864121 -0.42370155 0.97797871
2.4392579 -4.8626757 -0.41526461 0.97841239
2.1416407 -4.8649998 -0.40574962 0.9789018
2.0692773 -4.865449 -0.40358788 0.97901303
1.9976171 -4.8658786 -0.40150887 0.97912002
1.9266796 -4.8662596 -0.39951032 0.97922283
1.8595507 -4.8748145 -0.39826357 0.97928703
1.7982031 -4.8979783 -0.3982769 0.97928625
1.7365625 -4.9203415 -0.39829031 0.97928566
1.6746875 -4.9419236 -0.39830375 0.979285
1.4873437 -5.00208 -0.39834443 0.9792828
1.4244531 -5.0205274 -0.39835808 0.97928214
1.3670703 -5.0595508 -0.40006006 0.97919458
1.2990625 -5.0595508 -0.39873782 0.97926259
1.1705273 -5.0864744 -0.39841315 0.97927928
0.97812498 -5.1275001 -0.39845493 0.97927713
0.84900391 -5.1508493 -0.39848295 0.97927564
0.78423828 -5.1612597 -0.39849702 0.97927505
0.65433592 -5.1797166 -0.39852515 0.9792735
0.58921874 -5.1877146 -0.3985393 0.97927278
0.32785156 -5.2115135 -0.39859599 0.97926986
0.19679686 -5.2184567 -0.39862442 0.97926849
0.13121094 -5.2207127 -0.39863861 0.97926772
0.065585934 -5.222168 -0.39865282 0.97926688
0 -5.222754 -0.39866707 0.97926617
-0.13128906 -5.2214842 -0.39869553 0.97926468
-0.19687499 -5.2195997 -0.39870974 0.97926396
-0.26248047 -5.2168846 -0.39872399 0.97926331
-0.39351562 -5.209043 -0.39875236 0.97926176
-0.52433592 -5.1978712 -0.3987807 0.97926027
-0.65484375 -5.1834178 -0.39880896 0.97925884
-0.71996093 -5.1749606 -0.39882308 0.97925812
-0.78496093 -5.1656833 -0.39883721 0.9792574
-0.84980464 -5.1555858 -0.39885125 0.97925675
-1.0436327 -5.1204395 -0.39889321 0.97925454
-1.2360156 -5.0779786 -0.39893484 0.97925246
-1.2997656 -5.0622263 -0.39894867 0.97925174
-1.3633398 -5.0456738 -0.39896244 0.97925103
-1.4266796 -5.0283399 -0.39897612 0.97925019
-1.4942187 -5.0250096 -0.40017173 0.97918874
-1.6153516 -4.9715037 -0.39901698 0.97924811
-1.7398828 -4.9296579 -0.39904395 0.9792468
-1.8017578 -4.9075584 -0.3990573 0.97924614
-1.8633593 -4.8847165 -0.39907065 0.97924536
-1.924668 -4.861074 -0.39908394 0.97924465
-1.9856249 -4.8366504 -0.39909708 0.97924411
-2.0490234 -4.8177929 -0.39963466 0.9792164
-2.1916211 -4.8134375 -0.40371501 0.97900641
-2.2639649 -4.8111911 -0.40587813 0.97889501
-2.4858985 -4.8039451 -0.41288581 0.9785347
-2.7164061 -4.7972851 -0.42081892 0.97812676
-2.9587891 -4.7943554 -0.43004608 0.97765255
-3.0419922 -4.7933593 -0.43335092 0.97748274
-3.2996483 -4.7902341 -0.44400576 0.97693563
-3.47875 -4.7880955 -0.45176849 0.97653711
-3.5707226 -4.7869825 -0.45586139 0.97632706
-3.6643748 -4.7858396 -0.46010306 0.9761095
-3.8570702 -4.7835255 -0.46905372 0.97565049
-4.1609373 -4.7798729 -0.48373863 0.97489774
-4.484961 -4.7759571 -0.5001086 0.9740594
-4.6279688 -4.6864648 -0.50275958 0.97392368
-4.6866016 -4.6280665 -0.50277221 0.97392303
-4.7444921 -4.5689063 -0.50278473 0.97392243
-1.0235547 -0.84673828 -0.10139831 0.99468511
-1.0237499 -0.82544923 -0.1003828 0.99473828
-1.0239453 -0.80458003 -0.099402428 0.99478954
-1.024121 -0.7841211 -0.098456532 0.99483901
-1.0306641 -0.70995116 -0.095531426 0.99499196
-1.0882226 -0.70994139 -0.099181212 0.99480116
-1.1186913 -0.70993161 -0.10113727 0.99469894
-1.1503906 -0.70994139 -0.10318851 0.99459165
-1.2178711 -0.70993161 -0.10760464 0.9943608
-1.2538086 -0.70994139 -0.10998401 0.99423653
-1.2913672 -0.70995116 -0.11248916 0.9941057
-1.5592968 -0.70994139 -0.13078059 0.99315041
-1.6127343 -0.70994139 -0.13450325 0.9929561
-1.6693164 -0.70993161 -0.13846649 0.99274927
-1.7946875 -0.65887696 -0.14593112 0.99235982
-6.2423043 -2.1153319 -0.50310677 0.97390586
-6.2684765 -2.0367577 -0.50311238 0.9739055
-6.2936325 -1.957832 -0.50311774 0.97390532
-6.3178124 -1.8786132 -0.50312293 0.97390503
-6.3409762 -1.7991015 -0.50312787 0.97390479
-6.3631444 -1.719287 -0.50313258 0.97390455
-6.3842969 -1.6391894 -0.50313705 0.97390437
-6.4044528 -1.5588671 -0.50314134 0.97390407
-6.458828 -1.3164062 -0.50315285 0.97390342
-6.4748631 -1.2351367 -0.50315624 0.97390336
-6.4899411 -1.1536816 -0.50315946 0.97390312
-6.5169139 -0.99024409 -0.50316513 0.973903
-6.5289059 -0.90826172 -0.50316763 0.97390276
-6.5664062 -0.57909179 -0.50317544 0.97390229
-6.5836129 -0.33121094 -0.50317889 0.97390211
-6.5898633 -0.16564453 -0.50318009 0.97390211
-6.591445 -0.082822263 -0.50318033 0.97390205
-6.3585935 0.079902343 -0.50312966 0.9748069
-6.3571091 0.15980469 -0.50312924 0.97480685
-6.3545899 0.23967773 -0.50312859 0.97480685
-6.3510547 0.31951171 -0.50312775 0.97480696
-6.3465233 0.39929688 -0.50312668 0.97480702
-6.3344531 0.55864257 -0.50312394 0.97480714
-6.3268943 0.63820308 -0.50312221 0.97480726
-6.3183789 0.71766597 -0.50312024 0.97480726
-6.2982421 0.87621093 -0.50311571 0.97480768
-6.274199 1.0341797 -0.50311035 0.9748078
-6.260664 1.1129493 -0.50310731 0.97480798
-6.2461524 1.1915234 -0.50310409 0.9748081
-6.2306247 1.2699219 -0.50310063 0.97480834
-6.2141404 1.3480859 -0.503097 0.97480851
-6.1966796 1.4260546 -0.50309312 0.97480863
-6.116992 1.7355566 -0.50307554 0.97480947
-6.0713282 1.8886817 -0.50306547 0.97480994
-6.0217772 2.0406053 -0.50305456 0.97481066
-5.995625 2.1160839 -0.50304884 0.97481084
-1.7957813 0.71098632 -0.15281093 0.99228019
-1.6692969 0.70995116 -0.14352317 0.99274778
-1.5592968 0.70996094 -0.13555603 0.99314892
-1.4607617 0.70995116 -0.12850395 0.99350429
-1.4152734 0.70997071 -0.12527476 0.99366689
-1.3719921 0.70996094 -0.12222294 0.99382067
-1.3307421 0.70994139 -0.11933433 0.99396634
-1.1504102 0.70997071 -0.10695682 0.9945904
-1.1187109 0.70995116 -0.10483078 0.99469769
-1.0882422 0.70997071 -0.10280311 0.99479991
-1.023789 0.74381834 -0.10012355 0.99493515
-1.0234179 0.78360349 -0.10198135 0.9948414
-1.0226172 0.86784178 -0.10611599 0.99463278
-1.0221484 0.91261715 -0.1084148 0.99451685
-1.021914 0.93574214 -0.10962799 0.99445564
-3.6365623 3.5019922 -0.39944449 0.97994626
-3.5921874 3.5473144 -0.39943281 0.97994673
-3.5472264 3.5920606 -0.39942107 0.97994733
-3.2659178 3.6578515 -0.38797614 0.98051625
-3.1836522 3.6571875 -0.38363579 0.98073232
-3.0886524 3.6394141 -0.37766868 0.98102909
-2.669961 3.5794237 -0.35331172 0.98224163
-2.9146287 4.1194825 -0.39926058 0.97995532
-2.8625195 4.1556544 -0.39924771 0.97995597
-2.8099999 4.1911521 -0.39923477 0.97995663
-2.7569921 4.225996 -0.39922172 0.97995734
-2.7035742 4.2601657 -0.39920861 0.979958
-2.5955272 4.3264842 -0.39918226 0.97995919
-2.5408592 4.358613 -0.399169 0.97995991
-2.4858203 4.3900294 -0.39915565 0.97996062
-2.3745313 4.4508395 -0.39912882 0.97996187
-2.3183203 4.480166 -0.39911535 0.97996259
-2.2617967 4.5087891 -0.39910179 0.97996324
-2.1476171 4.5638962 -0.39907461 0.97996461
-2.0900195 4.5903611 -0.39906093 0.97996527
-2.0321093 4.6161036 -0.39904723 0.97996598
-1.9738867 4.6411228 -0.39903346 0.97996658
-1.8564843 4.6889257 -0.39900589 0.97996801
-1.7973633 4.711709 -0.39899203 0.97996873
-1.7379491 4.7337599 -0.39897817 0.97996944
-1.558125 4.7953906 -0.39893642 0.97997159
-1.4976953 4.8144431 -0.39892244 0.97997218
-1.4370313 4.832695 -0.39890847 0.97997296
-1.3761523 4.850234 -0.39889449 0.9799735
-1.315039 4.8669333 -0.39888048 0.97997433
-1.25375 4.8829198 -0.39886644 0.97997499
-1.0687109 4.9261718 -0.39882436 0.97997713
-0.88214844 4.9624414 -0.39878225 0.97997916
-0.69445312 4.9916501 -0.3987402 0.97998118
-0.37958983 5.0245214 -0.39867032 0.9799847
-0.31640625 5.0287108 -0.39865643 0.97998542
-0.25316405 5.0320997 -0.39864248 0.97998613
-0.18988281 5.0347362 -0.39862865 0.97998673
0.063281246 5.0372071 -0.39857352 0.97998953
0.25304687 5.0307226 -0.39853254 0.97999156
0.37937498 5.0224314 -0.39850548 0.97999293
0.44246092 5.0170798 -0.39849198 0.97999364
0.56835938 5.0040426 -0.39846519 0.97999501
0.69386715 4.9878516 -0.3984386 0.97999632
0.75646484 4.9785743 -0.3984254 0.97999698
0.81894529 4.9685154 -0.39841229 0.97999758
0.88126951 4.9576755 -0.3983992 0.97999823
1.0674024 4.9204588 -0.39836037 0.98000014
1.2520117 4.8762598 -0.39832214 0.98000205
1.313125 4.8599901 -0.39830956 0.9800027
1.3740234 4.8429394 -0.39829707 0.98000336
1.4347656 4.8251367 -0.39828467 0.98000395
1.5554687 4.7872849 -0.39826006 0.98000509
1.6154296 4.7672071 -0.3982479 0.98000574
1.911289 4.655664 -0.39818847 0.98000878
1.9696094 4.6311426 -0.39817682 0.98000932
2.0276172 4.6058984 -0.39816532 0.98000979
2.0852344 4.5799317 -0.39815393 0.98001039
2.1425781 4.5532322 -0.39814261 0.98001099
2.1995702 4.5258102 -0.39813143 0.98001152
2.3124609 4.4688673 -0.39810935 0.98001266
2.3683593 4.4393358 -0.39809853 0.98001319
2.4239061 4.4091015 -0.39808771 0.98001373
2.6420703 4.2812791 -0.39804587 0.98001593
2.6956248 4.2476463 -0.39803573 0.98001629
2.7487109 4.2133298 -0.39802566 0.98001683
2.801367 4.1783495 -0.39801574 0.98001736
2.9053514 4.1064258 -0.39799625 0.98001832
3.0578125 3.9937205 -0.39796796 0.98001975
3.1571093 3.9154491 -0.39794981 0.98002052
3.2059765 3.8753808 -0.39794096 0.980021
3.3495703 3.7515526 -0.3979151 0.98002225
3.3963671 3.7090721 -0.39790678 0.98002273
3.4425976 3.666045 -0.39789861 0.98002315
3.4883397 3.6224217 -0.39789057 0.9800235
3.5335155 3.5782127 -0.39788267 0.98002398
3.6221874 3.4881542 -0.39786732 0.9800247
3.7085545 3.3959081 -0.39785254 0.98002541
3.792578 3.3014843 -0.39783579 0.98002625
3.8336718 3.2534959 -0.39782694 0.98002672
3.9180858 3.1592381 -0.39821929 0.98000723
4.0168161 3.1564257 -0.40419278 0.9797104
1.2511718 0.90904295 -0.1223624 0.99381369
1.2513672 0.88538086 -0.12128548 0.99386805
1.251582 0.86213863 -0.12024593 0.99392045
1.2521484 0.79465818 -0.11733871 0.99406701
1.252539 0.75142574 -0.11556499 0.9941563
1.2537891 0.70995116 -0.11400047 0.99423534
1.2913867 0.70996094 -0.11659729 0.99410433
1.3307421 0.70997071 -0.11933433 0.99396628
1.3719921 0.70998043 -0.12222297 0.99382061
1.4152539 0.70995116 -0.12527496 0.99366695
1.5592968 0.70996094 -0.13555622 0.99314892
1.7292968 0.70995116 -0.14790516 0.99252725
1.8610938 0.70995116 -0.15760207 0.99203932
2.0234766 0.71416992 -0.16977677 0.99142689
2.0234766 0.68571287 -0.16904129 0.9914639
6.0847654 1.7264258 -0.50043046 0.97494048
6.1059375 1.6498046 -0.50042588 0.97494066
6.1636133 1.418457 -0.50041366 0.97494137
6.2125778 1.1851269 -0.50040329 0.97494179
6.2641406 0.87145507 -0.50039244 0.97494239
6.2840233 0.71375972 -0.50038832 0.97494251
6.3118358 0.39711913 -0.5003826 0.97494292
6.316328 0.31776366 -0.50038171 0.97494292
6.3198438 0.23836914 -0.50038105 0.97494286
6.3223243 0.15894531 -0.50038058 0.97494292
6.3238282 0.079472654 -0.50038034 0.97494292
6.3243165 -0 -0.50038034 0.97494292
6.3238282 -0.079453126 -0.50038052 0.97494292
6.3223438 -0.15892577 -0.50038093 0.97494286
6.3198438 -0.23835938 -0.50038153 0.97494286
6.3163671 -0.31775391 -0.50038236 0.9749428
6.306406 -0.4763867 -0.50038469 0.97494274
6.2840233 -0.71375 -0.50038981 0.97494251
6.2746091 -0.79264647 -0.50039196 0.97494233
6.2527733 -0.95009762 -0.50039685 0.97494203
6.2269921 -1.1069531 -0.50040257 0.97494179
6.1972656 -1.2631054 -0.50040925 0.97494155
6.1809764 -1.3408886 -0.50041282 0.97494125
6.1261911 -1.5729296 -0.50042492 0.97494066
6.0848045 -1.7264258 -0.5004341 0.97494036
6.062695 -1.8027539 -0.50043899 0.97494012
6.0396485 -1.8788183 -0.50044399 0.97493976
2.0234766 -0.68568361 -0.16904144 0.99146396
2.0234766 -0.71416992 -0.16977695 0.99142689
1.9337109 -0.70994139 -0.16298275 0.99176866
1.8611132 -0.70994139 -0.15760094 0.99203926
1.7931055 -0.70996094 -0.15258652 0.99229157
1.5592968 -0.70992184 -0.13555537 0.99314898
1.4607617 -0.70993161 -0.12850346 0.99350435
1.4152734 -0.70993161 -0.12527424 0.99366695
1.2537891 -0.70993161 -0.1139999 0.99423534
1.2524999 -0.75139648 -0.11556484 0.99415648
1.2521679 -0.79465818 -0.11733871 0.99406695
1.2517968 -0.83926755 -0.11924255 0.99397099
1.2513672 -0.88537109 -0.12128548 0.99386811
1.2509375 -0.93311518 -0.12347767 0.99375755
5.0243359 -3.8469532 -0.50066626 0.97492874
4.9262695 -3.9721386 -0.5006876 0.97492778
4.8760743 -4.0338473 -0.50069857 0.97492719
4.825078 -4.0948925 -0.50070965 0.97492671
4.6676559 -4.2741308 -0.50074399 0.97492492
4.5589647 -4.3902926 -0.50076771 0.97492385
4.4474216 -4.5036817 -0.50079197 0.97492266
4.3330665 -4.6142578 -0.50081688 0.97492135
4.2159762 -4.7219238 -0.50084245 0.97492003
4.0961914 -4.8266306 -0.5008685 0.97491878
4.0353122 -4.877871 -0.50088173 0.97491813
3.9354491 -4.8807516 -0.49606064 0.97515655
3.8341992 -4.8794236 -0.49098796 0.97540736
3.6377149 -4.8768263 -0.48137453 0.97588307
3.3567188 -4.8731055 -0.46817958 0.97653639
3.2663867 -4.8719335 -0.46408468 0.97673917
3.1776366 -4.8707614 -0.46013305 0.97693491
3.0903516 -4.8695898 -0.45631912 0.97712392
3.0044725 -4.8684764 -0.45263937 0.97730625
2.9199803 -4.8673434 -0.44908884 0.97748232
2.8367772 -4.86625 -0.44566303 0.97765213
2.674082 -4.864121 -0.43917194 0.97797394
2.4384375 -4.8610349 -0.43028089 0.97841501
2.1381445 -4.85707 -0.41987807 0.97893131
2.0653906 -4.8563185 -0.41753608 0.97904754
1.6463476 -4.8584666 -0.40587214 0.97962695
1.5786718 -4.8586621 -0.4041996 0.97971004
1.3133594 -4.8608494 -0.39838195 0.97999918
1.1908984 -4.8926563 -0.39840856 0.97999775
1.0676172 -4.9213672 -0.39843532 0.9799965
0.81910157 -4.9694629 -0.39848921 0.97999382
0.75664061 -4.9795213 -0.3985028 0.97999316
0.69400388 -4.9888182 -0.39851639 0.97999245
0.63128906 -4.997324 -0.39852995 0.97999173
0.56847656 -5.0050192 -0.39854363 0.97999114
0.44253907 -5.018086 -0.39857092 0.97998971
0.25382811 -5.046113 -0.39975309 0.979931
0.12679687 -5.0449219 -0.3992804 0.97995448
-0.063398436 -5.0428123 -0.39902011 0.97996747
-0.31707031 -5.0394726 -0.39951119 0.97994298
-0.38062498 -5.0385351 -0.39978456 0.97992945
-0.50806642 -5.0365133 -0.40051237 0.97989333
-0.6317578 -5.0007615 -0.39880377 0.97997808
-0.6945703 -4.992578 -0.39881739 0.97997749
-0.75730467 -4.9836426 -0.39883098 0.97997677
-0.81988281 -4.973906 -0.39884451 0.97997606
-0.94468749 -4.9520602 -0.39887157 0.97997475
-1.0689062 -4.9270897 -0.39889845 0.97997344
-1.1307422 -4.9134374 -0.39891189 0.97997278
-1.3152734 -4.8678122 -0.39895183 0.97997075
-1.3763866 -4.8510642 -0.39896506 0.9799701
-1.4373046 -4.8335547 -0.39897826 0.97996938
-1.5669531 -4.8225293 -0.40119383 0.97985935
-1.7685156 -4.8170018 -0.40599427 0.97962081
-1.8367773 -4.8150587 -0.40774199 0.97953391
-1.905625 -4.8130469 -0.4095673 0.97944325
-2.0452344 -4.8088379 -0.41345495 0.97925019
-2.1874804 -4.8043942 -0.41766793 0.97904098
-2.2600391 -4.802793 -0.41996473 0.97892696
-2.3337696 -4.8019137 -0.42241797 0.97880512
-2.4839063 -4.8000879 -0.42761698 0.97854716
-2.6378515 -4.7982321 -0.43322212 0.9782691
-2.7164061 -4.7972851 -0.43618381 0.97812212
-2.95875 -4.7943358 -0.44574848 0.9776479
-3.2996483 -4.7902341 -0.46021727 0.97693074
-3.3884375 -4.7891798 -0.46416923 0.97673494
-3.6643748 -4.7858396 -0.47690234 0.97610438
-3.7598045 -4.7847071 -0.48145872 0.97587883
-3.9562891 -4.7823243 -0.49107254 0.97540325
-4.057539 -4.7811232 -0.49614379 0.97515237
-4.1609764 -4.7798729 -0.50140178 0.97489232
-4.4646091 -4.5210643 -0.50272399 0.97482699
-4.5211911 -4.4647069 -0.50273621 0.9748264
-4.6321874 -4.3498826 -0.50276011 0.9748252
-1.0221484 -0.91259766 -0.10841461 0.99451691
-1.0226172 -0.86783201 -0.10611561 0.99463278
-1.0230078 -0.82487303 -0.10397526 0.9947409
-1.0232031 -0.80402344 -0.10296077 0.9947921
-1.0234375 -0.78357422 -0.10198143 0.9948414
-1.0306641 -0.70995116 -0.099019736 0.99499089
-1.1503906 -0.70994139 -0.10695644 0.99459052
-1.2178711 -0.70993161 -0.11153324 0.99435961
-1.2538086 -0.70994139 -0.11399975 0.99423528
-1.2913672 -0.70995116 -0.11659645 0.99410439
-1.3307421 -0.70994139 -0.11933365 0.99396634
-1.415293 -0.70994139 -0.12527435 0.99366683
-1.4607812 -0.70993161 -0.12850346 0.99350429
-1.6127343 -0.70994139 -0.13941413 0.99295461
-1.6693164 -0.70993161 -0.14352241 0.99274772
-1.7293359 -0.70994139 -0.14790432 0.99252713
-1.7956641 -0.68497068 -0.15205611 0.99231815
-6.0218358 -2.0406249 -0.50305891 0.97481042
-6.1170115 -1.7355468 -0.50307924 0.97480941
-6.1383982 -1.6585547 -0.50308377 0.97480917
-6.1588082 -1.5812988 -0.50308812 0.97480893
-6.1782422 -1.5037793 -0.50309223 0.97480875
-6.1967187 -1.4260449 -0.50309616 0.97480851
-6.2607031 -1.1129297 -0.50310975 0.97480786
-6.2742186 -1.0341992 -0.50311255 0.97480774
-6.2982812 -0.87619138 -0.50311756 0.9748075
-6.3088279 -0.79698241 -0.50311983 0.97480738
-6.3183985 -0.71765625 -0.50312179 0.9748072
-6.3344531 -0.55862302 -0.50312513 0.97480714
-6.3409762 -0.47898436 -0.50312644 0.97480714
-6.3465428 -0.3992871 -0.50312757 0.9748069
-6.3510547 -0.31951171 -0.50312847 0.97480696
-6.3545899 -0.23965819 -0.50312912 0.97480685
-6.35707 -0.15980469 -0.5031296 0.97480696
-6.3585739 -0.079892576 -0.50312984 0.97480696
-6.1400976 0.15434571 -0.50308222 0.97565091
-6.1342969 0.3086035 -0.50308079 0.97565085
-6.1182423 0.53958005 -0.50307709 0.97565109
-6.1109567 0.61641598 -0.50307542 0.9756512
-6.1027145 0.69316405 -0.50307351 0.97565126
-6.0179882 1.2265527 -0.50305462 0.97565222
-5.9851952 1.3773925 -0.50304735 0.97565246
-5.9673438 1.4524707 -0.50304341 0.97565275
-5.9485545 1.5273242 -0.50303924 0.97565299
-5.9288669 1.6019628 -0.50303489 0.97565311
-5.8641014 1.8242188 -0.50302064 0.97565383
-5.8406639 1.8977636 -0.50301546 0.97565401
-5.8162889 1.9709667 -0.50301009 0.9756543
-1.7964063 0.65951169 -0.15674224 0.99234921
-1.7965235 0.68529296 -0.15749176 0.99231279
-1.7293164 0.70996094 -0.15311714 0.99252552
-1.6692969 0.70995116 -0.148581 0.99274617
-1.6127343 0.70996094 -0.14432819 0.992953
-1.5592968 0.70996094 -0.14033355 0.99314737
-1.50875 0.70997071 -0.13657477 0.99333024
-1.4608008 0.70995116 -0.13303268 0.99350274
-1.4152734 0.70997071 -0.12968975 0.99366546
-1.3719921 0.70996094 -0.12652996 0.9938193
-1.2914063 0.70996094 -0.12070622 0.99410295
-1.1834375 0.70996094 -0.11303699 0.99447656
-1.1187109 0.70995116 -0.10852508 0.9946965
-1.0306641 0.70995116 -0.1025098 0.99498975
-1.0232812 0.72398436 -0.10267154 0.99498183
-1.0229101 0.76300782 -0.10452583 0.99489146
-1.0223047 0.82431638 -0.10756458 0.99474329
-1.0216407 0.8893652 -0.11094425 0.99457854
-3.5548828 3.3382323 -0.39942855 0.98061866
-3.4696875 3.4263573 -0.39941001 0.98061961
-3.3823242 3.5122654 -0.39938861 0.98062062
-3.2927928 3.5959668 -0.39936554 0.9806217
-3.247246 3.6369531 -0.39935386 0.98062229
-3.1824999 3.6558495 -0.39700583 0.980735
-3.060039 3.7950585 -0.3993063 0.98062456
-2.669961 3.5794237 -0.36576319 0.9822377
-2.6183593 3.6038671 -0.36486834 0.98228073
-2.8152733 3.9790916 -0.39924511 0.98062754
-2.7649608 4.0140233 -0.39923266 0.98062819
-2.6114843 4.1149998 -0.39919493 0.98062992
-2.4542968 4.2101169 -0.3991566 0.98063171
-2.4011328 4.2404785 -0.39914376 0.98063236
-2.2936327 4.2991991 -0.39911786 0.98063362
-2.2393749 4.3275194 -0.3991048 0.98063433
-2.1847265 4.3551855 -0.39909172 0.98063493
-2.0744727 4.4084082 -0.39906543 0.98063624
-2.0188477 4.4339843 -0.39905226 0.98063684
-1.9628906 4.4588771 -0.399039 0.98063743
-1.9066405 4.4830275 -0.39902571 0.98063809
-1.6787499 4.5725489 -0.3989723 0.98064071
-1.3292968 4.6850781 -0.39889148 0.98064452
-1.2702734 4.7012501 -0.39887795 0.98064518
-1.2110547 4.71667 -0.39886439 0.98064584
-1.1516407 4.7313671 -0.39885086 0.98064649
-1.0920898 4.7453122 -0.3988373 0.98064709
-0.97242182 4.7709179 -0.39881018 0.98064846
-0.91238278 4.7826071 -0.39879662 0.98064905
-0.73136717 4.8130956 -0.39875594 0.98065102
-0.6708203 4.8217382 -0.39874244 0.98065168
-0.54939455 4.8367381 -0.39871541 0.98065305
-0.42765623 4.8486915 -0.39868844 0.9806543
-0.36667967 4.8535156 -0.39867496 0.98065495
-0.30562499 4.8575878 -0.39866149 0.98065555
