# .PCD v0.7 - Point Cloud Data file format
VERSION 0.7
FIELDS x y z intensity
SIZE 4 4 4 4
TYPE F F F F
COUNT 1 1 1 1
WIDTH 1080
HEIGHT 1
VIEWPOINT 0 0 0 1 0 0 0
POINTS 1080
DATA ascii
-1.1833984 -0.70994139 -0.017204857 0.99449474
-1.2178515 -0.70994139 -0.017574769 0.99437672
-1.2537891 -0.70995116 -0.01796337 0.9942528
-1.2913672 -0.70995116 -0.018372459 0.99412227
-1.3307226 -0.70995116 -0.018803786 0.99398464
-1.3719727 -0.70993161 -0.019258881 0.9938395
-1.4152343 -0.70994139 -0.019739836 0.99368626
-1.4607812 -0.70994139 -0.020248756 0.9935239
-1.5087109 -0.70994139 -0.020787887 0.99335206
-1.5592577 -0.70993161 -0.021359976 0.99316984
-1.7292968 -0.70995116 -0.023305817 0.9925499
-1.7749609 -0.70276368 -0.023800315 0.99239242
-1.7749609 -0.67708004 -0.023684081 0.99242932
-1.7749413 -0.65165037 -0.023572501 0.99246478
-1.7757812 0.65197265 -0.028825378 0.99246097
-1.7757812 0.67742187 -0.028961983 0.9924255
-1.7293164 0.70996094 -0.028485451 0.99254948
-1.6692773 0.70995116 -0.027641868 0.99276954
-1.6127148 0.70996094 -0.026850471 0.99297571
-1.5087109 0.70995116 -0.025407905 0.99335182
-1.3719531 0.70996094 -0.023539467 0.99383926
-1.3307031 0.70996094 -0.022983169 0.99398446
-1.2913672 0.70995116 -0.022456093 0.99412203
-1.2537891 0.70996094 -0.021955756 0.99425256
-1.1833984 0.70996094 -0.021029204 0.99449444
-1.1503906 0.70995116 -0.020599326 0.99460667
-1.1186719 0.70997071 -0.020189667 0.9947136
-1.0882031 0.70995116 -0.019799156 0.99481565
-1.0589062 0.70996094 -0.019426651 0.99491286
-1.0398437 0.71629882 -0.019240798 0.99496144
-1.0397656 0.75546873 -0.019584769 0.99487162
-1.039746 0.77558595 -0.019766197 0.99482423
-1.0395898 0.86005855 -0.020559769 0.99461699
-1.0395312 0.88224608 -0.020776367 0.99456042
-1.0394531 0.9280957 -0.021234207 0.99444091
-1.0393749 0.9518066 -0.021475716 0.99437785
-3.9287109 3.6893456 -0.082125433 0.97867048
-3.695996 3.742744 -0.080154262 0.97917706
-3.7128906 3.8555858 -0.08156433 0.97881448
-3.6934373 3.9331348 -0.082213975 0.97864693
-3.2774999 3.5792773 -0.073953249 0.98077232
-9.9724607 15.714101 -0.28360114 0.92825007
-2.1680663 10.637431 -0.16542758 0.95750004
-0.99960935 7.9128318 -0.12153538 0.96859705
-0.7978906 7.9101758 -0.1211478 0.96869552
-0.70257813 7.9664254 -0.12186538 0.96851325
-0.50312501 7.9974313 -0.12210754 0.96845168
-0.30152342 7.9947753 -0.12191269 0.96850121
-0.20089844 7.9934473 -0.12184406 0.96851861
-0.10042968 7.9921188 -0.1217955 0.96853107
0.10042968 7.9894824 -0.12175472 0.96854126
0.30124998 7.9868259 -0.12179042 0.96853203
0.40173829 7.9854879 -0.12183926 0.9685201
0.50234371 7.9841795 -0.12190472 0.96850312
0.80498046 7.9801755 -0.12222019 0.96842289
1.0969921 7.8851852 -0.1213134 0.96865362
1.1979687 7.8838573 -0.12151474 0.96860236
1.5031641 7.8798337 -0.12223984 0.96841806
1.7285742 7.9680076 -0.12424156 0.96790904
1.8333789 7.9666209 -0.12456966 0.96782571
1.938789 7.9652343 -0.1249192 0.96773696
2.4756639 7.9581442 -0.12700005 0.9672085
2.6958203 7.9552536 -0.1279951 0.96695596
2.9195898 7.9523044 -0.12908649 0.96667862
3.0329492 7.9508004 -0.12967171 0.96653038
3.3409765 7.8556151 -0.13008121 0.96642631
3.4575391 7.8540721 -0.13076523 0.96625286
3.5753124 7.8525095 -0.13147655 0.96607232
3.8148437 7.8493652 -0.13298766 0.96568924
3.9821484 7.9383006 -0.13533257 0.96509516
4.3613672 7.9333005 -0.13795273 0.96443135
4.4911327 7.931582 -0.13889369 0.96419322
4.6226954 7.929863 -0.13987015 0.96394616
4.7561717 7.9281054 -0.14088169 0.96369004
5.0290623 7.9244919 -0.14301975 0.96314949
5.1686716 7.9226561 -0.14414619 0.9628644
5.3105273 7.9207811 -0.1453152 0.962569
5.5374999 7.8266501 -0.14609604 0.96237171
5.6849999 7.8247166 -0.14738269 0.96204692
5.835156 7.8227439 -0.14871451 0.96171051
6.7617579 7.9675488 -0.15923984 0.95905679
6.9339061 7.9652829 -0.16092274 0.95863295
7.1097264 7.9629588 -0.16266799 0.95819384
7.2894139 7.9605956 -0.16447796 0.9577387
7.6612887 7.9556932 -0.16830344 0.95677745
7.853828 7.9531541 -0.17032489 0.95626998
8.460742 7.9451365 -0.17686012 0.95463032
8.8923044 7.9394531 -0.18165317 0.95343012
9.1170311 7.9364843 -0.18419144 0.95279485
9.8214455 7.9192286 -0.19225356 0.95078087
9.8161325 7.5158396 -0.18839008 0.95174527
1.2707422 0.94785154 -0.024156913 0.99367809
1.2707813 0.92327148 -0.023935279 0.99373591
1.2708985 0.85207027 -0.02331562 0.99389756
1.2709765 0.8291406 -0.023123512 0.99394763
1.2710156 0.7843945 -0.022758674 0.99404281
1.2710546 0.76250976 -0.022586212 0.99408793
1.2914257 0.70995116 -0.022456093 0.99412185
1.4607812 0.70995116 -0.024749374 0.99352366
1.5592968 0.70994139 -0.026107559 0.99316943
1.6693358 0.70997071 -0.027641905 0.99276924
1.9977148 0.70506835 -0.032281838 0.99156088
1.9976562 0.64906251 -0.032006491 0.9916324
22.448906 6.9834766 -0.35824835 0.91023624
18.075233 3.6840136 -0.28109643 0.9288612
18.072109 3.4474316 -0.2803525 0.92904276
18.203672 3.235996 -0.28173825 0.92870438
1.9976562 -0.64907223 -0.032006569 0.9916324
1.933789 -0.70995116 -0.031389922 0.99179292
1.8611327 -0.70995116 -0.030353202 0.99206299
1.7931445 -0.70994139 -0.029387664 0.99231452
1.7293359 -0.70994139 -0.028485755 0.99254948
1.6127343 -0.70993161 -0.026850777 0.99297565
1.4152734 -0.70994139 -0.024127273 0.99368584
1.3719921 -0.70994139 -0.02353958 0.9938392
1.3307226 -0.70994139 -0.022983169 0.99398446
1.2710546 -0.76249999 -0.022586251 0.99408793
1.2709179 -0.85207027 -0.023315735 0.9938975
1.2707617 -0.92327148 -0.023935394 0.99373597
1.2707422 -0.94786131 -0.024156913 0.99367809
14.194942 -10.868554 -0.27242848 0.93097746
12.472617 -10.857588 -0.25198328 0.93598729
12.058359 -11.323554 -0.25206366 0.93596762
11.916406 -11.475439 -0.25209117 0.93596089
5.4276757 -5.3598828 -0.11623768 0.96994495
5.2003126 -5.4001465 -0.11424053 0.97045386
11.178672 -12.207949 -0.25223422 0.93592578
11.025742 -12.348984 -0.2522637 0.93591815
10.845547 -12.779609 -0.25541231 0.93514532
10.413418 -12.914707 -0.25280011 0.9357866
9.373086 -12.900967 -0.24299578 0.93819892
8.408144 -12.888242 -0.23449081 0.9402957
7.5062695 -12.876348 -0.22711736 0.94211781
7.0757227 -12.870684 -0.22380985 0.94293636
5.6576562 -12.851973 -0.21397747 0.94537354
5.4648438 -12.849433 -0.21277286 0.94567198
5.2741404 -12.846933 -0.21161826 0.94595897
5.0854688 -12.844433 -0.21050933 0.94623476
4.8987498 -12.841972 -0.20944175 0.94649953
4.7138672 -12.839531 -0.20841964 0.94675362
4.5307422 -12.837129 -0.20743996 0.94699717
4.3493357 -12.834726 -0.20650223 0.94723046
3.1200781 -12.818535 -0.20103362 0.94859123
2.7798827 -12.814043 -0.1998037 0.94889748
2.4435546 -12.809609 -0.19871402 0.94916898
1.9454297 -12.803027 -0.19733371 0.94951308
1.7808398 -12.800839 -0.19693977 0.94961137
1.6168554 -12.798691 -0.19657871 0.94970143
1.453457 -12.796523 -0.19624835 0.9497835
1.1281836 -12.792246 -0.19568668 0.94992375
0.96638668 -12.792559 -0.19548893 0.94997275
0.48230466 -12.786767 -0.19498515 0.95009869
0.32140625 -12.784883 -0.19487995 0.9501251
0.16066405 -12.782988 -0.19480403 0.95014381
1.953125e-05 -12.781123 -0.19476047 0.95015472
-0.16128907 -12.836249 -0.19561511 0.94994134
-0.32615232 -12.974814 -0.19777404 0.94940323
-0.64542967 -12.829863 -0.19575027 0.94990784
-0.80480468 -12.792188 -0.19531658 0.95001656
-1.9167968 -21.734531 -0.3324821 0.91641521
-2.2281249 -22.088573 -0.33829674 0.91501665
-2.5010157 -22.019609 -0.33769652 0.91516119
-3.7918358 -9.236269 -0.15214211 0.96084523
-1.039414 -0.95176756 -0.021475753 0.99437785
-1.0394531 -0.9280957 -0.02123436 0.99444091
-1.0395312 -0.88222653 -0.02077648 0.99456048
-1.0395703 -0.86003906 -0.020559464 0.99461704
-1.0396484 -0.83827144 -0.020350417 0.99467164
-1.039668 -0.8169629 -0.020148773 0.99472433
-1.0397656 -0.75544918 -0.019584846 0.99487168
-1.0398047 -0.73569334 -0.019409789 0.99491739
-1.0398437 -0.71627927 -0.019240798 0.9949615
-1.0588866 -0.70994139 -0.019426728 0.99491298
-1.1503515 -0.70992184 -0.020599212 0.99460685
-1.1833984 -0.70994139 -0.021029091 0.9944945
-1.2537891 -0.70995116 -0.021955604 0.99425256
-1.2913672 -0.70995116 -0.022455787 0.99412203
-1.3719727 -0.70993161 -0.023539351 0.99383926
-1.4152343 -0.70994139 -0.024127044 0.99368602
-1.5087109 -0.70994139 -0.025408247 0.99335182
-1.5592577 -0.70993161 -0.026107291 0.99316955
-1.6126952 -0.70993161 -0.026850242 0.99297583
-23.5033 4.1780958 -0.42991152 0.908916
-23.053358 4.3976755 -0.42266029 0.91038156
-22.7533 4.6374998 -0.41819137 0.91128516
-21.889082 5.3279004 -0.40571377 0.91381484
-21.583828 5.8318653 -0.40264776 0.91443783
-21.508007 6.1023827 -0.40263286 0.91444099
-21.346289 6.6404686 -0.40260109 0.91444701
-1.7766405 0.65226561 -0.03408413 0.99245697
-1.7766796 0.70344722 -0.034413602 0.99238443
-1.6692578 0.70994139 -0.032668572 0.99276924
-1.4152734 0.70995116 -0.028514899 0.99368554
-1.3307031 0.70996094 -0.027162781 0.99398422
-1.2913672 0.70995116 -0.026539803 0.99412179
-1.2537891 0.70996094 -0.02594883 0.99425226
-1.2178515 0.70995116 -0.025387267 0.99437624
-1.1833984 0.70996094 -0.024853438 0.9944942
-1.1503906 0.70995116 -0.024345359 0.99460644
-1.0589062 0.70996094 -0.022959441 0.99491262
-1.0391601 0.71582031 -0.022724953 0.99496454
-1.0391015 0.73520505 -0.022924002 0.99492055
-1.0390821 0.7549414 -0.02313076 0.99487484
-1.0390234 0.77506834 -0.023344649 0.99482751
-1.0389258 0.81641603 -0.023796424 0.99472779
-1.0388671 0.83770508 -0.024034461 0.99467522
-1.0388281 0.85943359 -0.024281273 0.99462062
-1.0388086 0.88160157 -0.024537239 0.99456406
-1.0386914 0.92740232 -0.025077209 0.99444473
-1.0386132 0.95108396 -0.025362471 0.99438179
-3.8282812 3.6866405 -0.095715597 0.97896183
-3.7233202 3.6768553 -0.094239615 0.97928292
-3.7113671 3.8540039 -0.096357383 0.97882211
-3.6921873 3.931787 -0.097136155 0.97865313
-3.2774999 3.5792773 -0.087402187 0.98077148
-3.2285156 3.6160059 -0.087301135 0.98079348
-9.9724216 15.714072 -0.33517823 0.92824703
-11.207598 19.225721 -0.40077627 0.91481787
-10.221523 19.753027 -0.40054438 0.91486537
-9.9709377 19.876904 -0.40048549 0.91487777
-9.7209759 20.001816 -0.40050644 0.91487288
-8.956933 20.346552 -0.40035877 0.91490263
-8.4406643 20.560028 -0.40025896 0.91492313
-8.180625 20.661865 -0.40020874 0.91493338
-7.9049606 21.531366 -0.41307113 0.91232288
-7.6327929 21.626268 -0.41301855 0.91233349
-7.3594918 21.717733 -0.41296577 0.91234404
-7.0850582 21.805605 -0.41291273 0.91235518
-6.8096676 21.890137 -0.41285956 0.91236573
-6.533164 21.971083 -0.41280615 0.91237676
-6.2557421 22.048515 -0.4127526 0.91238791
-5.6982031 22.192997 -0.41264495 0.9124096
-2.448828 10.641132 -0.19664779 0.95725626
-2.0288281 10.635586 -0.19499168 0.95760828
-1.4092578 7.927578 -0.14500843 0.96830064
-1.3049219 7.9168749 -0.14450179 0.96840972
-0.99960935 7.9128318 -0.14363678 0.96859562
-0.7978906 7.9101954 -0.1431797 0.96869403
-0.60421872 7.9987793 -0.14446232 0.968418
-0.50312501 7.9974313 -0.1443132 0.96845025
-0.40222657 7.9961033 -0.14418651 0.96847749
-0.30152342 7.9947753 -0.14408256 0.96849978
-0.20089844 7.9934473 -0.14400226 0.96851718
0.10042968 7.9894824 -0.14389564 0.96853983
0.20082031 7.9881539 -0.14390659 0.96853769
0.30124998 7.9868164 -0.14393936 0.96853065
0.60304683 7.9828515 -0.14417607 0.96847987
0.80498046 7.9801755 -0.14444706 0.96842146
0.99628901 7.8865137 -0.14315945 0.96869844
1.4010156 7.8811812 -0.14415951 0.96848321
1.8333789 7.9666209 -0.14722374 0.96782428
2.0448046 7.9638476 -0.14807484 0.96764112
2.1514452 7.9624414 -0.14854008 0.96754122
2.2587891 7.9610348 -0.14903091 0.96743554
2.3668358 7.959609 -0.14954971 0.9673242
2.4756639 7.9581637 -0.15009609 0.96720695
2.5853124 7.9567184 -0.15066925 0.96708375
2.6958203 7.9552732 -0.15127102 0.96695435
2.9195898 7.9523239 -0.1525631 0.96667701
3.0329688 7.95082 -0.15325351 0.96652877
3.2628906 7.947793 -0.15472648 0.96621239
3.3410156 7.8556347 -0.15373763 0.9664247
3.4575391 7.8540916 -0.15454605 0.96625125
3.5753124 7.852529 -0.15538673 0.96607071
3.6943748 7.8509665 -0.15626277 0.9658829
3.8148437 7.8493848 -0.15717265 0.96568763
3.982168 7.9383202 -0.15994278 0.96509349
4.2333593 7.9349999 -0.16196895 0.96465921
4.4911327 7.9316015 -0.16415161 0.9641915
4.6227145 7.929863 -0.16530548 0.96394449
4.8916016 7.9263282 -0.16774234 0.96342283
5.0290623 7.9245114 -0.16902786 0.96314776
5.1686716 7.9226561 -0.17036059 0.96286267
5.6849999 7.8247361 -0.17418426 0.96204513
5.8351755 7.8227344 -0.17575829 0.96170872
5.9880662 7.8207226 -0.17738952 0.96136028
6.4279685 7.9719334 -0.18443066 0.95985872
7.1097264 7.9629493 -0.1922493 0.95819199
7.4732032 7.9581637 -0.19660869 0.9572649
7.6613083 7.9556932 -0.19890937 0.95677543
7.853828 7.9531541 -0.20129833 0.95626801
8.2533197 7.9478807 -0.20635067 0.95519525
8.8923044 7.9394531 -0.21468884 0.95342803
9.3481636 7.9334373 -0.2208094 0.95213234
9.5860939 7.9302926 -0.22405751 0.95144558
9.8214455 7.9192381 -0.22721478 0.9507786
1.2699219 0.92265624 -0.028268967 0.99373978
1.2699804 0.89853513 -0.028016586 0.99379551
1.2700781 0.85151362 -0.027537612 0.99390125
1.2701172 0.82860351 -0.027310828 0.99395138
1.2701563 0.8060742 -0.027091675 0.99399972
1.2702148 0.78386718 -0.026880341 0.99404639
1.2702343 0.76203126 -0.026676483 0.99409145
1.270293 0.74050778 -0.026479758 0.99413484
1.2703124 0.71929687 -0.026290016 0.99417681
1.3307421 0.70996094 -0.027162895 0.99398404
1.4152734 0.70994139 -0.028515128 0.99368554
1.4607812 0.70995116 -0.029250182 0.99352336
1.5087109 0.70994139 -0.030028991 0.99335152
1.5592968 0.70994139 -0.030855179 0.99316907
1.6127539 0.70995116 -0.031733703 0.99297523
1.7293359 0.70995116 -0.033666037 0.99254912
1.9998242 0.70582032 -0.038192518 0.99155164
1.9997851 0.67766601 -0.038025931 0.99158829
1.9997265 0.64972657 -0.037866514 0.9916234
20.914219 6.5060544 -0.3944529 0.9161039
21.069336 5.9779391 -0.39442351 0.91611069
21.142109 5.7125096 -0.39440978 0.91611326
21.277617 5.1790428 -0.39438424 0.91611844
19.285313 4.4381638 -0.35639316 0.92388242
19.281914 4.1829882 -0.35533297 0.92410046
18.075274 3.6840332 -0.33221647 0.92885786
18.203691 3.2360058 -0.3329756 0.9287011
21.604023 3.5610449 -0.39432302 0.91613054
21.68586 3.016875 -0.39430776 0.91613364
22.925547 2.8961914 -0.41615486 0.9116984
23.834883 -5.1706934 -0.43923232 0.90703613
22.412344 -5.1578026 -0.4141807 0.91209817
21.286913 -5.1813083 -0.39455456 0.9160834
21.151367 -5.7149901 -0.39458126 0.91607815
21.078554 -5.9805274 -0.39459556 0.91607559
21.002577 -6.2451463 -0.39461052 0.91607237
20.923281 -6.5088673 -0.39462608 0.91606915
1.9997656 -0.67765623 -0.038025856 0.99158835
1.933789 -0.70995116 -0.037098158 0.99179256
1.793164 -0.70995116 -0.034731828 0.99231404
1.6692969 -0.70996094 -0.032668725 0.99276912
1.6127343 -0.70994139 -0.031733666 0.99297529
1.5592968 -0.70995116 -0.030855522 0.99316907
1.5087109 -0.70994139 -0.030028839 0.99335152
1.4152734 -0.70994139 -0.028515015 0.99368554
1.270293 -0.74048829 -0.026479568 0.99413484
1.2702343 -0.76202148 -0.026676521 0.99409145
1.2701757 -0.78386718 -0.026880264 0.99404651
1.2701367 -0.80604488 -0.027091522 0.99399984
1.2701172 -0.82859373 -0.027310714 0.99395138
1.2700781 -0.85150391 -0.027537612 0.99390125
1.2698437 -0.94720703 -0.028530654 0.99368221
13.825136 -10.863671 -0.31665248 0.93207455
13.467285 -10.858945 -0.31155682 0.93313015
12.784785 -10.849941 -0.30198231 0.93511701
12.142617 -10.841484 -0.29316002 0.93695176
11.835273 -10.837441 -0.28900495 0.93781686
11.536523 -10.833515 -0.28501102 0.93864912
5.4255075 -5.3577442 -0.1373212 0.96995538
5.2705078 -5.3371677 -0.13508609 0.97043729
5.1980076 -5.3977342 -0.13495517 0.97046548
5.2169528 -5.5554686 -0.13724945 0.96997112
10.853788 -12.156347 -0.29349062 0.93688262
10.845586 -12.779609 -0.30185929 0.93514234
10.686934 -12.918281 -0.30194309 0.93512589
10.145527 -12.911133 -0.29571944 0.93641907
9.6256056 -12.904297 -0.2899276 0.93762439
9.373105 -12.900976 -0.28718436 0.93819612
9.1253319 -12.897715 -0.28453586 0.93874812
8.6430664 -12.891347 -0.279515 0.93979591
8.408144 -12.888251 -0.2771349 0.94029301
8.177207 -12.885204 -0.27483836 0.94077289
6.8650584 -12.8679 -0.2626588 0.94332159
6.6572657 -12.865166 -0.26087478 0.94369555
6.4522848 -12.862451 -0.25915545 0.94405609
6.2499413 -12.859785 -0.25749758 0.94440359
6.0500975 -12.857148 -0.25590286 0.94473839
5.8527341 -12.85455 -0.25436613 0.94506073
5.6576757 -12.851973 -0.25288936 0.94537103
4.7138281 -12.839531 -0.24632096 0.9467513
4.5307422 -12.837129 -0.24516338 0.94699478
4.1694922 -12.832363 -0.24299479 0.94745129
3.9912109 -12.83 -0.24198051 0.94766462
3.1200781 -12.818516 -0.23759185 0.94858903
2.9494531 -12.816269 -0.236844 0.9487465
2.2767186 -12.807402 -0.23426847 0.94928974
2.110703 -12.805215 -0.23372318 0.94940442
1.9453906 -12.803046 -0.23322047 0.94951075
1.6168554 -12.798691 -0.23232672 0.94969916
1.2905663 -12.794394 -0.23158891 0.94985533
1.1281836 -12.792246 -0.23127238 0.94992149
0.80472654 -12.790606 -0.23080516 0.95002031
0.64335936 -12.788692 -0.23060666 0.95006227
1.953125e-05 -12.781103 -0.23017775 0.95015258
-0.16058594 -12.779316 -0.23016413 0.95015556
-0.32121092 -12.777637 -0.23018895 0.95015043
-1.6421094 -21.738144 -0.39260456 0.91648054
-1.9167968 -21.734531 -0.39294127 0.91641158
-2.5010157 -22.019609 -0.39910674 0.9151575
-3.2322264 -23.23373 -0.4224498 0.91042376
-3.5243554 -23.194189 -0.42250609 0.91041303
-4.1072068 -23.104414 -0.42261836 0.91039038
-4.3978515 -23.054199 -0.42267436 0.91037846
-4.977129 -22.942324 -0.42278594 0.91035634
-5.2657032 -22.881016 -0.42284149 0.91034496
-5.5535154 -22.815918 -0.42289692 0.91033417
-5.8406053 -22.747499 -0.42295218 0.91032225
-6.6963673 -22.519873 -0.42311698 0.91028935
-6.9797654 -22.436953 -0.42317152 0.9102779
-7.2620506 -22.350273 -0.42322585 0.91026717
-7.5432811 -22.260048 -0.42327997 0.91025645
-8.1024017 -22.069199 -0.42338759 0.91023415
-8.6565819 -21.863995 -0.42349422 0.91021305
-3.7918358 -9.236269 -0.17981048 0.96084344
-9.4780073 -21.530176 -0.42365226 0.91018128
-9.7490425 -21.412109 -0.42370436 0.91017038
-10.553085 -21.037266 -0.423859 0.91013849
-11.602226 -20.490156 -0.42406073 0.91009796
-12.116211 -20.196659 -0.4241595 0.9100787
-12.370527 -20.045235 -0.42420837 0.91006833
-12.622969 -19.890566 -0.42425692 0.91005814
-13.121738 -19.571386 -0.42435271 0.91003919
-13.368105 -19.407148 -0.42440006 0.91002953
-14.568281 -18.539589 -0.42463052 0.90998262
-15.032656 -18.171406 -0.42471969 0.90996492
-15.711719 -17.597284 -0.42484999 0.90993851
-15.933085 -17.400078 -0.42489249 0.90993059
-16.368593 -16.997587 -0.42497599 0.90991336
-16.582539 -16.792236 -0.42501703 0.90990478
-17.208477 -16.159824 -0.42513704 0.90988076
-1.0386914 -0.92740232 -0.025077362 0.99444473
-1.0387499 -0.90423828 -0.024802474 0.99450552
-1.0388281 -0.85941404 -0.02428112 0.99462068
-1.0389062 -0.83768553 -0.024034308 0.99467516
-1.0389453 -0.8163867 -0.023796311 0.99472779
-1.0390038 -0.79551756 -0.023566665 0.99477851
-1.0390234 -0.77504879 -0.023344688 0.99482757
-1.0391015 -0.75493163 -0.023130683 0.99487478
-1.0882031 -0.70994139 -0.023399962 0.99481541
-1.1503515 -0.70992184 -0.024345322 0.99460661
-1.3307226 -0.70995116 -0.027162705 0.99398416
-1.3719727 -0.70993161 -0.027820129 0.99383897
-1.4152343 -0.70994139 -0.028514862 0.99368572
-1.5087109 -0.70994139 -0.030028686 0.99335152
-1.6692578 -0.70994139 -0.032668456 0.99276924
-1.7766796 -0.70342773 -0.034413412 0.99238443
-1.7766405 -0.67773438 -0.034244955 0.99242157
-21.0875 -7.4426365 -0.40272728 0.9144212
-21.269726 -6.9109764 -0.40276182 0.91441405
-21.438124 -6.3746872 -0.40279377 0.91440856
-21.665781 -5.562861 -0.4028368 0.91439861
-21.800039 -5.0169239 -0.40286207 0.91439372
-21.861797 -4.7426853 -0.40287372 0.91439211
-22.354101 -4.5561423 -0.41085586 0.91277164
-24.368965 0.30625001 -0.50644153 0.90709817
-24.363047 0.61245114 -0.5064401 0.90709871
-24.339804 1.2244824 -0.50643498 0.90709925
-24.275663 2.1409278 -0.50642163 0.90710181
-24.213614 2.7502344 -0.50640905 0.9071039
-24.136171 3.3577635 -0.50639343 0.9071064
-24.09164 3.6607323 -0.50638455 0.90710801
-24.043203 3.9630859 -0.50637484 0.90710998
-23.029238 4.3930564 -0.48719344 0.91046643
-22.725899 4.6319141 -0.48196968 0.91138256
-22.428946 4.8657322 -0.4769282 0.91226709
-20.634668 6.9924903 -0.45275214 0.91652328
-1.7774414 0.65257812 -0.039347913 0.99245316
-1.7774999 0.67806637 -0.039534032 0.99241751
-1.7292968 0.70995116 -0.03884678 0.99254882
-1.6692578 0.70994139 -0.037695732 0.99276888
-1.6126952 0.70995116 -0.036616936 0.99297506
-1.5087109 0.70995116 -0.034649923 0.99335116
-1.4607617 0.70994139 -0.033751182 0.99352306
-1.3307031 0.70995116 -0.031342771 0.99398386
-1.2913672 0.70995116 -0.030623816 0.99412143
-1.2537891 0.70996094 -0.029941902 0.99425197
-1.2178515 0.70997071 -0.029294128 0.99437588
-1.0589062 0.70996094 -0.026492691 0.99491233
-1.0383984 0.73471677 -0.026434097 0.99492365
-1.0383788 0.75444335 -0.026672134 0.99487799
-1.0383008 0.77452147 -0.026918717 0.99483085
-1.038164 0.83712888 -0.02771347 0.99467856
-1.0380859 0.85881835 -0.027998008 0.9946242
-1.0379297 0.92672849 -0.02891529 0.99444848
-1.0378516 0.95037109 -0.029243583 0.9943856
-3.9254687 3.6862695 -0.11190341 0.97868592
-3.8267577 3.6851366 -0.11039761 0.9789691
-3.7217968 3.6753416 -0.10869701 0.97929025
-3.2774999 3.5792773 -0.10085205 0.98077041
-15.716738 18.519413 -0.50475389 0.90739322
-15.481347 18.71373 -0.50470829 0.90740138
-15.243554 18.905039 -0.50466222 0.90740955
-15.003476 19.093466 -0.50461578 0.90741712
-11.533496 15.462129 -0.4008548 0.92572677
-11.336875 15.603915 -0.40080854 0.92573565
-11.138633 15.743349 -0.40076187 0.92574376
-10.12623 15.103583 -0.37787545 0.92983156
-9.8262892 15.061992 -0.37371784 0.9305765
-8.8512497 17.105019 -0.40022388 0.92583948
-8.634531 17.212734 -0.40017292 0.92584842
-8.4164257 17.317587 -0.40012163 0.92585784
-8.1971092 17.419775 -0.40007007 0.9258669
-7.9765625 17.51919 -0.40001819 0.9258759
-8.0092964 18.193907 -0.41309482 0.9235481
-7.7791796 18.291113 -0.41305032 0.92355615
-7.5478907 18.38541 -0.41300556 0.9235642
-7.3154688 18.476788 -0.41296074 0.92357218
-7.081953 18.565205 -0.41291565 0.92358029
-6.8473825 18.65081 -0.41287029 0.92358786
-6.6117187 18.733213 -0.41282478 0.92359632
-6.3751168 18.812792 -0.41277906 0.92360425
-6.1374998 18.889229 -0.41273314 0.92361271
-5.8989844 18.962803 -0.41268709 0.9236207
-5.4193945 19.100771 -0.41259447 0.92363715
-5.178359 19.165243 -0.41254795 0.92364532
-2.5905468 10.642988 -0.22762598 0.95712203
-2.4488671 10.641113 -0.22691016 0.95725405
-2.1680467 10.637422 -0.22559683 0.95749593
-1.4092382 7.9276071 -0.16732399 0.96829885
-1.304961 7.9168749 -0.16673839 0.96840805
-0.99960935 7.9128513 -0.16574222 0.9685939
-0.70257813 7.9663377 -0.16618858 0.96851051
-0.60421872 7.9987793 -0.16669494 0.96841633
-0.30152342 7.9947948 -0.16625527 0.96849805
3.9062499e-05 7.9908104 -0.166054 0.96853548
0.10042968 7.9894824 -0.16604018 0.96853822
0.20083983 7.9881639 -0.16605243 0.96853596
0.30124998 7.986836 -0.1660894 0.96852887
0.40173829 7.9855075 -0.16615513 0.96851689
0.50234371 7.9841795 -0.16624458 0.96850002
0.60304683 7.9828515 -0.166362 0.9684782
0.70390624 7.981523 -0.16650444 0.96845144
0.80498046 7.980195 -0.16667618 0.96841973
0.99632812 7.8865333 -0.16519055 0.96869665
1.1979687 7.8838768 -0.16571307 0.9685992
1.2992969 7.8825293 -0.16601504 0.96854293
1.4010156 7.8812008 -0.16634342 0.96848142
1.5031641 7.8798532 -0.16670181 0.96841484
1.6243163 7.9693942 -0.16901454 0.96798372
1.7285937 7.9680271 -0.16943286 0.96790576
1.938789 7.9652538 -0.17035583 0.96773368
2.1514258 7.9624414 -0.17139819 0.96753949
2.25875 7.9610152 -0.17196651 0.96743393
2.3668358 7.959609 -0.17256409 0.96732247
2.5853124 7.9567184 -0.1738549 0.96708196
2.8072264 7.9537792 -0.17527825 0.9668172
2.9196093 7.9523144 -0.17604004 0.96667528
3.1473827 7.9493065 -0.17766921 0.96637219
3.3410156 7.8556247 -0.17739643 0.96642298
3.4575391 7.8540816 -0.17832817 0.96624953
3.6943944 7.8509569 -0.18031017 0.96588111
3.8148437 7.8493748 -0.18135905 0.96568584
3.9821484 7.9382911 -0.18455547 0.96509176
4.3614063 7.933291 -0.18813102 0.96442783
4.7561717 7.9280953 -0.1921242 0.96368647
4.8916016 7.9263182 -0.19355498 0.96342093
5.0290623 7.9245019 -0.19503841 0.96314585
5.4547262 7.9188766 -0.19982184 0.96225929
5.8351364 7.8227344 -0.20280467 0.96170682
5.9880662 7.8207226 -0.20468818 0.96135825
6.593164 7.9697461 -0.21494347 0.95946187
6.7617579 7.9675388 -0.21715927 0.9590528
6.933867 7.9652734 -0.2194548 0.95862901
7.2894139 7.9605856 -0.22430322 0.95773458
8.051074 7.9505367 -0.23513633 0.95573932
8.6735935 7.9423437 -0.24439867 0.95403719
8.8922853 7.9394431 -0.24772646 0.95342565
9.1170502 7.9364743 -0.25118709 0.9527902
9.3481836 7.9334273 -0.25479001 0.95212984
9.586113 7.9303026 -0.25853789 0.95144296
1.2689843 0.94657224 -0.032898445 0.99368608
1.2691015 0.89791012 -0.032305907 0.99379945
1.2691991 0.87422848 -0.03202549 0.99385303
1.2692773 0.82807612 -0.031492803 0.99395502
1.2693359 0.8055371 -0.03124054 0.9940033
1.269453 0.76152343 -0.030761909 0.99409485
1.2694921 0.74002928 -0.030535163 0.99413824
1.3307421 0.70995116 -0.031343076 0.99398375
1.3719921 0.70996094 -0.032101784 0.99383855
1.4608008 0.70994139 -0.033751372 0.99352294
1.5592968 0.70994139 -0.035603561 0.99316871
1.6127539 0.70995116 -0.036617048 0.99297488
1.7293359 0.70995116 -0.038847007 0.9925487
1.7931445 0.70994139 -0.040077019 0.99231374
1.933789 0.70996094 -0.042807464 0.99179208
2.0018749 0.67835939 -0.043923452 0.99157906
2.0017967 0.65041012 -0.043739319 0.99161428
18.14953 5.6459861 -0.39498687 0.92677343
18.218378 5.4173045 -0.39497381 0.92677599
18.3475 4.9574022 -0.39494941 0.92678082
18.571562 4.0288868 -0.39490721 0.92678785
18.075274 3.6840332 -0.38333905 0.92885423
18.072147 3.4474511 -0.38232428 0.92903578
18.203691 3.2360058 -0.38421622 0.92869741
20.961483 2.9161131 -0.43979061 0.91881388
22.874277 2.8896973 -0.47911829 0.9118824
23.83082 2.1016893 -0.4971461 0.90872395
23.875858 1.5021386 -0.49713805 0.90872484
23.915117 0.6011523 -0.49713144 0.90872627
23.920742 0.3005957 -0.49713069 0.90872645
23.922655 -9.7656248e-06 -0.49713066 0.90872633
23.9058 -0.90166014 -0.49713483 0.90872586
23.892851 -1.2019922 -0.49713767 0.90872484
23.85535 -1.8020703 -0.49714553 0.90872395
23.803085 -2.4010448 -0.49715623 0.90872192
23.771444 -2.6999903 -0.4971627 0.90872043
23.696756 -3.2966406 -0.49717772 0.90871793
23.607225 -3.8912108 -0.4971956 0.90871501
23.445272 -4.7785254 -0.49722776 0.90870953
21.090078 -5.1333985 -0.45106348 0.91682184
18.925449 -5.113584 -0.4073886 0.92456365
18.292343 -5.1900196 -0.39513198 0.92674774
18.226288 -5.4196582 -0.39514494 0.92674536
18.157265 -5.6484079 -0.39515844 0.92674339
2.0017967 -0.65041012 -0.043739431 0.99161428
2.0019336 -0.70656246 -0.0441164 0.99154228
1.933789 -0.70995116 -0.042807084 0.99179214
1.8611327 -0.70995116 -0.041393697 0.99206215
1.6692969 -0.70996094 -0.03769619 0.9927687
1.5087304 -0.70995116 -0.034650113 0.99335104
1.4607812 -0.70993161 -0.03375145 0.99352306
1.3719921 -0.70995116 -0.032101478 0.99383855
1.2914063 -0.70994139 -0.030624045 0.99412131
1.2695117 -0.71883786 -0.030316656 0.99418014
1.2694141 -0.76154298 -0.030761985 0.99409491
1.2693359 -0.80554688 -0.031240577 0.9940033
1.2691797 -0.87422848 -0.03202549 0.99385309
13.825136 -10.863671 -0.36538249 0.93207103
13.467285 -10.858945 -0.3595027 0.93312669
12.458945 -10.845644 -0.34326202 0.9360491
12.142597 -10.841484 -0.33827263 0.93694854
11.835273 -10.837441 -0.33347839 0.93781364
11.245839 -10.829668 -0.32443798 0.93944734
5.4233203 -5.3555565 -0.15838985 0.96996582
5.2679882 -5.3345604 -0.15579921 0.97044981
5.195703 -5.3953223 -0.15565422 0.97047687
5.2147851 -5.5531836 -0.15830444 0.96998173
10.853808 -12.156367 -0.33865649 0.93687922
10.849766 -12.463613 -0.34338903 0.93602574
10.686934 -12.918281 -0.34840727 0.93512249
9.6255665 -12.904297 -0.33454484 0.93762124
9.373105 -12.900976 -0.33137947 0.9381929
8.6430855 -12.891328 -0.32252809 0.93979281
8.4081831 -12.888242 -0.31978178 0.94028986
8.1772261 -12.885185 -0.31713364 0.94076985
7.9499998 -12.882197 -0.31457445 0.94123322
7.7264061 -12.879248 -0.31210768 0.94168049
7.506289 -12.876338 -0.30972615 0.94211221
7.0757227 -12.870673 -0.30521384 0.94293082
6.6572657 -12.865147 -0.30102074 0.94369268
6.2499413 -12.859765 -0.29712424 0.94440073
6.050117 -12.857148 -0.29528236 0.94473547
5.2741599 -12.846913 -0.28858969 0.94595373
5.0854688 -12.844433 -0.28707528 0.94622958
4.3493161 -12.834726 -0.28161272 0.94722539
4.1694922 -12.832363 -0.28038779 0.94744855
3.9912109 -12.83 -0.2792176 0.94766194
3.8143554 -12.827676 -0.27810392 0.94786555
3.6388867 -12.825371 -0.27703974 0.94805956
3.2918162 -12.820801 -0.27506712 0.94841981
2.4435546 -12.809609 -0.27099338 0.94916403
2.1107225 -12.805215 -0.2696915 0.94940174
1.6168749 -12.798711 -0.26807991 0.94969642
1.1281641 -12.792265 -0.26686341 0.94991881
0.80474609 -12.790615 -0.26632255 0.95001769
0.32140625 -12.784863 -0.26576293 0.95012033
0.16066405 -12.783008 -0.26565981 0.95013887
-1.953125e-05 -12.781133 -0.26560184 0.95014983
-0.16058594 -12.779316 -0.26558292 0.95015293
-0.32121092 -12.777646 -0.26561135 0.95014775
-0.64402342 -12.80166 -0.26636395 0.9500103
-0.80480468 -12.792188 -0.26635405 0.95001167
-2.2932813 -20.190351 -0.42226553 0.92191869
-2.800586 -20.130957 -0.42236328 0.92190152
-3.3063476 -20.058847 -0.42246071 0.92188424
-3.8102734 -19.974024 -0.42255777 0.92186695
-4.3120117 -19.876522 -0.42265442 0.92184973
-4.5619531 -19.823046 -0.42270255 0.92184114
-5.5546875 -19.577578 -0.4228937 0.92180747
-5.8008981 -19.508358 -0.42294109 0.92179924
-6.0462694 -19.43627 -0.42298836 0.92179024
-6.2907224 -19.360878 -0.42303538 0.92178202
-6.5342383 -19.282421 -0.42308226 0.92177379
-6.7767773 -19.200897 -0.42312893 0.92176551
-7.018281 -19.116289 -0.42317542 0.9217574
-7.25875 -19.028681 -0.42322165 0.92174911
-7.4981246 -18.938017 -0.42326772 0.92174095
-3.7918358 -9.236269 -0.20748046 0.96084142
-8.209219 -18.647987 -0.42340454 0.92171669
-8.6770897 -18.439726 -0.42349452 0.92170066
-8.9090424 -18.331133 -0.4235391 0.92169291
-9.1396093 -18.219608 -0.42358348 0.92168516
-9.3688669 -18.105312 -0.42362753 0.92167693
-9.5966406 -17.988028 -0.42367133 0.92166907
-10.492558 -17.490185 -0.42384356 0.92163873
-10.712539 -17.358643 -0.42388582 0.92163146
-10.930996 -17.224434 -0.42392784 0.92162359
-11.362558 -16.947529 -0.42401072 0.92160928
-11.57582 -16.805166 -0.4240517 0.92160141
-11.996738 -16.51211 -0.42413253 0.92158711
-12.204413 -16.361542 -0.42417243 0.92158026
-12.410175 -16.208399 -0.42421195 0.92157328
-12.815898 -15.894267 -0.42428985 0.92155969
-13.01582 -15.733398 -0.42432821 0.92155284
-13.794706 -15.064863 -0.4244777 0.92152637
-13.984179 -14.891602 -0.42451409 0.92151982
-14.356445 -14.538017 -0.4245854 0.92150676
-14.719628 -14.174922 -0.42465508 0.92149466
-14.897734 -13.989902 -0.4246892 0.92148888
-1.0379297 -0.92670894 -0.028915213 0.99444854
-1.0380859 -0.85880858 -0.027997855 0.9946242
-1.038164 -0.83709961 -0.027713507 0.99467862
-1.0382422 -0.81583005 -0.027439155 0.99473107
-1.0382812 -0.79497069 -0.027174301 0.99478185
-1.0383203 -0.77451169 -0.026918868 0.99483079
-1.0383594 -0.75443357 -0.026672134 0.99487805
-1.0384179 -0.73469722 -0.026434135 0.99492365
-1.0384766 -0.71531248 -0.026204338 0.99496764
-1.0588866 -0.70994139 -0.026492538 0.99491245
-1.0882031 -0.70994139 -0.027000807 0.99481511
-1.1186719 -0.70994139 -0.02753311 0.99471313
-1.1503515 -0.70992184 -0.028091583 0.99460632
-1.2537891 -0.70995116 -0.02994152 0.99425197
-1.3719727 -0.70994139 -0.032101516 0.99383861
-1.4607812 -0.70994139 -0.03375103 0.993523
-1.5087109 -0.70995116 -0.034649659 0.99335116
-1.6692578 -0.70994139 -0.037695922 0.99276888
-1.777539 -0.70376951 -0.039728202 0.99238038
-1.7774609 -0.65258789 -0.039348219 0.9924531
-18.250273 -6.4412498 -0.40217918 0.92549074
-18.330391 -6.2116308 -0.40219435 0.92548829
-18.407734 -5.9810448 -0.40220904 0.92548543
-18.687363 -5.0492477 -0.40226194 0.92547637
-19.902657 -4.5802536 -0.4244 0.9215399
-21.045977 -4.5656834 -0.44752285 0.91744679
-23.748457 -4.5302539 -0.50240707 0.90780324
-23.991524 -4.2648926 -0.50637364 0.90710992
-24.177149 -3.0542772 -0.50640815 0.9071039
-24.246874 -2.4457812 -0.50642097 0.90710169
-24.301054 -1.8357226 -0.50643075 0.90710032
-24.322479 -1.5302343 -0.50643456 0.90709931
-24.353418 -0.91851562 -0.50643986 0.90709871
-24.368944 -0.30625001 -0.50644219 0.90709823
-21.472303 0.53977537 -0.5058828 0.91764915
-21.46373 0.80955076 -0.50588083 0.91764945
-21.436367 1.3486718 -0.50587499 0.91765034
-21.417616 1.6179395 -0.50587112 0.91765076
-21.395254 1.8868945 -0.50586647 0.91765201
-21.369764 2.1555762 -0.50586128 0.91765237
-21.308281 2.691875 -0.50584888 0.91765445
-21.272499 2.9593847 -0.50584167 0.91765547
-21.144745 3.7588573 -0.50581622 0.91765952
-21.042812 4.2888865 -0.50579602 0.9176625
-20.986776 4.5528417 -0.50578493 0.91766435
-20.864765 5.0785742 -0.50576085 0.91766798
-20.729492 5.6010251 -0.50573415 0.91767204
-20.580858 6.1197753 -0.505705 0.91767716
-20.419374 6.6346774 -0.50567329 0.91768175
-1.7783593 0.67839843 -0.044828679 0.99241334
-1.7783984 0.70412105 -0.045049246 0.99237621
-1.7292968 0.70995116 -0.044027898 0.99254841
-1.5592577 0.70995116 -0.040351979 0.99316841
-1.4152734 0.70995116 -0.037291601 0.99368483
-1.3307031 0.70995116 -0.035523299 0.99398351
-1.2913672 0.70994139 -0.034708519 0.99412113
-1.1833984 0.70996094 -0.032503355 0.9944936
-1.1503906 0.70995116 -0.031838797 0.99460578
-1.0589062 0.70996094 -0.030026397 0.99491203
-1.0377734 0.71485353 -0.029679794 0.99497068
-1.0376953 0.75393552 -0.030209197 0.99488103
-1.0375 0.8152734 -0.031077156 0.99473447
-1.0374218 0.83652341 -0.031387977 0.99468201
-1.0373828 0.85820311 -0.031709708 0.99462754
-1.0373046 0.88034177 -0.032043342 0.99457121
-1.0370703 0.94966793 -0.033119619 0.99438947
-3.8251758 3.6836326 -0.12507527 0.97897637
-3.689707 3.9291503 -0.12694716 0.97866488
-3.2774999 3.5792675 -0.11430313 0.98076928
-11.009336 12.972558 -0.40073302 0.93418872
-10.844414 13.108662 -0.40069422 0.93419468
-10.677773 13.242598 -0.400655 0.93420094
-9.9949608 13.756885 -0.40049434 0.93422621
-9.644062 14.000791 -0.40041175 0.93423957
-9.4663668 14.119394 -0.40036994 0.93424624
-9.2872849 14.23579 -0.40032783 0.93425262
-9.1066208 14.349727 -0.4002853 0.93425989
-8.9246874 14.461592 -0.40024248 0.93426621
-8.5566015 14.678105 -0.40015593 0.93427998
-8.1832418 14.885273 -0.40006813 0.93429381
-7.9946094 14.985175 -0.40002376 0.9343012
-8.060976 15.577831 -0.4131076 0.9322269
-7.466074 15.86623 -0.41299254 0.93224478
-7.2654295 15.957246 -0.41295379 0.9322511
-6.8607812 16.131689 -0.41287559 0.93226373
-6.4520116 16.295937 -0.41279656 0.93227601
-6.2461133 16.374149 -0.4127568 0.93228233
-6.0392575 16.449677 -0.41271687 0.93228894
-5.4134178 16.660791 -0.41259593 0.93230784
-4.9920702 16.78833 -0.41251457 0.93232042
-2.5905468 10.642988 -0.25798747 0.95711946
-2.3080468 10.639257 -0.25640881 0.95737606
-2.1680858 10.637422 -0.25568774 0.95749331
-2.0288281 10.635586 -0.25501058 0.95760351
-1.304961 7.9168649 -0.18897735 0.9684062
-0.99960935 7.9128418 -0.18784831 0.96859205
-0.89859372 7.9115133 -0.18753269 0.96864378
-0.7978906 7.9101853 -0.18724945 0.96869051
-0.70257813 7.9663281 -0.18835442 0.96850866
-0.50312501 7.9974413 -0.188731 0.96844661
-0.30152342 7.9947848 -0.18842983 0.96849614
-0.20093749 7.9934568 -0.188325 0.96851355
0.30124998 7.986836 -0.18824279 0.96852702
0.40175781 7.985498 -0.18831661 0.96851504
0.70390624 7.9815135 -0.18871376 0.96844959
0.8959375 7.8878512 -0.18697262 0.96873605
0.99632812 7.8865232 -0.18722309 0.96869481
1.2993164 7.8825192 -0.18815762 0.96854103
1.5031836 7.8798437 -0.18893611 0.968413
1.6243359 7.9693847 -0.1915572 0.96798182
2.0448046 7.9638376 -0.1936515 0.96763748
2.1514452 7.9624314 -0.19425967 0.96753758
2.25875 7.9610057 -0.19490181 0.96743202
2.3668358 7.9595799 -0.19557914 0.96732056
2.5853124 7.9567285 -0.19704533 0.96707994
2.6958203 7.9552636 -0.19783126 0.96695065
2.8072264 7.9537792 -0.19865623 0.96681517
2.9196093 7.9523144 -0.19952072 0.96667325
3.0329688 7.9508104 -0.20042373 0.96652502
3.1473827 7.9493065 -0.20136768 0.96637017
3.2628906 7.947783 -0.20235042 0.96620864
3.6943944 7.8509569 -0.2043581 0.96587908
3.8148437 7.8493748 -0.20554924 0.96568376
3.9821484 7.9382911 -0.20917198 0.96508968
4.4911327 7.9315915 -0.21467762 0.9641875
4.7561717 7.9280953 -0.21774918 0.96368432
5.0290623 7.9245019 -0.22105327 0.96314359
5.4547262 7.9188766 -0.2264735 0.96225703
5.5374999 7.8266602 -0.22580902 0.96236575
5.6849999 7.8247266 -0.22779672 0.9620409
5.8351364 7.8227344 -0.22985543 0.96170449
5.9880466 7.8207226 -0.23198879 0.96135598
6.1438475 7.8186717 -0.23419967 0.96099496
7.1097069 7.9629393 -0.25142387 0.95818734
7.4732223 7.9581542 -0.25712195 0.95726007
7.853828 7.9531446 -0.2632564 0.95626312
8.0510931 7.9505272 -0.266498 0.95573664
8.2533197 7.9478707 -0.26986396 0.95519024
8.6736135 7.9423337 -0.2769897 0.95403439
8.8922853 7.9394431 -0.28076157 0.95342284
9.1170502 7.9364743 -0.28469101 0.9527874
9.8187885 7.7155075 -0.29411101 0.95126379
1.2681249 0.94591796 -0.037260972 0.99369001
1.2682812 0.89731443 -0.036590651 0.99380308
1.2683984 0.85039061 -0.035965994 0.99390858
1.2685742 0.78285152 -0.035108566 0.99405336
1.2686328 0.76104492 -0.034842718 0.99409825
1.2686719 0.73956054 -0.034586143 0.99414164
1.2687109 0.71838868 -0.034338646 0.99418342
1.2914257 0.70995116 -0.034708746 0.9941209
1.3307421 0.70995116 -0.035523679 0.99398339
1.3719921 0.70996094 -0.036383476 0.99383813
1.415293 0.70993161 -0.037291944 0.99368477
1.4608008 0.70994139 -0.038253173 0.99352252
1.5087304 0.70993161 -0.039271545 0.99335068
1.7293359 0.70995116 -0.044028282 0.99254823
2.0040429 0.70728517 -0.050053138 0.99153292
2.0039454 0.67908204 -0.049834173 0.99156988
2.0039062 0.6511035 -0.049624901 0.99160498
16.030155 4.9866896 -0.39539617 0.93503612
16.14953 4.5820312 -0.39537361 0.93503952
16.258671 4.1745114 -0.39535299 0.93504298
16.309433 3.969785 -0.39534342 0.93504459
16.403339 3.558496 -0.39532578 0.93504727
20.930214 2.9117577 -0.49770454 0.91892517
21.088671 1.3268067 -0.49767566 0.91893041
21.103691 1.0616699 -0.49767303 0.91893035
21.128632 -0.26551756 -0.49766967 0.91893065
21.123632 -0.53099608 -0.49767089 0.91893059
21.115351 -0.79641598 -0.49767277 0.91893041
21.10371 -1.0616797 -0.4976753 0.91893029
21.088905 -1.3267969 -0.49767843 0.91892952
21.070782 -1.5917187 -0.49768221 0.91892874
21.049238 -1.8563671 -0.49768665 0.91892827
21.02453 -2.1207519 -0.49769172 0.91892725
20.930389 -2.9117773 -0.49771068 0.91892451
20.851366 -3.4369531 -0.4977265 0.91892171
20.75914 -3.9600096 -0.49774483 0.91891897
20.708124 -4.2206445 -0.49775493 0.91891754
20.653887 -4.4806347 -0.49776569 0.91891587
20.596367 -4.739902 -0.49777704 0.91891432
18.891621 -5.104414 -0.46089941 0.92468888
17.106524 -5.0866895 -0.42033577 0.93108296
16.331835 -5.0805664 -0.40283781 0.93385482
2.0039454 -0.67908204 -0.049833983 0.99156988
1.8611327 -0.70995116 -0.046914786 0.99206167
1.793164 -0.70995116 -0.045421753 0.99231321
1.7293359 -0.70995116 -0.044028204 0.99254823
1.415293 -0.70995116 -0.037291564 0.99368477
1.3719921 -0.70995116 -0.036383092 0.99383819
1.3307421 -0.70995116 -0.035523377 0.99398339
1.2687109 -0.7183789 -0.034338493 0.99418348
1.2685937 -0.76105469 -0.034842718 0.99409837
1.2685547 -0.78286129 -0.035108641 0.99405342
1.2685156 -0.80500972 -0.035384178 0.99400681
1.2684375 -0.82751954 -0.03567009 0.99395865
1.2683984 -0.85038084 -0.035965957 0.99390858
1.2682226 -0.92137694 -0.036919747 0.99374753
1.2681445 -0.94590819 -0.037261009 0.99368995
14.128613 -10.817802 -0.41910383 0.93127787
13.825117 -10.863682 -0.41411602 0.93206704
13.120703 -10.854404 -0.40106165 0.93413621
12.784804 -10.849951 -0.3949306 0.93510973
11.835273 -10.837441 -0.37795699 0.93780994
5.4210935 -5.3534079 -0.17944312 0.96997601
5.2654295 -5.3319921 -0.1764947 0.97046208
5.2126169 -5.550879 -0.17934425 0.96999222
10.857754 -11.85745 -0.37866551 0.93769705
10.853827 -12.156377 -0.3838259 0.9368754
10.845605 -12.779648 -0.39477324 0.93513495
10.413379 -12.914668 -0.39073661 0.93577683
9.8829489 -12.907676 -0.38288587 0.93702537
9.373105 -12.900957 -0.37557784 0.93818927
9.1253319 -12.897695 -0.37211594 0.93874139
8.8820505 -12.894492 -0.3687734 0.93927443
7.9500194 -12.882207 -0.35653344 0.94122964
7.2894335 -12.873496 -0.34843484 0.94252539
6.8650584 -12.867909 -0.34350348 0.94331521
6.6572852 -12.865156 -0.34116852 0.94368929
6.2499413 -12.859804 -0.33675396 0.94439727
6.0500975 -12.857139 -0.33466819 0.94473225
5.8527536 -12.854541 -0.33266029 0.94505459
5.6576953 -12.851982 -0.33072728 0.94536489
5.4648438 -12.849443 -0.32886961 0.94566345
5.2741599 -12.846924 -0.32708099 0.94595051
5.0854883 -12.844423 -0.32536483 0.94622636
4.8987498 -12.841963 -0.32371727 0.94649118
4.5307617 -12.837119 -0.32062301 0.94698888
4.1695118 -12.832343 -0.31778684 0.94744545
3.6389062 -12.825352 -0.31399214 0.94805652
3.4647655 -12.823047 -0.31284627 0.94824129
3.2918162 -12.820781 -0.31175312 0.94841677
3.1200976 -12.818516 -0.3107228 0.94858325
2.2767382 -12.807402 -0.30637443 0.94928408
2.1107225 -12.805195 -0.30566365 0.94939876
1.9454297 -12.803027 -0.30500409 0.94950515
1.7808594 -12.800859 -0.30439529 0.94960332
1.6168749 -12.798691 -0.30383551 0.9496935
1.1282032 -12.792246 -0.30245829 0.94991589
0.96636719 -12.792539 -0.30215353 0.94996494
0.64335936 -12.788681 -0.30158585 0.95005667
0.16066405 -12.782988 -0.30109432 0.95013595
-0.16058594 -12.779297 -0.30100563 0.95015001
-1.3499218 -17.870008 -0.42208114 0.93080676
-1.7989649 -17.834063 -0.42216769 0.93079323
-2.023164 -17.812012 -0.4222109 0.93078583
-1.1713281 -9.272109 -0.22011608 0.96329695
-2.6938672 -17.728397 -0.42234012 0.93076587
-3.5826757 -17.577793 -0.42251137 0.93073875
-4.0240817 -17.48584 -0.42259634 0.93072492
-2.4961329 -9.2381935 -0.22538359 0.96243519
-4.8994727 -17.268311 -0.42276496 0.93069881
-5.1166015 -17.207129 -0.42280668 0.93069202
-5.3329492 -17.143202 -0.42284834 0.93068528
-5.9770312 -16.93494 -0.42297232 0.93066585
-6.1899805 -16.860117 -0.4230133 0.93065941
-7.031992 -16.53418 -0.42317531 0.93063366
-7.239902 -16.446133 -0.42321533 0.93062705
-7.4466796 -16.355331 -0.42325509 0.93062103
-7.8567967 -16.166075 -0.42333397 0.93060845
-8.0600386 -16.067539 -0.42337301 0.93060237
-8.2620897 -15.966426 -0.42341185 0.93059623
-8.6622658 -15.756581 -0.42348883 0.93058425
-8.8604298 -15.647988 -0.42352691 0.93057781
-9.057148 -15.536757 -0.4235647 0.93057203
-9.2525196 -15.423115 -0.42360225 0.93056595
-9.4464064 -15.306952 -0.42363951 0.93056017
-10.019218 -14.943926 -0.4237496 0.93054277
-10.207089 -14.818105 -0.42378566 0.93053705
-10.393378 -14.68996 -0.42382148 0.9305312
-11.822812 -13.581465 -0.4240959 0.93048799
-12.162285 -13.282089 -0.42416102 0.93047768
-12.32916 -13.129218 -0.42419302 0.93047255
-12.65707 -12.817128 -0.42425594 0.93046266
-12.977031 -12.496778 -0.42431727 0.93045312
-13.134043 -12.333672 -0.42434737 0.93044794
-1.0371484 -0.92605466 -0.032747727 0.99445224
-1.0372851 -0.88033199 -0.032043342 0.99457133
-1.0373828 -0.85819334 -0.031709708 0.99462759
-1.0374805 -0.81528318 -0.031077385 0.99473447
-1.037539 -0.79444337 -0.030777587 0.99478513
-1.0376172 -0.77398437 -0.030488471 0.99483401
-1.0377344 -0.73421872 -0.029939881 0.99492669
-1.0377539 -0.71484375 -0.029679794 0.99497074
-1.1187109 -0.70994139 -0.031205673 0.99471271
-1.1503515 -0.70993161 -0.031838607 0.99460596
-1.2178515 -0.70994139 -0.033200987 0.99437565
-1.3307226 -0.70995116 -0.035522994 0.99398345
-1.4152734 -0.70995116 -0.037291564 0.99368483
-1.4607812 -0.70994139 -0.038252831 0.99352264
-1.5087109 -0.70995116 -0.039271392 0.99335074
-1.6692578 -0.70994139 -0.042723693 0.99276841
-1.7292968 -0.70995116 -0.044028167 0.99254841
-1.7783203 -0.65289062 -0.044617347 0.99244905
-16.085781 -5.6773243 -0.401761 0.93402511
-16.15625 -5.4748826 -0.40177435 0.9340235
-16.289824 -5.0674806 -0.40179974 0.93401927
-18.865839 -4.592041 -0.45730543 0.92525291
-19.902676 -4.5802636 -0.48100594 0.92153519
-20.987186 -4.552959 -0.50579464 0.9176628
-21.095741 -4.0242186 -0.50581509 0.91765994
-21.145039 -3.7588964 -0.50582427 0.91765845
-21.308554 -2.691875 -0.50585467 0.91765344
-21.341015 -2.4239452 -0.50586063 0.91765225
-21.369864 -2.155586 -0.50586593 0.91765201
-21.395508 -1.8869042 -0.50587058 0.91765112
-21.417734 -1.6179199 -0.50587457 0.91765034
-21.436483 -1.3486426 -0.50587791 0.91764992
-21.451836 -1.0791894 -0.50588059 0.91764957
-21.477499 -0.26990235 -0.50588465 0.91764873
-19.198984 0.24126953 -0.50544477 0.92604858
-19.194452 0.48250976 -0.50544369 0.92604852
-19.186758 0.72366208 -0.5054419 0.92604893
-19.176172 0.96472657 -0.50543964 0.92604882
-19.162422 1.2056054 -0.50543672 0.92604923
-19.145546 1.4462891 -0.5054332 0.92605007
-19.125742 1.6867285 -0.50542915 0.92605048
-19.048065 2.406328 -0.50541341 0.92605239
-18.980976 2.8841698 -0.50539994 0.92605466
-18.942968 3.1224022 -0.50539237 0.92605567
-18.85791 3.5973437 -0.50537544 0.92605799
-18.76078 4.0699611 -0.50535625 0.92606086
-18.707811 4.3052831 -0.50534576 0.92606223
-18.398397 5.4708104 -0.50528485 0.92607057
-18.327675 5.7014356 -0.50527096 0.9260726
-18.254023 5.9311228 -0.50525653 0.92607474
-18.098047 6.3875389 -0.50522596 0.92607939
-1.7791991 0.67870116 -0.050129164 0.99240929
-1.6126952 0.70995116 -0.046385534 0.99297416
-1.5592577 0.70995116 -0.045101814 0.99316794
-1.5087109 0.70995116 -0.043893699 0.99335027
-1.4607812 0.70996094 -0.042755239 0.99352217
-1.4152734 0.70995116 -0.041680716 0.99368441
-1.3307031 0.70995116 -0.03970436 0.99398309
-1.2913672 0.70994139 -0.038793527 0.99412072
-1.2178515 0.70996094 -0.037109297 0.99437517
-1.0882031 0.70995116 -0.034204293 0.99481446
-1.0588866 0.70996094 -0.03356041 0.99491173
-1.0369531 0.75341797 -0.033742178 0.99488431
-1.036875 0.77345699 -0.034053497 0.99483728
-1.0367578 0.81471676 -0.034710884 0.9947378
-1.0366796 0.83591795 -0.035057526 0.99468547
-1.0366211 0.85759765 -0.035416719 0.99463105
-1.0365624 0.87969726 -0.035789069 0.99457479
-1.0363085 0.94894528 -0.036990393 0.99439323
-3.9222264 3.6832323 -0.14164025 0.97870052
-3.6887109 3.7353711 -0.13819619 0.97921294
-3.7067969 3.8492284 -0.14067478 0.97884411
-3.2285156 3.6159961 -0.12760967 0.98079002
-9.9891014 11.474951 -0.40049416 0.94094002
-9.8433199 11.598613 -0.40045986 0.94094473
-9.6959572 11.72039 -0.40042517 0.94094962
-9.0915432 12.188398 -0.40028289 0.94097012
-8.9368744 12.300576 -0.4002465 0.94097525
-8.7807808 12.410751 -0.40020978 0.94098061
-8.46457 12.625166 -0.4001354 0.9409911
-8.3044729 12.729365 -0.40009773 0.94099641
-8.1430855 12.831445 -0.40005976 0.94100201
-7.9804688 12.931591 -0.40002149 0.9410072
-8.073164 13.457236 -0.41311216 0.9391368
-7.5583982 13.748623 -0.41301262 0.93915105
-7.3844333 13.841396 -0.41297898 0.93915588
-7.2092967 13.931952 -0.41294509 0.93916076
-6.4980469 14.271846 -0.41280761 0.93918025
-6.1362891 14.428154 -0.4127377 0.93919039
-5.5866599 14.6454 -0.41263151 0.93920565
-5.0294333 14.841699 -0.41252384 0.93922091
-4.8420701 14.902363 -0.41248763 0.93922633
-4.6540623 14.96082 -0.41245133 0.9392311
-4.4652929 15.016768 -0.41241488 0.9392364
-2.3080468 10.639257 -0.28658867 0.9573732
-2.0288281 10.635586 -0.28502437 0.95760065
-1.304961 7.9168649 -0.21122023 0.968404
-1.2027735 7.9155173 -0.21076332 0.96847111
-1.1010156 7.9141893 -0.21034344 0.96853304
-0.99960935 7.9128418 -0.2099573 0.9685899
-0.89859372 7.9115133 -0.20960556 0.96864164
-0.7978906 7.9101853 -0.20928802 0.96868837
-0.70255858 7.966279 -0.2105215 0.96850669
-0.60421872 7.9987693 -0.21116401 0.96841228
-0.30152342 7.9947848 -0.21060836 0.968494
-0.10042968 7.9921288 -0.21040604 0.96852392
0.20082031 7.9881539 -0.21035144 0.96853197
0.30124998 7.9868259 -0.21039912 0.96852487
0.50234371 7.98417 -0.21059509 0.96849602
