# .PCD v0.7 - Point Cloud Data file format
VERSION 0.7
FIELDS x y z intensity
SIZE 4 4 4 4
TYPE F F F F
COUNT 1 1 1 1
WIDTH 1081
HEIGHT 1
VIEWPOINT 0 0 0 1 0 0 0
POINTS 1081
DATA ascii
1.5087109 -0.70993161 -0.020788193 0.99335212
1.3307421 -0.70993161 -0.018803902 0.99398464
1.271914 -0.72019529 -0.018222503 0.99416995
1.271875 -0.74141598 -0.018354416 0.99412805
1.2717968 -0.80708981 -0.018779106 0.99399257
1.2716992 -0.87597656 -0.019251937 0.99384177
1.2716796 -0.89971679 -0.019421006 0.99378783
1.2716016 -0.94848633 -0.019777831 0.9936741
16.642929 -13.077842 -0.26388425 0.91881341
15.39039 -13.061201 -0.25165808 0.92242545
14.617227 -13.050927 -0.24430436 0.92460489
14.247227 -13.046005 -0.24084054 0.92563283
13.887519 -13.04123 -0.23750918 0.92662203
13.537598 -13.036582 -0.23431107 0.92757434
12.86498 -13.027637 -0.22826311 0.92937541
9.9915819 -10.911513 -0.18445106 0.94253266
9.9278908 -11.119297 -0.18583655 0.94211268
4.1142187 -5.3733497 -0.084372707 0.97329086
4.1236329 -5.5281935 -0.085983768 0.97278792
9.1363668 -12.91331 -0.19721328 0.93868142
8.8927736 -12.910088 -0.1954412 0.93921506
8.1870308 -12.900713 -0.19048901 0.94070864
7.7356639 -12.894697 -0.18747063 0.94162047
7.5152535 -12.891777 -0.18604103 0.94205266
7.2981443 -12.888886 -0.18466228 0.94246984
6.6652145 -12.880468 -0.18080966 0.94363511
6.4599414 -12.877734 -0.1796173 0.94399613
6.2573633 -12.875058 -0.17846878 0.94434398
6.0573044 -12.872402 -0.17736278 0.94467914
5.6643748 -12.867167 -0.17527409 0.94531274
5.4713278 -12.864609 -0.17428738 0.9456116
5.2803712 -12.86207 -0.17334099 0.94589901
5.0914645 -12.85957 -0.17243198 0.94617516
4.9045115 -12.85709 -0.17155941 0.94644028
4.7194138 -12.854609 -0.17072105 0.94669479
4.5360742 -12.852168 -0.16991745 0.94693869
4.3544335 -12.849766 -0.16914985 0.94717228
4.1743751 -12.847383 -0.16841561 0.94739574
3.9958789 -12.844999 -0.16771111 0.94760942
3.8188281 -12.842647 -0.16704051 0.94781327
3.2956641 -12.835693 -0.16521725 0.94836837
2.9528711 -12.831142 -0.1641499 0.9486928
2.6142774 -12.826631 -0.1632006 0.94898206
2.4463866 -12.824404 -0.16276851 0.94911367
2.2793555 -12.822197 -0.16236281 0.94923687
2.1131444 -12.81997 -0.16198623 0.94935179
1.9476562 -12.817783 -0.16163704 0.9494583
1.6187109 -12.813408 -0.16101585 0.94964695
1.4551367 -12.81122 -0.16074829 0.9497292
1.2920703 -12.809052 -0.16050525 0.94980341
0.48271483 -12.79831 -0.15967315 0.95005667
1.953125e-05 -12.791884 -0.15948051 0.95011568
-0.64324218 -12.786396 -0.15961215 0.95007509
-0.80433589 -12.784531 -0.15970325 0.95004755
-0.96558589 -12.782627 -0.1598188 0.95001245
-1.1271484 -12.780684 -0.15995972 0.94996971
-3.629375 -22.018877 -0.27821809 0.91459775
-3.9135547 -22.015087 -0.27877113 0.91443592
-1.0402343 -0.92874998 -0.017386055 0.99443704
-1.0403515 -0.86064452 -0.016833229 0.99461335
-1.0403711 -0.83887696 -0.016661797 0.99466807
-1.0404297 -0.79662108 -0.01633705 0.99477178
-1.0404687 -0.7761035 -0.016183089 0.99482089
-1.0405078 -0.75596678 -0.016034661 0.99486828
-1.0405078 -0.73617184 -0.015891265 0.99491417
-1.0882031 -0.70994139 -0.016199112 0.99481583
-1.1503515 -0.70994139 -0.016853752 0.99460703
-1.1834179 -0.70994139 -0.017205199 0.99449462
-1.217832 -0.70994139 -0.017574882 0.99437678
-1.3719921 -0.70994139 -0.019259071 0.99383938
-1.5087109 -0.70994139 -0.02078804 0.99335206
-1.5592577 -0.70995116 -0.021360053 0.99316978
-1.6126952 -0.70993161 -0.02196827 0.99297607
-1.775 -0.70276368 -0.023800505 0.99239224
-1.7749413 -0.65163082 -0.023573035 0.99246484
-23.52039 -7.6422262 -0.30832541 0.90580529
-1.7292968 0.70996094 -0.028485984 0.9925496
-1.6692969 0.70995116 -0.027642021 0.99276942
-1.5592968 0.70995116 -0.026107749 0.99316937
-1.4607812 0.70995116 -0.024749374 0.99352366
-1.3307421 0.70996094 -0.022983359 0.99398434
-1.2914063 0.70996094 -0.022456322 0.99412191
-1.0589062 0.70996094 -0.019426841 0.99491286
-1.0398437 0.73569334 -0.019409981 0.99491721
-1.0398047 0.75546873 -0.019584961 0.9948715
-1.0397265 0.79609376 -0.019954337 0.99477506
-1.0396875 0.81699216 -0.020149078 0.99472421
-1.0395898 0.86005855 -0.020559769 0.99461699
-1.0394726 0.92810547 -0.021234436 0.99444079
-1.039414 0.9518066 -0.021476174 0.99437773
-2.6104295 8.0341311 -0.12872207 0.96677041
-2.4631054 7.9179196 -0.12635659 0.96737158
-2.3539648 7.9164743 -0.1258522 0.96749985
-2.2456834 7.915029 -0.1253709 0.96762216
-2.1381836 7.9136033 -0.12491275 0.96773857
-1.9254882 7.9107909 -0.12406578 0.96795392
-1.8201758 7.9093652 -0.12367427 0.96805328
-1.6301172 7.9979978 -0.12438019 0.96787387
-1.3176563 7.9938574 -0.1234555 0.96810895
-1.1117188 7.9911032 -0.12294201 0.96823931
-0.90734375 7.9883885 -0.12251091 0.96834898
-0.70425779 7.9856734 -0.12215866 0.96843839
-0.60312498 7.9843259 -0.12201252 0.96847558
-0.50222653 7.9829979 -0.12188675 0.96850771
-0.40152344 7.9816504 -0.12177948 0.96853495
-0.30097654 7.9803219 -0.12169208 0.96855724
-0.19826171 7.8878121 -0.12023357 0.9689281
0.09908203 7.8838668 -0.12014442 0.96895063
0.19816406 7.8825583 -0.12015331 0.96894848
0.50140625 7.9696579 -0.12168346 0.9685595
0.60195309 7.9683299 -0.12176754 0.96853775
0.70265621 7.9669824 -0.12187305 0.9685111
0.80351561 7.9656539 -0.12199783 0.96847945
0.90460938 7.9642868 -0.1221413 0.96844292
1.0059766 7.9629588 -0.12230465 0.96840125
1.2095703 7.9602442 -0.12269253 0.96830302
1.3119141 7.9588962 -0.12291572 0.96824616
1.4146093 7.9575095 -0.12315822 0.96818429
1.7254297 7.9533887 -0.12401378 0.96796691
2.1474609 7.947783 -0.12545349 0.96760148
2.3354688 7.8541598 -0.12486149 0.9677515
2.5510547 7.8512888 -0.1257962 0.96751422
2.6600976 7.8498435 -0.12629791 0.96738654
2.7700195 7.8483591 -0.12682487 0.96725297
2.9141796 7.9375877 -0.12884781 0.96673924
3.0273438 7.9360838 -0.12943023 0.9665913
3.1415625 7.9345798 -0.13003971 0.96643674
3.6098437 7.9283495 -0.13274731 0.96575034
3.730078 7.9267673 -0.13349487 0.96556079
3.9747264 7.9235058 -0.13507824 0.96515906
4.0992966 7.9218454 -0.13591769 0.96494645
4.2254686 7.9201856 -0.13678935 0.96472555
4.3532419 7.9184666 -0.1376936 0.96449661
4.4315038 7.8262887 -0.13704902 0.96466005
4.5613279 7.8245702 -0.1380122 0.96441627
4.8266015 7.8210349 -0.14004539 0.96390152
4.9622459 7.8192577 -0.14111859 0.9636299
5.636992 7.9673047 -0.14872082 0.96170866
5.9400001 7.9632812 -0.15138462 0.96103615
6.4158592 7.956953 -0.15575443 0.95993453
6.5807419 7.9547753 -0.15731804 0.95954055
6.7490039 7.952529 -0.15893897 0.95913237
7.2756639 7.9455271 -0.16416599 0.95781684
7.4590621 7.9430857 -0.16604027 0.95734596
7.6467576 7.9405956 -0.16798492 0.95685762
7.8389063 7.9380369 -0.16999961 0.95635128
8.0357809 7.9354196 -0.172093 0.95582587
8.4445705 7.9299707 -0.17652282 0.95471495
8.7194138 7.5903611 -0.17615849 0.95480633
8.7143555 7.2091112 -0.17233989 0.95576388
8.8687496 6.7904882 -0.17020698 0.95629907
1.2707422 0.94787109 -0.0241568 0.99367803
1.2707422 0.92327148 -0.023935203 0.99373603
1.2709179 0.85208005 -0.023315925 0.9938975
1.2709179 0.8291406 -0.023123359 0.9939478
1.2710156 0.78438473 -0.022758789 0.99404287
1.2710937 0.74097657 -0.022419548 0.99413139
1.2711328 0.7197656 -0.022258643 0.99417329
1.3307421 0.70995116 -0.022983322 0.99398434
1.3719921 0.70996094 -0.023539543 0.99383914
1.4152734 0.70995116 -0.024127502 0.99368584
1.4608203 0.70995116 -0.024749259 0.99352348
1.6127343 0.70996094 -0.026850471 0.99297559
1.7293359 0.70996094 -0.02848587 0.99254942
1.7931249 0.70995116 -0.029387435 0.99231458
1.8611327 0.70997071 -0.030353583 0.99206293
1.9337305 0.70995116 -0.031389769 0.99179316
1.9976171 0.64908201 -0.032006606 0.99163252
21.903866 6.8139257 -0.34955078 0.9123171
18.183907 4.1847363 -0.2843321 0.92807239
16.974159 3.459619 -0.26397198 0.93304616
16.97121 3.2374413 -0.26327267 0.93321753
1.9976171 -0.64905274 -0.032006528 0.99163258
1.9976758 -0.67695314 -0.032141075 0.99159747
1.7931249 -0.70995116 -0.029387893 0.99231458
1.7293359 -0.70992184 -0.028486023 0.99254948
1.6693164 -0.70995116 -0.027641868 0.99276936
1.5087109 -0.70993161 -0.025408171 0.99335182
1.4152734 -0.70995116 -0.024127349 0.99368584
1.3719921 -0.70993161 -0.023539504 0.9938392
1.2914063 -0.70993161 -0.022456054 0.99412191
1.2710937 -0.7409668 -0.022419509 0.99413145
1.2710351 -0.76249021 -0.022586098 0.99408805
1.2709374 -0.82913083 -0.023123473 0.99394774
1.2708985 -0.85206056 -0.023315886 0.99389762
1.2707813 -0.92324215 -0.023935508 0.99373597
1.2707422 -0.94786131 -0.024156876 0.99367809
17.088163 -13.083759 -0.32795298 0.91750485
13.140273 -10.870498 -0.25986722 0.93405175
12.803789 -10.866025 -0.25589371 0.93502676
12.363222 -11.038437 -0.25255549 0.93584675
11.941425 -11.499501 -0.25261796 0.93583095
11.797031 -11.649638 -0.25263935 0.93582553
11.5025 -11.944482 -0.25268298 0.93581492
11.352363 -12.089013 -0.25270519 0.93581015
9.9915819 -10.911494 -0.22544718 0.94253057
9.9277344 -11.11913 -0.22713952 0.94211143
10.891641 -12.511689 -0.25277337 0.93579322
10.734531 -12.64874 -0.25279647 0.93578756
4.3230858 -5.3614454 -0.10494888 0.97282392
4.1124606 -5.3710642 -0.10308113 0.97330111
4.1216602 -5.5255661 -0.10504383 0.97279966
4.1033201 -5.6476855 -0.10640766 0.97245932
9.1364059 -12.91331 -0.24104582 0.93867904
8.1870699 -12.900693 -0.23282732 0.94070643
7.735703 -12.894697 -0.22913608 0.9416182
7.0841794 -12.886015 -0.2240776 0.94287032
6.4599609 -12.877753 -0.21953917 0.94399393
6.2573438 -12.875058 -0.21813518 0.94434196
6.0573044 -12.872402 -0.21678334 0.94467711
5.6643748 -12.867167 -0.21422866 0.94531071
5.0914645 -12.85957 -0.21075645 0.94617313
4.5360742 -12.852168 -0.20768349 0.94693673
4.1743751 -12.847383 -0.205844 0.94739377
3.6431444 -12.840312 -0.2033857 0.94800574
3.4687891 -12.838008 -0.2026424 0.94819063
3.2956641 -12.835703 -0.20193648 0.9483664
3.1237109 -12.833418 -0.20126708 0.94853312
2.9528906 -12.831142 -0.20063396 0.94869089
1.9476562 -12.817783 -0.19756065 0.94945639
1.7828906 -12.815576 -0.19716652 0.94955486
1.6187304 -12.813408 -0.19680351 0.94964504
1.2920898 -12.809052 -0.1961758 0.94980156
1.1294922 -12.806904 -0.19591194 0.94986784
0.80548829 -12.802608 -0.19547294 0.94997686
0.64396483 -12.800459 -0.19530338 0.95001972
0.48271483 -12.79831 -0.19516197 0.95005482
-0.16074218 -12.792226 -0.19494458 0.95010871
-0.32150391 -12.790293 -0.19496192 0.95010453
-0.48234373 -12.788349 -0.19501011 0.95009273
-0.64326173 -12.786416 -0.1950891 0.95007318
-1.303789 -12.925205 -0.19795536 0.94935811
-2.0114062 -14.458515 -0.2224448 0.94327462
-1.9436523 -12.791484 -0.19715931 0.94955742
-3.6294141 -22.018856 -0.34005362 0.91459471
-3.9135547 -22.015087 -0.34072861 0.91443276
-1.039414 -0.95177734 -0.021476135 0.99437779
-1.0394531 -0.92808592 -0.02123432 0.99444091
-1.0394921 -0.90490234 -0.021001434 0.99450177
-1.0395703 -0.8822363 -0.02077671 0.99456036
-1.0395898 -0.86001951 -0.020559883 0.99461704
-1.0396289 -0.83828121 -0.020350685 0.99467164
-1.0397265 -0.79607421 -0.019954413 0.99477512
-1.039746 -0.77558595 -0.019766349 0.99482423
-1.0398437 -0.73569334 -0.019410018 0.99491721
-1.0398437 -0.71627927 -0.019241065 0.9949615
-1.0882031 -0.70994139 -0.019799499 0.99481565
-1.1503906 -0.70994139 -0.020599402 0.99460667
-1.1834179 -0.70994139 -0.021029357 0.99449444
-1.217832 -0.70994139 -0.021480827 0.9943766
-1.2537891 -0.70993161 -0.021955833 0.99425256
-1.4152343 -0.70993161 -0.024127426 0.99368602
-1.4607812 -0.70995116 -0.024749527 0.99352366
-1.5087109 -0.70994139 -0.025408171 0.99335182
-1.6126952 -0.70993161 -0.026850777 0.99297583
-1.6692969 -0.70994139 -0.027641792 0.99276948
-1.7758203 -0.67740232 -0.028962249 0.99242544
-1.7758203 -0.65196288 -0.028826063 0.99246079
-23.52039 -7.6422262 -0.3768504 0.90580189
-24.244804 4.3099513 -0.44347739 0.90618151
-23.926601 4.5642772 -0.43867469 0.90714949
-22.5641 5.7935157 -0.41954368 0.91101211
-22.392616 6.0504098 -0.41773579 0.91137803
-22.222813 6.3052244 -0.41601253 0.91172677
-21.88711 6.8087401 -0.41280159 0.9123773
-21.731581 7.0610447 -0.411513 0.91263926
-1.7766211 0.65228516 -0.03408432 0.99245703
-1.5592968 0.70995116 -0.030855522 0.99316907
-1.4607812 0.70995116 -0.029250335 0.99352336
-1.3719531 0.70996094 -0.027820587 0.99383897
-1.2914063 0.70995116 -0.026540108 0.99412161
-1.253828 0.70997071 -0.025948714 0.99425215
-1.1834375 0.70994139 -0.024853591 0.99449414
-1.1187109 0.70994139 -0.023861617 0.99471331
-1.0882422 0.70996094 -0.023400191 0.99481523
-1.0391406 0.7352246 -0.022924729 0.99492037
-1.0391015 0.75496089 -0.023131065 0.99487472
-1.0389649 0.81642574 -0.023796501 0.99472761
-1.0388086 0.88161129 -0.024537316 0.994564
-1.0387499 0.90425777 -0.024802627 0.99450547
-11.119843 15.716797 -0.34672928 0.92586809
-12.381738 18.467754 -0.40042377 0.91488969
-12.147344 18.619823 -0.40037936 0.91489875
-11.673008 18.91497 -0.40028954 0.91491693
-10.947968 19.334785 -0.40015221 0.91494519
-10.45625 19.599277 -0.40005907 0.9149639
-9.9580078 19.851103 -0.39996475 0.91498339
-9.4570312 20.097324 -0.40000686 0.91497433
-8.4373827 21.310429 -0.41277212 0.91238374
-8.1681643 21.412783 -0.41273245 0.91239148
-7.8977342 21.511728 -0.41269261 0.91239923
-3.606328 10.642275 -0.202365 0.95604134
-2.6104686 8.0341406 -0.15214393 0.9667688
-2.0314648 7.9121776 -0.1471139 0.9678477
-1.9254882 7.9107909 -0.1466262 0.96795249
-1.8201758 7.9093652 -0.14616561 0.96805179
-1.7353516 7.999404 -0.1474144 0.96778321
-1.3176563 7.9938574 -0.14590621 0.96810746
-1.2144531 7.9924707 -0.14559029 0.96817529
-1.0093359 7.9897556 -0.14503235 0.96829522
-0.90730464 7.988369 -0.14479031 0.96834761
-0.50222653 7.9829979 -0.14405197 0.96850628
-0.40152344 7.9816504 -0.1439252 0.96853358
-0.30097654 7.9803219 -0.14382172 0.96855581
1.953125e-05 7.8851953 -0.1420058 0.96894646
0.19816406 7.8825583 -0.14200428 0.96894705
0.39642578 7.8799024 -0.14209045 0.9689284
0.60195309 7.9683299 -0.14391315 0.96853632
0.80351561 7.9656539 -0.14418228 0.96847802
0.90460938 7.9643064 -0.14435379 0.96844143
1.2095703 7.9602442 -0.14500317 0.96830159
1.3119141 7.9588962 -0.14526798 0.96824473
1.4146093 7.9575095 -0.14555572 0.96818286
1.7254297 7.9533887 -0.14656581 0.96796548
1.830039 7.9520016 -0.14695324 0.96788234
1.9352343 7.9505954 -0.14736523 0.96779382
2.0410156 7.9491892 -0.14780299 0.96769971
2.1474609 7.947783 -0.14826706 0.96759999
2.2288282 7.855566 -0.14705651 0.96785998
2.5510352 7.8512888 -0.14867325 0.96751273
2.6600976 7.8498435 -0.14926632 0.96738511
2.7700195 7.8483591 -0.14988804 0.96725148
2.9141796 7.9375877 -0.15228 0.96673775
3.2568359 7.9330368 -0.15443924 0.96627408
3.3732812 7.9314938 -0.15522179 0.966106
3.4909375 7.9299316 -0.15603726 0.965931
3.730078 7.9267673 -0.15777084 0.96555918
3.8516796 7.9251266 -0.15868969 0.96536225
3.9747264 7.9235058 -0.15964454 0.96515751
4.2254295 7.920166 -0.16166709 0.96472412
4.3532419 7.9184666 -0.1627356 0.964495
4.6929884 7.8228316 -0.16429058 0.96416187
4.8266015 7.8210545 -0.16551392 0.96389985
5.4894528 7.9692478 -0.17427501 0.96202582
5.7871485 7.9653025 -0.17731224 0.96137661
5.939961 7.9632516 -0.17891537 0.9610346
6.0956249 7.9611816 -0.18057537 0.96068013
6.2541795 7.9590917 -0.18229686 0.96031302
6.4158592 7.956943 -0.18407859 0.95993274
6.5807419 7.9547653 -0.18592773 0.95953876
6.7490234 7.9525194 -0.18784213 0.95913053
6.9207811 7.9502344 -0.18982795 0.95870769
7.2756639 7.9455175 -0.19402106 0.95781499
7.6467576 7.9405956 -0.19853328 0.95685571
7.8389063 7.9380369 -0.20091476 0.95634931
8.2375784 7.9327245 -0.20595585 0.95527875
8.4445705 7.9299707 -0.20862506 0.95471293
8.6570311 7.9271579 -0.2113969 0.9541254
8.7220306 7.7874413 -0.21057586 0.95429903
8.7143354 7.2091308 -0.20368075 0.95576191
8.7094917 6.8438377 -0.19948299 0.95665354
1.2698828 0.94721675 -0.028530424 0.99368203
1.2700195 0.87480468 -0.027772788 0.9938494
1.2700976 0.82861328 -0.027310867 0.99395144
1.2701563 0.8060742 -0.027091559 0.99399972
1.2701952 0.78388673 -0.026880188 0.99404639
1.2702343 0.76203126 -0.026676331 0.99409145
1.2703124 0.71930665 -0.026290016 0.99417675
1.3307421 0.70995116 -0.027163008 0.9939841
1.3719921 0.70996094 -0.027820472 0.99383885
1.4607812 0.70995116 -0.029250221 0.99352336
1.5592773 0.70996094 -0.030855482 0.99316913
1.6127343 0.70996094 -0.03173374 0.99297529
1.6692969 0.70995116 -0.032668799 0.99276912
1.7293359 0.70996094 -0.033666 0.99254912
1.9337305 0.70995116 -0.037098616 0.9917928
1.9998437 0.70583981 -0.038192749 0.99155152
20.963867 6.5214939 -0.39538819 0.9159134
21.043476 6.2573533 -0.39537674 0.91591597
21.119883 5.9922557 -0.39536577 0.91591817
21.192928 5.7262402 -0.39535534 0.91592038
21.262695 5.4593554 -0.39534536 0.91592228
18.187147 4.4268456 -0.33710021 0.92785043
18.183907 4.1847363 -0.3360382 0.92806917
16.97711 3.6830077 -0.31285632 0.93286079
16.97121 3.2374413 -0.31114939 0.93321455
21.610781 3.8416991 -0.39529589 0.91593254
21.656952 3.5697851 -0.39528942 0.91593397
21.699842 3.2973144 -0.39528337 0.91593492
21.739258 3.0243261 -0.39527789 0.91593605
22.810312 2.8816407 -0.41406187 0.91212213
23.917812 -5.1887012 -0.4407624 0.90672821
21.338242 -5.193789 -0.39550665 0.9158898
21.271835 -5.4616699 -0.39551672 0.91588777
21.202246 -5.7287107 -0.39552727 0.91588503
20.97287 -6.5242672 -0.39556181 0.91587889
1.9996874 -0.64973629 -0.037866592 0.99162352
1.7931249 -0.70995116 -0.03473198 0.99231422
1.7293359 -0.70992184 -0.033666074 0.99254918
1.6693164 -0.70995116 -0.032668494 0.99276906
1.5592773 -0.70994139 -0.030855292 0.99316919
1.4608203 -0.70995116 -0.029250182 0.99352324
1.4152734 -0.70995116 -0.028514862 0.99368554
1.3719531 -0.70995116 -0.027820395 0.99383903
1.2914063 -0.70993161 -0.026539916 0.99412167
1.2703124 -0.71926755 -0.026290016 0.99417686
1.2702734 -0.74048829 -0.026479721 0.9941349
1.2701172 -0.80603516 -0.027091483 0.99399996
1.27 -0.87478513 -0.027772827 0.99384952
1.2699219 -0.92263669 -0.028269043 0.99373984
1.2698828 -0.94719726 -0.028530616 0.99368209
17.088144 -13.083769 -0.38759151 0.91750127
13.487363 -10.875136 -0.31201941 0.93303388
12.803769 -10.866055 -0.30243057 0.93502384
11.852735 -10.853417 -0.28942826 0.93772805
11.262363 -10.845566 -0.28158289 0.93936431
10.702832 -10.838125 -0.27431792 0.94088149
10.171094 -10.831074 -0.26758242 0.94229013
9.9148045 -10.827646 -0.26439789 0.94295681
9.7664843 -11.219199 -0.26787958 0.94222784
9.7626953 -11.503603 -0.27171925 0.94142443
4.3215232 -5.3595114 -0.12398895 0.97283238
4.2035546 -5.3494334 -0.12254226 0.97314906
4.110703 -5.3687887 -0.12177509 0.97331107
4.1196876 -5.5229688 -0.12408844 0.97281116
4.0998044 -5.6428514 -0.12563495 0.97248131
9.1363869 -12.913291 -0.28488025 0.93867642
8.6534958 -12.906884 -0.27985251 0.93972558
8.4183397 -12.903759 -0.27746901 0.94022322
8.1870899 -12.900693 -0.2751672 0.94070375
7.7357225 -12.894697 -0.27080685 0.94161558
7.2981639 -12.888877 -0.26674718 0.94246507
6.8732419 -12.883232 -0.26297018 0.94325596
6.2573438 -12.875039 -0.25780508 0.94433951
6.0573044 -12.872382 -0.25620759 0.94467467
5.8596873 -12.869746 -0.25466958 0.94499755
5.6643748 -12.867148 -0.25319004 0.94530833
5.4713473 -12.86459 -0.2517654 0.94560719
5.2803907 -12.86205 -0.25039774 0.9458946
5.0914841 -12.85955 -0.24908116 0.94617075
4.5360937 -12.852168 -0.2454509 0.94693434
4.1743946 -12.847363 -0.24327877 0.94739151
3.4687891 -12.837988 -0.23949319 0.94818836
3.2956836 -12.835683 -0.23865883 0.94836414
2.7831054 -12.828857 -0.2364129 0.94883764
2.4464257 -12.824404 -0.23512203 0.94910949
2.1131639 -12.81997 -0.23399384 0.94934756
1.61875 -12.813389 -0.23259404 0.94964284
1.4551367 -12.81122 -0.23220514 0.94972509
1.2920898 -12.809052 -0.23185378 0.9497993
0.80548829 -12.802588 -0.23102148 0.94997472
0.48271483 -12.798291 -0.23065083 0.95005268
0.32166016 -12.796162 -0.23052335 0.95007998
-0.16074218 -12.792207 -0.23039705 0.9501065
-0.32152343 -12.790273 -0.23041598 0.95010239
-0.64324218 -12.786396 -0.23056602 0.95007098
-0.80429685 -12.784472 -0.23069482 0.95004368
-0.96558589 -12.782588 -0.2308619 0.95000851
-1.1271484 -12.780674 -0.23106419 0.94996566
-1.2890038 -12.778876 -0.23130703 0.94991457
-1.45125 -12.777178 -0.2315869 0.94985527
-3.6294141 -22.018877 -0.40189537 0.9145909
-4.3955274 -23.042177 -0.42245716 0.91042304
-4.6852341 -22.987568 -0.42249969 0.91041392
-4.9741797 -22.929131 -0.4225421 0.91040558
-5.5499411 -22.801289 -0.42262661 0.91038901
-6.1224217 -22.659277 -0.4227106 0.91037148
-6.4073238 -22.582802 -0.42275241 0.91036296
-6.9741406 -22.418974 -0.42283553 0.91034651
-7.2560153 -22.331757 -0.42287689 0.9103381
-7.5368161 -22.241055 -0.42291808 0.91032946
-7.8164062 -22.14665 -0.42295909 0.91032159
-8.9227533 -21.734316 -0.4231213 0.91028857
-9.1959963 -21.62249 -0.4231613 0.91028064
-10.007226 -21.266455 -0.42328021 0.91025674
-10.27459 -21.140966 -0.4233194 0.91024894
-10.804648 -20.87999 -0.423397 0.9102329
-11.844434 -20.318172 -0.42354926 0.91020161
-12.099805 -20.169315 -0.42358664 0.91019481
-12.605 -19.862305 -0.42366061 0.91018003
-13.102558 -19.542803 -0.42373338 0.91016448
-13.348125 -19.378134 -0.42376933 0.9101578
-13.591758 -19.210546 -0.42380497 0.91015035
-13.833202 -19.039755 -0.42384028 0.91014349
-14.777266 -18.326777 -0.4239783 0.910115
-15.00748 -18.140928 -0.42401195 0.9101088
-15.235507 -17.952353 -0.42404523 0.91010189
-15.684237 -17.566523 -0.42411083 0.91008872
-16.123301 -17.169569 -0.42417493 0.91007501
-16.338964 -16.966845 -0.42420647 0.91006881
-1.0386328 -0.95107418 -0.025362739 0.99438173
-1.0386719 -0.92740232 -0.025077552 0.99444479
-1.038789 -0.88160157 -0.024537429 0.99456412
-1.0388671 -0.85942382 -0.024281615 0.99462056
-1.0389062 -0.8376953 -0.024034766 0.9946751
-1.039121 -0.73520505 -0.02292427 0.99492049
-1.0882031 -0.70994139 -0.023400115 0.99481541
-1.1503906 -0.70994139 -0.024345664 0.99460644
-1.217832 -0.70994139 -0.025387306 0.9943763
-1.2537891 -0.70993161 -0.02594883 0.99425232
-1.3307226 -0.70994139 -0.027162932 0.99398416
-1.3719921 -0.70994139 -0.027820472 0.99383891
-1.4152734 -0.70993161 -0.028515091 0.9936856
-1.4607812 -0.70995116 -0.029250259 0.99352336
-1.6126952 -0.70993161 -0.031733666 0.99297547
-1.6692969 -0.70994139 -0.032668646 0.99276912
-1.7766992 -0.70342773 -0.034413796 0.99238437
-1.7766796 -0.67773438 -0.034245301 0.99242139
-21.035507 -7.4242673 -0.40173829 0.91462296
-21.127832 -7.1596093 -0.40175155 0.91462022
-21.302519 -6.6268258 -0.40177667 0.91461474
-21.610859 -5.5487399 -0.40182087 0.91460609
-21.679335 -5.2768359 -0.40183061 0.91460437
-23.806484 -4.5412989 -0.43647036 0.90759343
-24.315781 1.953125e-05 -0.50530243 0.90729821
-24.313847 0.30557618 -0.50530183 0.90729821
-24.2675 1.5267968 -0.50529367 0.90729928
-24.246288 1.8316308 -0.50529027 0.90729964
-24.192167 2.4402928 -0.50528163 0.90730125
-24.159296 2.7440722 -0.5052765 0.90730232
-24.082188 3.3502636 -0.50526452 0.90730423
-23.989687 3.9542773 -0.50525028 0.90730685
-23.292011 5.052949 -0.49528423 0.90904945
-22.717342 5.5295215 -0.48586336 0.91069919
-22.199961 6.2987304 -0.47953975 0.91180891
-21.862129 6.8009667 -0.47578526 0.91246831
-21.618008 7.3257227 -0.47433051 0.91272396
-1.7774609 0.65259767 -0.039348107 0.9924531
-1.7775195 0.67807615 -0.039534491 0.9924174
-1.777539 0.70381832 -0.039728813 0.99238032
-1.6126952 0.70996094 -0.036617126 0.99297506
-1.5592968 0.70995116 -0.035603829 0.99316871
-1.3719531 0.70996094 -0.032101516 0.99383867
-1.2914063 0.70996094 -0.030624198 0.99412131
-1.253828 0.70997071 -0.029941939 0.99425179
-1.1834375 0.70994139 -0.028678436 0.99449384
-1.0882422 0.70996094 -0.027001036 0.99481493
-1.0589062 0.70996094 -0.026492957 0.99491233
-1.0383984 0.7544629 -0.026672401 0.99487787
-1.0383594 0.77453125 -0.02691902 0.99483067
-1.0380664 0.88096678 -0.028293075 0.99456763
-1.0380077 0.90361327 -0.02859867 0.99450904
-1.0378516 0.95039058 -0.029244155 0.99438554
-17.47953 16.832695 -0.50427949 0.90747631
-16.829393 17.476143 -0.50418323 0.90749347
-12.836094 14.376582 -0.40050969 0.925789
-12.468691 14.692197 -0.40044218 0.92580074
-12.282011 14.846396 -0.40040678 0.92580706
-11.90289 15.147676 -0.40033492 0.92581981
-10.519278 16.124277 -0.40007278 0.92586625
-10.314843 16.253622 -0.40003407 0.92587316
-10.108769 16.380293 -0.39999503 0.92588037
-9.9011717 16.504423 -0.39995569 0.92588729
-9.2692776 16.860771 -0.39983603 0.92590886
-9.0557613 16.97418 -0.39979559 0.92591614
-9.131094 17.64583 -0.41287804 0.92358667
-8.2303123 18.076504 -0.41274512 0.92361027
-8.0018158 18.176943 -0.41271144 0.92361659
-7.7721481 18.27457 -0.41267762 0.92362255
-7.5412302 18.369209 -0.41264358 0.92362893
-7.3092575 18.461132 -0.41260931 0.92363441
-3.606328 10.642295 -0.23350726 0.95603895
-2.4631054 7.9179101 -0.17231636 0.96736842
-2.3539648 7.9164648 -0.17162819 0.96749669
-2.1382227 7.9135938 -0.17034702 0.96773541
-1.9254882 7.9107809 -0.16919068 0.96795082
-1.5254102 7.9966016 -0.16917133 0.96795452
-1.4212695 7.9952145 -0.16875052 0.96803284
-1.3176563 7.9938574 -0.16835822 0.96810579
-1.2144531 7.9924707 -0.16799492 0.96817362
-1.0093359 7.9897556 -0.16735134 0.96829355
-0.80566406 7.9870214 -0.16681847 0.96839315
-0.70425779 7.985693 -0.16659279 0.96843523
-0.60312498 7.9843259 -0.16639255 0.96847248
-0.50222653 7.9829979 -0.16621952 0.96850461
-0.40152344 7.9816504 -0.1660741 0.96853191
-0.19826171 7.8878121 -0.16396594 0.96892506
-0.099101558 7.8864841 -0.16389923 0.96893746
1.953125e-05 7.8851953 -0.16385837 0.96894485
0.39642578 7.8799219 -0.16395706 0.96892667
0.50140625 7.9696579 -0.165943 0.9685564
0.60195309 7.9683299 -0.16605812 0.96853465
0.70265621 7.9669824 -0.16620162 0.96850801
0.80351561 7.9656539 -0.16637179 0.96847636
0.90460938 7.9643064 -0.16656756 0.96843976
1.1076171 7.9616113 -0.16703998 0.96835154
1.2095703 7.9602442 -0.167318 0.96829993
1.3119141 7.9588962 -0.1676234 0.968243
1.4146093 7.9575095 -0.16795455 0.96818119
1.830039 7.951992 -0.16956809 0.96788067
2.1474805 7.9477735 -0.17108276 0.96759832
2.4428515 7.8527145 -0.17089854 0.96763265
2.77 7.8483787 -0.17295459 0.96724969
2.9141991 7.9375777 -0.17571342 0.96673602
3.0273438 7.9360743 -0.1765089 0.96658808
3.1415234 7.9345703 -0.17733887 0.96643353
3.3732617 7.9314842 -0.17910816 0.96610427
3.85166 7.9251366 -0.18310939 0.96536046
3.974746 7.9234958 -0.18421131 0.96515566
4.2254295 7.920156 -0.18654495 0.96472228
4.4315233 7.8262887 -0.18689711 0.96465653
4.9622264 7.8192382 -0.19244845 0.96362644
5.1329103 7.8678808 -0.19515331 0.96311277
5.4894137 7.9692478 -0.20109153 0.96202391
5.636992 7.9672947 -0.20281261 0.96170497
5.7871485 7.9653025 -0.20459919 0.96137458
5.939961 7.9632516 -0.20644873 0.96103251
6.0956249 7.9611816 -0.20836322 0.96067804
6.4158592 7.956943 -0.21240672 0.9599306
6.5807419 7.9547653 -0.21453898 0.95953661
7.0962887 7.9479098 -0.22141548 0.95826709
7.2756639 7.9455371 -0.22387914 0.95781267
7.8389063 7.9380369 -0.23183216 0.95634699
8.2375784 7.932744 -0.23765074 0.95527637
8.7220697 7.7874608 -0.24298184 0.95429647
8.7094917 6.8438573 -0.23018205 0.95665121
1.2690625 0.92201167 -0.032596894 0.99374372
1.2692578 0.82805663 -0.031492691 0.99395508
1.2914063 0.70997071 -0.030623931 0.99412125
1.3719921 0.70996094 -0.032101631 0.99383855
1.4608203 0.70995116 -0.03375141 0.99352288
1.6127343 0.70996094 -0.036616858 0.99297494
1.6692969 0.70995116 -0.037696112 0.9927687
1.8611327 0.70997071 -0.041393545 0.99206215
2.0017967 0.65042967 -0.043739319 0.99161428
18.186718 5.657578 -0.39579734 0.92662901
18.255976 5.4284863 -0.39578742 0.92663056
18.322382 5.198535 -0.39577788 0.92663199
18.38582 4.9677634 -0.39576879 0.92663366
18.446367 4.7362304 -0.39576015 0.92663527
18.187109 4.426826 -0.38897482 0.92784685
18.183907 4.1847167 -0.38774946 0.92806548
16.97418 3.4596093 -0.35998648 0.93303967
16.97121 3.2374413 -0.35903075 0.93321109
18.748594 3.3328905 -0.39571723 0.92664331
19.287714 2.9307811 -0.40541294 0.92491513
20.857225 2.9016211 -0.43760002 0.9192009
23.822168 2.7058008 -0.49822295 0.90853482
23.882206 2.1062305 -0.49821475 0.90853637
23.92746 1.5054003 -0.49820873 0.90853691
23.966776 0.6024707 -0.4982039 0.9085384
23.972538 0.30125976 -0.49820337 0.9085381
23.9725 -0.30123046 -0.49820402 0.90853828
23.957617 -0.90360349 -0.49820685 0.90853733
23.94453 -1.2045801 -0.49820909 0.90853673
23.906836 -1.8059472 -0.49821529 0.90853626
23.8825 -2.1062598 -0.49821916 0.90853536
23.854277 -2.4062109 -0.49822366 0.90853488
23.786972 -3.0049901 -0.49823421 0.90853232
23.607128 -4.1965528 -0.4982619 0.90852791
23.494921 -4.7886329 -0.49827904 0.90852529
22.457851 -5.1682911 -0.47888967 0.91192329
21.162695 -5.1510644 -0.45261472 0.91654778
18.989199 -5.1307616 -0.40875816 0.92431945
18.263906 -5.43083 -0.3959589 0.92659986
18.194727 -5.6600485 -0.3959693 0.92659795
2.0017967 -0.65039062 -0.043739166 0.99161434
2.0018749 -0.67834961 -0.043923337 0.99157912
2.001914 -0.70653319 -0.04411602 0.9915424
1.7293359 -0.70992184 -0.038846664 0.99254876
1.6127148 -0.70994139 -0.036617011 0.992975
1.5592773 -0.70994139 -0.035603523 0.99316877
1.5087109 -0.70993161 -0.034649886 0.99335116
1.4608203 -0.70995116 -0.03375122 0.99352288
1.4152734 -0.70995116 -0.03290306 0.99368519
1.3719531 -0.70995116 -0.032101553 0.99383867
1.3307421 -0.70993161 -0.031342659 0.99398381
1.2692578 -0.82805663 -0.031492613 0.99395508
1.2691015 -0.89790034 -0.03230625 0.99379951
1.2689843 -0.94656247 -0.032898407 0.99368614
16.026758 -12.271123 -0.41945812 0.9224171
13.84582 -10.879911 -0.36592686 0.93197298
12.477383 -10.861718 -0.34376806 0.93595749
12.160566 -10.8575 -0.33877173 0.9368583
11.262363 -10.845566 -0.32491589 0.93936116
10.702812 -10.838125 -0.31653136 0.94087845
10.433633 -10.83457 -0.31257296 0.94159573
10.171055 -10.831074 -0.308759 0.94228721
9.9148045 -10.827646 -0.30508712 0.94295382
9.7701559 -10.942656 -0.30484286 0.94299799
9.7664843 -11.219199 -0.30910438 0.9422248
9.7626953 -11.503623 -0.31353503 0.94142133
4.4196091 -5.3423533 -0.14408278 0.97264117
4.0962892 -5.6380563 -0.14484176 0.97250301
9.1363869 -12.913291 -0.32872084 0.9386732
8.8927927 -12.910069 -0.32576942 0.93920696
8.4183006 -12.903759 -0.32016718 0.94022018
8.1870899 -12.900693 -0.31751135 0.94070065
7.9595895 -12.897666 -0.31495234 0.94116467
7.7356834 -12.894677 -0.31247982 0.94161266
6.873281 -12.883232 -0.30343926 0.94325298
6.6652341 -12.880459 -0.30137718 0.94362754
6.4599609 -12.877744 -0.29939139 0.94398856
5.8596873 -12.869756 -0.29385915 0.94499463
5.2803907 -12.862061 -0.28893003 0.94589174
5.0914841 -12.85956 -0.2874127 0.94616795
4.7194138 -12.854619 -0.28456077 0.94668758
4.5360546 -12.852178 -0.28322372 0.94693154
4.354414 -12.849775 -0.28194177 0.94716513
4.1743751 -12.847373 -0.28071567 0.94738871
3.8188281 -12.842647 -0.27842808 0.94780624
3.2956641 -12.835693 -0.27538487 0.94836146
3.12375 -12.833408 -0.27447221 0.94852811
2.6142969 -12.826631 -0.27202559 0.94897515
2.1131639 -12.819961 -0.27000177 0.94934499
1.7828906 -12.815586 -0.26888147 0.94954991
1.2920703 -12.809062 -0.26753232 0.94979662
1.1294922 -12.806913 -0.26717022 0.9498629
0.32167968 -12.796162 -0.2659972 0.95007735
3.9062499e-05 -12.791884 -0.2658259 0.950109
-0.48232421 -12.788349 -0.26594043 0.95008785
-0.96562499 -12.782588 -0.26638788 0.95000589
-1.7808203 -12.800976 -0.26857516 0.94960594
-1.9436718 -12.791493 -0.26886865 0.94955248
-3.3050194 -20.050947 -0.42229366 0.9219138
-3.8085351 -19.96497 -0.42236757 0.92190093
-4.059453 -19.917255 -0.42240441 0.92189449
-4.3098044 -19.866415 -0.42244115 0.92188787
-5.0567966 -19.694931 -0.4225508 0.92186862
-5.3043356 -19.631533 -0.42258713 0.92186213
-5.551074 -19.564999 -0.42262331 0.92185569
-5.7969918 -19.495409 -0.42265946 0.92184913
-6.0419922 -19.422567 -0.42269534 0.92184317
-7.0126367 -19.100937 -0.42283767 0.92181772
-7.4917188 -18.921963 -0.42290789 0.92180467
-7.7295117 -18.827822 -0.42294276 0.92179877
-7.9661326 -18.730713 -0.42297745 0.92179269
-8.2015429 -18.630634 -0.42301196 0.92178667
-8.4357033 -18.527607 -0.42304626 0.92178053
-8.6685543 -18.4216 -0.42308035 0.92177457
-8.9000778 -18.312704 -0.4231143 0.92176849
-9.3589449 -18.086182 -0.42318153 0.92175639
-4.9190235 -9.2202635 -0.21716642 0.95905155
-9.8120308 -17.848026 -0.42324787 0.92174476
-10.259062 -17.598574 -0.42331332 0.92173302
-10.91752 -17.203251 -0.42340973 0.92171615
-11.348164 -16.926085 -0.4234727 0.92170447
-11.560742 -16.78331 -0.42350379 0.92169935
-11.980586 -16.489872 -0.42356521 0.9216885
-12.187696 -16.339149 -0.42359549 0.92168325
-12.392968 -16.185917 -0.42362553 0.92167771
-12.596289 -16.03001 -0.42365524 0.9216724
-13.19416 -15.547011 -0.42374259 0.92165726
-13.389472 -15.381143 -0.42377117 0.92165166
-13.582559 -15.212626 -0.4237994 0.92164689
-13.773535 -15.041689 -0.42382723 0.92164212
-13.962421 -14.868447 -0.42385483 0.92163694
-14.149043 -14.692773 -0.4238821 0.92163217
-14.515625 -14.334404 -0.42393556 0.92162263
-1.0379883 -0.90360349 -0.028598517 0.99450916
-1.0380468 -0.88095701 -0.028293112 0.99456769
-1.0381249 -0.85881835 -0.0279982 0.99462408
-1.038164 -0.83709961 -0.027713699 0.99467862
-1.0382812 -0.79498047 -0.027174758 0.99478179
-1.0384375 -0.734707 -0.026434401 0.99492359
-1.0384766 -0.71530271 -0.026204681 0.99496764
-1.0882422 -0.70994139 -0.027001036 0.99481499
-1.1186719 -0.70993161 -0.027533531 0.99471319
-1.1503906 -0.70994139 -0.028092002 0.99460614
-1.1834179 -0.70994139 -0.028678436 0.9944939
-1.217832 -0.70994139 -0.029294167 0.994376
-1.3307226 -0.70994139 -0.031342696 0.99398386
-1.3719921 -0.70994139 -0.032101553 0.99383855
-1.4152734 -0.70993161 -0.032903135 0.99368525
-1.5087109 -0.70994139 -0.034649812 0.99335116
-1.5592968 -0.70995116 -0.035603598 0.99316871
-1.6692969 -0.70994139 -0.037696343 0.99276876
-1.7292968 -0.70992184 -0.038846891 0.99254888
-1.7775195 -0.70376951 -0.039728623 0.99238044
-1.7774805 -0.65255857 -0.039348297 0.99245304
-18.211172 -6.4274411 -0.40132201 0.92564428
-18.291016 -6.1982713 -0.40133354 0.92564231
-18.442108 -5.7370114 -0.40135524 0.92563796
-18.513144 -5.5049314 -0.40136543 0.92563647
-19.945801 -4.5901661 -0.42532381 0.92137671
-21.098047 -4.5769725 -0.44863114 0.91725123
-22.374804 -4.5603223 -0.47452375 0.91269004
-24.082577 -3.3502929 -0.50527173 0.9073028
-24.123047 -3.0474315 -0.50527734 0.90730184
-24.159609 -2.7440722 -0.50528234 0.90730119
-24.192461 -2.4402831 -0.50528687 0.90730023
-24.246407 -1.831582 -0.5052942 0.90729928
-24.285078 -1.2216992 -0.50529915 0.90729815
-21.436289 9.7656248e-06 -0.50487912 0.91780627
-21.434608 0.26939452 -0.50487858 0.91780621
-21.42955 0.53871095 -0.50487751 0.91780615
-21.409023 1.0770606 -0.50487393 0.91780698
-21.37496 1.6147168 -0.50486839 0.91780782
-21.353008 1.8831836 -0.50486487 0.91780776
-21.298475 2.4191504 -0.50485623 0.91780943
-21.191523 3.2200682 -0.50483972 0.91781187
-21.103262 3.7514844 -0.50482613 0.91781425
-21.0016 4.280498 -0.50481063 0.91781694
-20.824375 5.0687499 -0.50478375 0.91782063
-20.758535 5.3299122 -0.5047738 0.91782254
-20.689491 5.5902343 -0.50476336 0.91782415
-20.617266 5.849668 -0.50475246 0.91782546
-20.206718 7.1317968 -0.50469077 0.91783547
-1.7783399 0.65291011 -0.044617806 0.99244893
-1.7783593 0.67838866 -0.044829138 0.9924134
-1.5087109 0.70998043 -0.03927185 0.99335068
-1.3719531 0.70996094 -0.036383513 0.99383831
-1.2914063 0.70996094 -0.034708824 0.99412096
-1.1503906 0.70995116 -0.031839028 0.99460578
-1.0882422 0.70996094 -0.030602416 0.99481463
-1.0589062 0.70996094 -0.030026436 0.99491203
-1.0377344 0.73422849 -0.029940147 0.99492663
-1.0376953 0.75393552 -0.030209579 0.99488103
-1.0375781 0.79443359 -0.030778008 0.99478507
-1.0373828 0.85821289 -0.031710051 0.99462754
-1.0371679 0.92607421 -0.032748222 0.99445212
-1.0371094 0.94967771 -0.033120003 0.9943893
-11.943593 12.094658 -0.40034431 0.93425053
-11.789883 12.242969 -0.40031517 0.93425477
-11.156446 12.815986 -0.40019503 0.93427414
-10.99375 12.954208 -0.40016419 0.93427873
-10.663066 13.224316 -0.40010151 0.93428868
-9.9818945 13.738887 -0.39997241 0.93430936
-9.8076954 13.862167 -0.39993942 0.93431431
-9.6318941 13.983125 -0.39990607 0.93431973
-9.2758789 14.218349 -0.39983863 0.93433052
-8.443203 15.358173 -0.41277933 0.93227869
-7.8566794 15.662138 -0.41269279 0.93229264
-7.4595504 15.852383 -0.41263419 0.93230188
-7.2592578 15.943749 -0.41260466 0.93230647
-7.0578122 16.032549 -0.41257495 0.93231124
-6.8552928 16.118837 -0.41254508 0.93231583
-6.6517186 16.20248 -0.4125151 0.93232077
-6.2415624 16.362177 -0.41245461 0.93233013
-6.0349998 16.438076 -0.41242415 0.93233508
-3.6063476 10.642285 -0.26465175 0.95603633
-2.6104491 8.0341311 -0.19896786 0.96676511
-2.3539648 7.9164648 -0.19451942 0.96749473
-2.2456834 7.9150195 -0.19377635 0.96761709
-2.0314648 7.912168 -0.19239566 0.96784413
-1.5254102 7.9966016 -0.191735 0.96795255
-1.0093163 7.9897265 -0.18967316 0.96829176
-0.40150389 7.9816403 -0.18822433 0.96853
-0.19828124 7.8878121 -0.18583603 0.96892315
-0.099101558 7.8864841 -0.18575965 0.96893555
0 7.8851757 -0.18571448 0.96894306
0.3964453 7.8799219 -0.18582623 0.96892476
0.50142574 7.9696484 -0.18807578 0.96855456
0.6019336 7.9683008 -0.18820746 0.96853286
0.70265621 7.9669724 -0.18836929 0.96850616
0.90462887 7.9642968 -0.1887849 0.96843791
1.0059766 7.9629493 -0.1890374 0.96839631
1.1075976 7.9615817 -0.1893204 0.96834975
1.3119141 7.9588866 -0.18998034 0.96824116
1.4146093 7.9575 -0.1903569 0.96817929
1.5177343 7.956152 -0.19076504 0.96811199
1.6213281 7.9547653 -0.19120537 0.96803963
2.1474805 7.9477735 -0.19390121 0.96759635
2.5510547 7.8512888 -0.1944326 0.96750903
2.660078 7.849824 -0.19520943 0.96738148
3.0273438 7.9360743 -0.20005123 0.96658605
3.3732617 7.9314842 -0.20299809 0.96610224
3.7300389 7.9267383 -0.20633048 0.96555549
3.85166 7.9251366 -0.20753299 0.96535838
3.9747264 7.9234958 -0.20878085 0.96515357
4.0992966 7.9218359 -0.21007834 0.96494091
4.2254295 7.920156 -0.21142466 0.96472019
4.3532419 7.918457 -0.21282309 0.96449101
4.8266015 7.8210545 -0.21645679 0.96389574
4.9622264 7.8192282 -0.21811548 0.96362424
5.1329298 7.8678708 -0.22127509 0.96311051
5.344336 7.9711814 -0.22603066 0.96232939
5.636992 7.9672947 -0.22986573 0.96170264
6.0956249 7.9612012 -0.23615648 0.96067566
6.580781 7.9547849 -0.24315368 0.95953399
6.9207811 7.950254 -0.24825452 0.95870292
7.0962887 7.9479294 -0.2509484 0.95826453
7.2756248 7.9455175 -0.25373811 0.95781034
7.4590621 7.9430957 -0.25663584 0.95733923
7.8389063 7.9380369 -0.26275229 0.95634437
8.0357809 7.9354391 -0.26598999 0.95581889
8.4445705 7.9299903 -0.27283683 0.9547078
8.6570311 7.9271774 -0.27646023 0.95412016
8.7143745 7.2091403 -0.26637277 0.95575678
8.7119141 7.0246091 -0.2635788 0.95621055
8.7095118 6.8438668 -0.26088277 0.95664853
8.8687496 6.7905078 -0.26307663 0.95629215
1.2681054 0.94591796 -0.037261009 0.99369007
1.2682421 0.89729488 -0.036590613 0.99380326
1.2683984 0.85039061 -0.035965882 0.99390858
1.268418 0.82751954 -0.035669897 0.99395871
1.2685156 0.8050195 -0.035384178 0.99400681
1.2685937 0.76104492 -0.034842528 0.99409837
1.2914063 0.70997071 -0.034708861 0.9941209
1.3307421 0.70995116 -0.035523377 0.99398339
1.3719921 0.70996094 -0.036383398 0.99383813
1.50875 0.70997071 -0.039271772 0.99335057
1.6693358 0.70997071 -0.042723961 0.99276811
1.793164 0.70997071 -0.045422133 0.99231315
1.8611327 0.70997071 -0.046915013 0.99206167
1.9337695 0.70997071 -0.048517074 0.99179167
2.0039842 0.67910153 -0.049834251 0.9915697
16.120331 4.7934375 -0.39610201 0.93492377
20.844141 2.8998046 -0.49565741 0.91924477
21.064178 2.1247754 -0.49862897 0.91878074
21.110743 1.5947655 -0.49862275 0.9187814
21.128847 1.3293262 -0.49862033 0.91878235
21.163866 0.53201169 -0.49861607 0.91878265
21.168867 0.26605469 -0.49861559 0.91878271
21.170546 9.7656248e-06 -0.49861562 0.91878265
21.168867 -0.26601562 -0.49861616 0.91878271
21.163847 -0.5319922 -0.49861717 0.91878271
21.144062 -1.0636914 -0.49862066 0.91878176
21.129101 -1.3292968 -0.4986231 0.91878146
21.110781 -1.5947266 -0.49862608 0.91878128
21.089218 -1.8598731 -0.49862957 0.91878074
21.064375 -2.1247852 -0.49863347 0.91878003
21.004667 -2.653496 -0.49864283 0.91877878
20.931875 -3.1805663 -0.4986541 0.91877681
20.89045 -3.4434178 -0.49866045 0.91877609
20.746796 -4.2285156 -0.49868244 0.91877246
20.692324 -4.488955 -0.49869069 0.91877133
20.573828 -5.0077243 -0.49870867 0.91876811
18.95578 -5.1217284 -0.46246549 0.92444301
18.011679 -5.1103516 -0.4409641 0.92782587
2.0040429 -0.70729488 -0.050053213 0.99153292
1.933789 -0.70993161 -0.048516769 0.99179167
1.7931249 -0.70993161 -0.045422133 0.99231339
1.7293359 -0.70992184 -0.044028241 0.99254829
1.6127148 -0.70994139 -0.041500814 0.99297458
1.4152734 -0.70995116 -0.037291791 0.99368483
1.3719531 -0.70995116 -0.036383092 0.99383831
1.3307421 -0.70993161 -0.035523489 0.99398345
1.2685937 -0.76104492 -0.034842607 0.99409837
1.2685351 -0.78285152 -0.035108566 0.99405348
1.2684375 -0.82749999 -0.035669938 0.99395865
1.2682812 -0.89728516 -0.036590345 0.9938032
1.2681249 -0.94589841 -0.037260741 0.99369007
11.262383 -10.845576 -0.36825043 0.93935746
10.702812 -10.838135 -0.35875121 0.94087487
10.433633 -10.83457 -0.35426304 0.94159228
10.171074 -10.831055 -0.34994444 0.94228381
9.7626953 -11.503623 -0.35535556 0.94141787
4.4169922 -5.3391991 -0.16320461 0.97265548
4.1158204 -5.5177636 -0.16212787 0.97283328
4.0929294 -5.6334176 -0.16400257 0.97252363
8.8927536 -12.910078 -0.36921751 0.93920338
8.6534958 -12.906895 -0.365989 0.93971884
8.4183006 -12.903769 -0.36287224 0.9402166
7.9595504 -12.897666 -0.35695988 0.94116122
7.7356834 -12.894677 -0.35415962 0.9416092
7.0841794 -12.886025 -0.34633744 0.94286132
6.8732419 -12.883232 -0.34391293 0.94324964
6.6652341 -12.880459 -0.34157583 0.94362414
6.4599609 -12.877744 -0.33932331 0.94398522
6.0573044 -12.872393 -0.33506447 0.94466847
5.4713278 -12.864599 -0.32925543 0.94560105
5.0914841 -12.85956 -0.32574865 0.94616473
4.5360546 -12.852178 -0.32099921 0.94692838
4.354414 -12.849775 -0.31954804 0.94716197
3.9958982 -12.84499 -0.31683066 0.94759923
3.8188281 -12.842647 -0.31556544 0.94780314
3.6431639 -12.840302 -0.31435829 0.94799757
3.4687891 -12.837997 -0.31320781 0.94818252
3.12375 -12.833408 -0.31108215 0.94852501
2.7831054 -12.828867 -0.30918077 0.94883186
2.6142969 -12.826621 -0.30830932 0.94897211
2.4464061 -12.824394 -0.3074913 0.94910383
2.2793748 -12.822187 -0.3067289 0.94922704
2.1131639 -12.819961 -0.30601549 0.94934195
1.9476757 -12.817773 -0.30535537 0.94944847
1.7828906 -12.815586 -0.30474558 0.94954687
1.6187304 -12.813398 -0.30418348 0.94963717
1.2920703 -12.809062 -0.30321488 0.94979364
1.1294726 -12.806894 -0.30280608 0.94985998
0.96730465 -12.804746 -0.30244133 0.94991845
0.80548829 -12.802597 -0.30212846 0.94996905
0.48273435 -12.798291 -0.3016454 0.95004702
0.32167968 -12.796162 -0.30147517 0.95007437
0.16082031 -12.794013 -0.30135414 0.95009404
3.9062499e-05 -12.791884 -0.30128077 0.95010597
-0.16072266 -12.792216 -0.30131015 0.9501009
-0.32152343 -12.790283 -0.3013382 0.95009673
-0.64324218 -12.786396 -0.30153242 0.95006537
-0.80433589 -12.784502 -0.30170119 0.95003796
-0.96562499 -12.782588 -0.30191794 0.95000291
-1.45125 -12.777158 -0.30286801 0.94984972
-1.6174219 -12.803164 -0.30394232 0.94967639
-1.7808203 -12.800976 -0.30439702 0.94960296
-1.9436718 -12.791493 -0.30473211 0.9495495
-2.9156444 -17.688721 -0.42223388 0.93078262
-3.5810938 -17.570341 -0.4223316 0.93076712
-4.0221095 -17.477383 -0.4223963 0.93075722
-4.241797 -17.426962 -0.42242855 0.9307515
-4.4607615 -17.373505 -0.42246071 0.93074679
-5.1135349 -17.196884 -0.42255646 0.93073183
-5.5449219 -17.065536 -0.42261976 0.9307217
-5.7593751 -16.995731 -0.4226512 0.93071687
-5.9729099 -16.923309 -0.42268252 0.93071181
-6.3972654 -16.770399 -0.42274475 0.93070173
-6.6079688 -16.689854 -0.42277563 0.93069702
-6.8176756 -16.606689 -0.42280635 0.9306922
-7.0263085 -16.520887 -0.42283693 0.93068749
-7.6456442 -16.247881 -0.42292771 0.93067288
-7.8497262 -16.151581 -0.4229576 0.93066847
-8.2543354 -15.951474 -0.42301685 0.930659
-4.9190235 -9.2202635 -0.24613139 0.95904905
-9.0479298 -15.520927 -0.42313308 0.93064022
-9.4363279 -15.290673 -0.42318991 0.93063146
-9.8189058 -15.050693 -0.42324591 0.93062264
-10.007871 -14.927021 -0.42327353 0.93061858
-10.381191 -14.672763 -0.42332816 0.9306097
-10.748027 -14.409072 -0.42338181 0.93060118
-10.928886 -14.27373 -0.42340824 0.93059719
-11.46121 -13.854228 -0.42348605 0.93058485
-11.635156 -13.71001 -0.42351151 0.9305805
-11.977344 -13.414775 -0.42356145 0.93057305
-12.145741 -13.264033 -0.42358604 0.93056881
-12.639121 -12.798994 -0.4236581 0.93055767
-12.799687 -12.639853 -0.42368153 0.93055391
-12.958301 -12.47876 -0.42370468 0.93054986
-13.114687 -12.315508 -0.42372748 0.93054676
-1.0370703 -0.94966793 -0.033119887 0.99438947
-1.0372461 -0.90293944 -0.032389525 0.9945128
-1.0373633 -0.85819334 -0.031709976 0.99462765
-1.0375 -0.81526363 -0.031077385 0.99473447
-1.0376366 -0.77398437 -0.030488852 0.99483395
-1.0376562 -0.75390625 -0.030209655 0.99488127
-1.0377734 -0.71484375 -0.029680137 0.99497068
-1.0589062 -0.70992184 -0.030026436 0.99491215
-1.1187109 -0.70993161 -0.031206015 0.99471271
-1.1834179 -0.70994139 -0.032503355 0.99449354
-1.2538086 -0.70993161 -0.033935621 0.99425161
-1.2914063 -0.70994139 -0.034708709 0.99412096
-1.4152734 -0.70993161 -0.037291717 0.99368489
-1.4607812 -0.70995116 -0.03825302 0.99352258
-1.5592577 -0.70993161 -0.040352438 0.99316847
-1.6126952 -0.70991212 -0.041500967 0.9929747
-1.6692969 -0.70992184 -0.042723883 0.99276835
-1.7292968 -0.70992184 -0.044028394 0.99254847
-16.055351 -5.6665525 -0.40100428 0.93414575
-16.125702 -5.4645114 -0.40101445 0.93414408
-16.193516 -5.2615724 -0.40102416 0.93414247
-16.258749 -5.0578122 -0.40103355 0.93414086
-18.907187 -4.6020508 -0.45831108 0.92509538
-19.945782 -4.5901756 -0.48204929 0.92137212
-20.946249 -4.5440431 -0.50481194 0.91781664
-21.054609 -4.016367 -0.50482726 0.91781372
-21.191679 -3.2200487 -0.50484657 0.91781127
-21.23086 -2.9535644 -0.50485206 0.91780984
-21.327656 -2.1513183 -0.50486547 0.91780776
-21.375175 -1.6146972 -0.50487185 0.91780704
-21.393906 -1.3459668 -0.50487429 0.91780657
-21.42955 -0.53867185 -0.5048787 0.91780615
-21.434649 -0.2693457 -0.50487912 0.91780609
-19.160194 0.48166016 -0.50454396 0.92617548
-19.152557 0.72239256 -0.50454259 0.92617577
-19.141993 0.96301758 -0.5045408 0.92617565
-19.128262 1.2034765 -0.50453854 0.92617607
-19.068983 1.9235058 -0.504529 0.92617732
-19.043203 2.1629784 -0.50452501 0.92617768
-18.824804 3.5910449 -0.50449139 0.92618287
-18.777929 3.8272655 -0.50448424 0.92618382
-18.560703 4.765615 -0.50445127 0.92618847
-18.499062 4.9983788 -0.50444198 0.9261896
-18.067596 6.3768163 -0.50437707 0.92619902
-1.7792578 0.70449215 -0.050375707 0.99237198
-1.7292968 0.70998043 -0.049210548 0.99254787
-1.6126952 0.70996094 -0.046385802 0.99297416
-1.5592577 0.70997071 -0.045101814 0.99316794
-1.5087109 0.70998043 -0.043893889 0.99335021
-1.4152539 0.70997071 -0.041681137 0.99368441
-1.3719531 0.70998043 -0.040665437 0.99383783
-1.1834375 0.70994139 -0.036329117 0.99449313
-1.1503906 0.70995116 -0.035586279 0.99460542
-1.0370703 0.71438473 -0.033151284 0.99497372
-1.0370312 0.73373044 -0.033441544 0.99492973
-1.0368555 0.79387695 -0.034376793 0.99478829
-1.0367968 0.81471676 -0.034711264 0.99473768
-1.0366992 0.8359375 -0.035057984 0.99468535
-1.0365624 0.87972653 -0.035789412 0.99457467
-1.0363476 0.94895506 -0.036990777 0.99439311
-11.081699 10.406435 -0.40018263 0.94098443
-10.67957 10.814638 -0.4001061 0.94099534
-10.542129 10.947275 -0.40008 0.94099909
-10.403086 11.078164 -0.40005356 0.94100279
-9.5351171 11.825479 -0.3998889 0.94102621
-9.3850775 11.943466 -0.3998605 0.9410305
-9.0806246 12.173789 -0.3998028 0.94103885
-9.2192965 12.689297 -0.41289631 0.93916786
-9.058672 12.803495 -0.41287252 0.93917084
-8.8964844 12.915507 -0.41284859 0.93917459
-8.7329683 13.025497 -0.41282442 0.93917811
-8.2343941 13.343027 -0.41275078 0.93918848
-8.065547 13.44459 -0.41272587 0.9391923
-7.8955078 13.544082 -0.41270077 0.93919575
