# .PCD v0.7 - Point Cloud Data file format
VERSION 0.7
FIELDS x y z intensity
SIZE 4 4 4 4
TYPE F F F F
COUNT 1 1 1 1
WIDTH 1084
HEIGHT 1
VIEWPOINT 0 0 0 1 0 0 0
POINTS 1084
DATA ascii
2.371748 -4.8800292 -0.39905494 0.97847307
2.3101366 -4.9092774 -0.39904097 0.97847384
2.248203 -4.9377637 -0.39902702 0.9784745
2.1858788 -4.9654493 -0.39901289 0.97847527
2.1232421 -4.9923434 -0.39899874 0.97847605
1.9969726 -5.0437598 -0.39897022 0.97847754
1.8052734 -5.114912 -0.39892688 0.97847974
1.7407812 -5.1369824 -0.39891228 0.97848064
1.6760352 -5.1582618 -0.39889765 0.97848141
1.6110156 -5.1787305 -0.39888293 0.97848219
1.5457519 -5.198369 -0.39886817 0.97848302
1.4145215 -5.2351756 -0.39883849 0.97848463
1.2824316 -5.268672 -0.39880863 0.97848618
1.2160547 -5.2841797 -0.39879361 0.97848701
1.1495215 -5.2988377 -0.39877853 0.97848779
1.0828222 -5.3126559 -0.39876345 0.97848862
1.0159277 -5.325654 -0.39874831 0.9784894
0.88171875 -5.3491015 -0.39871794 0.97849101
0.74693358 -5.3691502 -0.39868742 0.97849268
0.40826172 -5.4044042 -0.39861074 0.97849679
0.068105467 -5.4183493 -0.39853373 0.97850084
9.7656248e-06 -5.4185548 -0.39851832 0.97850168
-0.068085939 -5.4179196 -0.39850289 0.97850251
-0.20418945 -5.414072 -0.39847204 0.97850418
-0.27220702 -5.4108787 -0.39845663 0.97850496
-0.34015626 -5.406836 -0.39844123 0.97850573
-0.35304686 -4.0030665 -0.29555649 0.98401135
-0.40050781 -3.9705956 -0.29350805 0.98412132
-0.45461914 -4.0026269 -0.29627368 0.98397285
-0.67885739 -5.3737597 -0.39836448 0.9785099
-0.74630857 -5.3645897 -0.39834923 0.97851074
-0.88082027 -5.34374 -0.39831871 0.97851235
-0.94786131 -5.3320312 -0.39830351 0.97851318
-1.0147558 -5.3195019 -0.39828834 0.97851396
-1.0814648 -5.3061328 -0.39827323 0.97851479
-1.3465136 -5.2443066 -0.39821315 0.97851795
-1.4122363 -5.2267675 -0.39819825 0.97851878
-1.6080663 -5.1692677 -0.39815378 0.97852111
-1.6728418 -5.1484571 -0.39813912 0.97852188
-1.7373339 -5.1268358 -0.39812449 0.97852272
-1.8015527 -5.104414 -0.39810991 0.97852349
-1.8654785 -5.0811815 -0.39809543 0.97852427
-1.9924414 -5.0323439 -0.39806664 0.97852576
-2.0554297 -5.0067282 -0.39805228 0.97852653
-2.118125 -4.9803319 -0.39803809 0.97852725
-2.180459 -4.9531345 -0.39802393 0.97852808
-2.3653612 -4.8669238 -0.39798197 0.97853029
-2.4262402 -4.8366404 -0.39796814 0.97853106
-2.486748 -4.8056149 -0.3979544 0.97853172
-2.6065233 -4.7412791 -0.39792719 0.97853327
-2.7831249 -4.6391993 -0.39788711 0.97853529
-2.8410938 -4.6037011 -0.39787394 0.97853607
-3.0122948 -4.4929199 -0.39783505 0.9785381
-3.1791894 -4.3757615 -0.39779711 0.97854018
-3.2338183 -4.3353419 -0.39778468 0.97854084
-3.341543 -4.2524414 -0.39776024 0.97854215
-3.5505567 -4.0786815 -0.39771271 0.97854471
-3.6014256 -4.0336328 -0.39770111 0.97854531
-3.6517284 -3.9879491 -0.39768967 0.9785459
-3.750576 -3.894707 -0.3976672 0.9785471
-3.8470409 -3.7990136 -0.39764521 0.97854829
-1.0236132 -0.91392577 -0.10092392 0.99451131
-1.024043 -0.86907226 -0.098780975 0.99462754
-1.024248 -0.84732419 -0.097765543 0.99468261
-1.0244238 -0.82602537 -0.096785545 0.99473584
-1.0246387 -0.80513668 -0.095839806 0.99478704
-1.025 -0.76456052 -0.094045788 0.99488437
-1.025166 -0.74482423 -0.09319523 0.99493051
-1.0253222 -0.72541988 -0.092373922 0.99497515
-1.0306739 -0.70994139 -0.092045404 0.99499297
-1.0882324 -0.70995116 -0.095562093 0.99480218
-1.1186913 -0.70996094 -0.097446591 0.99469995
-1.1834375 -0.70995116 -0.10149787 0.99448013
-1.2178613 -0.70994139 -0.1036779 0.994362
-1.253828 -0.70995116 -0.10597038 0.9942376
-1.2913965 -0.70995116 -0.10838432 0.99410677
-1.4152832 -0.70995116 -0.116451 0.99366957
-1.5592968 -0.70994139 -0.12600799 0.99315184
-1.6127343 -0.70995116 -0.12959491 0.99295753
-1.6692969 -0.70994139 -0.13341373 0.99275082
-6.4406247 -2.182539 -0.50014591 0.97309363
-6.4932909 -2.0199316 -0.50013381 0.97309422
-6.5862694 -1.6910644 -0.50011235 0.97309548
-6.6069431 -1.6081543 -0.50010759 0.97309572
-6.6265526 -1.5249804 -0.50010306 0.97309601
-6.6626949 -1.3579589 -0.50009471 0.97309637
-6.6791992 -1.274121 -0.5000909 0.97309649
-6.6946092 -1.1900781 -0.50008732 0.97309679
-6.7090235 -1.1058496 -0.50008392 0.97309685
-6.7345896 -0.93688476 -0.50007796 0.97309726
-6.7559471 -0.76734376 -0.50007296 0.9730975
-6.765029 -0.68238282 -0.50007081 0.97309762
-6.773037 -0.5973047 -0.5000689 0.97309774
-6.7858591 -0.42692381 -0.5000658 0.97309792
-6.7906637 -0.34161133 -0.50006467 0.97309804
-6.5513086 0.082333982 -0.50011837 0.97405887
-6.5389352 0.41139647 -0.50012082 0.97405869
-6.5332618 0.49353513 -0.50012207 0.97405869
-6.5265427 0.57560545 -0.5001235 0.97405869
-6.5188475 0.65756834 -0.50012517 0.97405845
-6.5002832 0.82119137 -0.50012916 0.97405839
-6.4894919 0.90282226 -0.50013155 0.97405821
-6.4648438 1.0656152 -0.50013691 0.97405785
-6.4509568 1.146787 -0.50014001 0.97405779
-6.4201856 1.3085546 -0.50014681 0.9740575
-6.4032907 1.3891308 -0.50015056 0.97405726
-6.3664451 1.5496386 -0.50015873 0.9740569
-6.2808104 1.8676269 -0.50017774 0.97405583
-6.2569141 1.9464258 -0.50018311 0.97405553
-6.2320313 2.0249219 -0.50018865 0.97405523
-6.2061715 2.103086 -0.50019443 0.97405493
-1.7946484 0.65887696 -0.14593025 0.99236
-1.7293066 0.70994139 -0.14269406 0.99252886
-1.6692969 0.70995116 -0.13846676 0.99274933
-1.6127148 0.70995116 -0.13450344 0.99295616
-1.5592773 0.70995116 -0.13078059 0.99315047
-1.460791 0.70995116 -0.12397693 0.9935056
-1.4152539 0.70995116 -0.12086143 0.99366832
-1.3307421 0.70996094 -0.11513034 0.99396759
-1.2178711 0.70994139 -0.10760471 0.9943608
-1.1504102 0.70994139 -0.10318901 0.99459159
-1.1187011 0.70995116 -0.10113762 0.99469882
-1.0882324 0.70993161 -0.099181555 0.9948011
-1.058916 0.70995116 -0.097314753 0.99489868
-1.0246191 0.72495115 -0.095809206 0.99497747
-1.0244824 0.74430662 -0.096660346 0.99493289
-1.0241113 0.78411132 -0.098455347 0.99483907
-1.023916 0.80458981 -0.099401511 0.9947896
-1.0235058 0.84671873 -0.10139732 0.99468535
-1.0233105 0.86843747 -0.10244976 0.99463028
-1.0228808 0.91327149 -0.10467079 0.99451411
-4.6479783 4.4759569 -0.49255496 0.97444612
-3.9892089 4.4679589 -0.4572084 0.97625792
-3.8883398 4.4667187 -0.45204654 0.97652286
-3.5062597 4.46207 -0.43317717 0.97749174
-3.4156249 4.4609861 -0.4288694 0.97771299
-2.990664 4.4606833 -0.40994108 0.97868609
-2.9108691 4.4618554 -0.40665442 0.97885513
-2.6242578 4.501699 -0.39775226 0.97931331
-2.5675683 4.5344825 -0.39776507 0.97931254
-2.4529588 4.5978613 -0.39779094 0.97931129
-2.3950782 4.6284862 -0.39780402 0.97931057
-2.2781541 4.6875196 -0.39783046 0.9793092
-2.1000781 4.7705369 -0.39787069 0.97930712
-1.9796679 4.8221388 -0.39789793 0.97930574
-1.9189843 4.846797 -0.39791161 0.97930503
-1.8579882 4.8706932 -0.39792541 0.97930431
-1.735127 4.9161911 -0.39795318 0.97930288
-1.6111425 4.9585838 -0.39798126 0.97930151
-1.5487792 4.9786229 -0.39799532 0.97930074
-1.4232519 5.0163279 -0.39802375 0.97929931
-1.2333105 5.0669627 -0.3980667 0.97929704
-1.1695899 5.0822363 -0.39808112 0.97929633
-1.105664 5.0967088 -0.39809558 0.97929561
-1.041582 5.1104002 -0.39811006 0.97929478
-0.78361326 5.1570311 -0.39816847 0.9792918
-0.71877927 5.1666598 -0.39818314 0.97929108
-0.65380859 5.1754684 -0.39819786 0.97929037
-0.45833007 5.1970215 -0.39824212 0.97928804
-0.39299804 5.2025781 -0.3982569 0.97928721
-0.32761717 5.2072849 -0.39827171 0.97928649
0.065595701 5.2183299 -0.39836073 0.97928196
0.13114257 5.2172947 -0.39837557 0.97928113
0.39319336 5.2048826 -0.39843497 0.97927815
0.45855469 5.1997361 -0.39844978 0.97927731
0.65432614 5.1793356 -0.39849409 0.97927499
0.91383785 5.1406541 -0.39855292 0.97927207
1.0428222 5.1164646 -0.39858219 0.97927046
1.2350585 5.0740724 -0.39862579 0.97926825
1.3622656 5.0417967 -0.39865461 0.97926682
1.4255761 5.0244627 -0.39866897 0.97926605
1.4886523 5.0063376 -0.39868328 0.97926527
1.7385449 4.9259176 -0.39873996 0.97926241
1.8619336 4.8810058 -0.39876795 0.97926098
2.044785 4.8078709 -0.39880946 0.97925878
2.1051073 4.7819629 -0.39882317 0.97925812
2.2276952 4.7341208 -0.39937744 0.97922957
2.3430469 4.6707911 -0.39887714 0.97925526
2.4016211 4.6411328 -0.39889044 0.9792546
2.4598436 4.6107516 -0.3989037 0.97925389
2.5176659 4.5796094 -0.39891681 0.97925329
2.7705371 4.6182323 -0.41109118 0.97862691
3.1932225 4.7627635 -0.43770197 0.97725922
3.6914356 4.9488282 -0.47127414 0.97553658
3.8282714 4.9999413 -0.48068544 0.9750542
3.9707031 5.0531344 -0.49055755 0.97454846
4.1193848 5.1088476 -0.50095218 0.97401619
4.2601075 5.0197949 -0.50256193 0.97393382
4.3851657 4.9114356 -0.50259036 0.97393233
4.44666 4.8560743 -0.50260431 0.97393161
4.5074611 4.7999411 -0.50261819 0.9739309
4.5675292 4.7430563 -0.50263184 0.97393024
4.6855173 4.6270118 -0.50265867 0.97392893
4.7434373 4.5678906 -0.5026719 0.97392815
4.8005958 4.5080662 -0.50268483 0.97392744
4.8569727 4.4474902 -0.50269771 0.97392684
4.9125876 4.3862109 -0.50271034 0.97392625
5.1789451 4.0695996 -0.50277102 0.97392303
1.252246 0.88598633 -0.11709239 0.99386513
1.2524316 0.86271483 -0.11608814 0.99391764
1.2526367 0.83984375 -0.11511833 0.99396825
1.2528125 0.81733394 -0.11418251 0.99401712
1.2533398 0.75190431 -0.11156608 0.9941538
1.4152539 0.70996094 -0.12086151 0.99366832
1.612705 0.70996094 -0.13450332 0.99295616
1.6693066 0.70996094 -0.13846718 0.99274927
1.8611327 0.70995116 -0.15204963 0.99204087
2.0235937 0.71420896 -0.16380316 0.99142826
2.0236034 0.6857422 -0.16309319 0.99146521
2.0235937 0.65749997 -0.1624153 0.99150062
6.3166308 1.8782812 -0.50303108 0.9739098
6.3398142 1.7987792 -0.50303638 0.9739095
6.4032812 1.558584 -0.50305104 0.97390878
6.4224315 1.4780176 -0.50305545 0.97390848
6.4405465 1.397207 -0.50305963 0.97390831
6.4576559 1.3161817 -0.50306356 0.97390807
6.4887695 1.153496 -0.50307083 0.97390777
6.5027928 1.0718652 -0.50307405 0.97390759
6.538662 0.82603514 -0.50308245 0.97390723
6.5652342 0.57900387 -0.50308877 0.97390693
6.586123 0.24841796 -0.50309384 0.97390658
6.5887108 0.16563477 -0.50309449 0.97390664
6.5908298 9.7656248e-06 -0.50309515 0.97390646
6.5887303 -0.16562499 -0.50309485 0.97390652
6.586113 -0.24838866 -0.50309438 0.97390658
6.5777831 -0.4138281 -0.50309265 0.97390664
6.5574608 -0.66145504 -0.5030883 0.97390682
6.548584 -0.74379879 -0.50308639 0.97390699
6.5387106 -0.82601559 -0.50308424 0.97390705
6.51583 -0.99006832 -0.50307924 0.97390729
6.4888182 -1.1534766 -0.50307328 0.97390759
6.4576659 -1.3161817 -0.50306642 0.97390801
6.422451 -1.4780176 -0.50305855 0.97390842
6.4033103 -1.5585938 -0.50305432 0.97390866
6.383193 -1.638916 -0.50304985 0.97390878
6.3620505 -1.7189746 -0.5030452 0.97390896
6.3398728 -1.7987792 -0.50304025 0.97390926
6.2925096 -1.9574902 -0.50302964 0.97390991
2.0236034 -0.65749997 -0.16241531 0.99150062
2.0235643 -0.71419919 -0.16380323 0.99142838
1.9337499 -0.70994139 -0.15724204 0.99177027
1.6127245 -0.70994139 -0.13450393 0.99295616
1.5087109 -0.70994139 -0.12727818 0.99333334
1.4607812 -0.70994139 -0.1239772 0.99350566
1.2535058 -0.73072267 -0.11075447 0.99419624
1.252793 -0.81732422 -0.11418296 0.99401724
1.2524414 -0.86269528 -0.11608799 0.99391764
1.2522168 -0.88597655 -0.11709239 0.99386525
1.2518262 -0.93374997 -0.11920986 0.99375457
4.7933202 -3.670078 -0.46082082 0.97607267
4.2070704 -3.6622753 -0.425767 0.97787243
4.0000877 -3.6628222 -0.41400966 0.97847694
3.9028614 -3.6650195 -0.40868095 0.97875094
3.8080957 -3.6671679 -0.4035522 0.97901481
3.7226269 -3.6761131 -0.39935961 0.97923064
3.6760547 -3.7225292 -0.39934912 0.97923106
3.5811327 -3.8135252 -0.39932773 0.97923225
3.4839842 -3.9020996 -0.39930579 0.97923332
3.4346094 -3.9454784 -0.39929464 0.9792338
3.3846483 -3.988203 -0.39928341 0.97923446
3.3341503 -4.0303025 -0.39927199 0.97923505
3.2316308 -4.1125779 -0.39924887 0.97923625
3.1796093 -4.1527343 -0.39923713 0.9792369
3.1270897 -4.1922364 -0.39922529 0.9792375
2.8018944 -4.4150782 -0.39915186 0.97924125
2.7461231 -4.4497948 -0.39913926 0.97924185
2.6898925 -4.4837985 -0.39912659 0.97924256
2.4608984 -4.6127048 -0.39907485 0.97924519
2.2850585 -4.7017088 -0.3990351 0.97924721
2.1660352 -4.7573242 -0.39900821 0.97924864
2.1060255 -4.7839942 -0.39899462 0.97924936
1.9240038 -4.8594823 -0.39895347 0.97925144
1.8627343 -4.8831053 -0.39893961 0.97925216
1.6771874 -4.9493165 -0.39889771 0.97925431
1.6148144 -4.9698143 -0.39888358 0.97925508
1.5521679 -4.9895411 -0.3988694 0.9792558
1.4892968 -5.0084863 -0.39885521 0.97925645
1.4261719 -5.0266209 -0.3988409 0.97925723
1.2993164 -5.0604978 -0.3988122 0.97925878
1.2355859 -5.0762501 -0.39879778 0.97925949
1.0432616 -5.1186523 -0.39875427 0.9792617
0.91423827 -5.1428809 -0.39872509 0.97926319
0.78464842 -5.1638575 -0.39869574 0.97926468
0.65458983 -5.1815524 -0.39866629 0.97926623
0.58941406 -5.1891794 -0.39865157 0.979267
0.45876953 -5.2019629 -0.39862198 0.97926855
0.19679686 -5.2176561 -0.3985627 0.97927165
0.13120116 -5.2195606 -0.3985478 0.97927225
0.065615229 -5.2205954 -0.39853293 0.97927302
-0.26226562 -5.2134275 -0.39845866 0.9792769
-0.3277539 -5.2095313 -0.39844382 0.97927767
-0.39316407 -5.2047949 -0.39842904 0.97927845
-0.35303709 -4.0030761 -0.30675337 0.98400801
-0.40050781 -3.9706054 -0.3046256 0.98411804
-0.45462888 -4.0026169 -0.30749545 0.98396957
-0.78394532 -5.1592479 -0.39834043 0.97928303
-0.91330075 -5.1375294 -0.39831114 0.97928452
-1.0420312 -5.1125975 -0.39828196 0.97928602
-1.1061425 -5.0989161 -0.39826739 0.97928673
-1.1700782 -5.084404 -0.3982529 0.97928756
-1.2974023 -5.0530467 -0.39822406 0.979289
-1.4867773 -5.0000196 -0.39818111 0.9792912
-1.6739843 -4.9399023 -0.39813864 0.97929341
-1.7358691 -4.9183006 -0.39812461 0.97929412
-1.7974707 -4.8959374 -0.39811066 0.97929478
-1.8587987 -4.8727927 -0.39809668 0.97929549
-1.9805273 -4.8241992 -0.39806911 0.97929692
-2.0409081 -4.7987695 -0.39805537 0.97929764
-2.1606836 -4.745625 -0.39802817 0.97929919
-2.2200975 -4.7179394 -0.39801469 0.97929984
-2.5686815 -4.536406 -0.39793554 0.97930384
-2.6816797 -4.4701366 -0.39790991 0.97930521
-2.7375782 -4.4359469 -0.39789721 0.9793058
-2.7929981 -4.4010544 -0.39788458 0.97930646
-3.0102344 -4.2546287 -0.39783525 0.97930902
-3.0633593 -4.2163477 -0.39782318 0.97930962
-3.3215818 -4.0150976 -0.39776447 0.9793126
-3.421201 -3.9301074 -0.39774185 0.97931391
-3.4702442 -3.8867188 -0.39773068 0.97931439
-3.5187206 -3.8426952 -0.39771965 0.97931492
-3.6274023 -3.7667871 -0.39917585 0.97924
-3.660742 -3.7070215 -0.39768735 0.97931665
-3.7069335 -3.6606445 -0.3976768 0.97931719
-1.0226367 -0.93640625 -0.10584293 0.99445295
-1.0228808 -0.91325194 -0.1046709 0.99451417
-1.023086 -0.89060545 -0.10354019 0.9945733
-1.0235156 -0.8467285 -0.10139728 0.99468529
-1.0246289 -0.7249316 -0.095809206 0.99497747
-1.0589257 -0.70996094 -0.097314872 0.99489862
-1.1504102 -0.70995116 -0.10318924 0.99459159
-1.1834472 -0.70994139 -0.10534263 0.994479
-1.2178711 -0.70993161 -0.10760513 0.9943608
-1.3307323 -0.70994139 -0.11513065 0.99396765
-1.4152832 -0.70995116 -0.12086201 0.99366826
-1.5592968 -0.70995116 -0.13078117 0.99315035
-1.6692969 -0.70995116 -0.13846745 0.99274933
-1.7293164 -0.70994139 -0.14269474 0.9925288
-1.794873 -0.71062499 -0.14735511 0.99228573
-6.2062106 -2.1031151 -0.5001989 0.97405475
-6.23207 -2.0249121 -0.50019294 0.97405511
-6.2569628 -1.9464258 -0.50018728 0.97405535
-6.2808595 -1.8676269 -0.50018173 0.97405565
-6.3256736 -1.7091699 -0.50017142 0.97405618
-6.3664942 -1.5496191 -0.50016201 0.97405672
-6.4361134 -1.2277441 -0.50014591 0.9740575
-6.4776855 -0.98427731 -0.5001362 0.97405803
-6.5265622 -0.5755859 -0.50012475 0.97405857
-6.5332618 -0.49352539 -0.50012314 0.97405869
-6.5389547 -0.41137695 -0.50012171 0.97405863
-6.5497656 -0.16462891 -0.50011903 0.97405881
-6.3137207 0.31762695 -0.50017196 0.97495317
-6.3037791 0.47621092 -0.50017405 0.974953
-6.2973046 0.55538082 -0.50017542 0.974953
-6.2813964 0.71346676 -0.50017887 0.97495288
-6.2615428 0.87110353 -0.50018322 0.97495264
-6.2501364 0.94970703 -0.50018567 0.97495246
-6.2100196 1.1846288 -0.50019455 0.97495198
-6.1946678 1.2625879 -0.50019795 0.97495192
-6.178359 1.3403418 -0.50020158 0.97495174
-6.1610837 1.4178808 -0.5002054 0.97495151
-6.1428123 1.4951953 -0.50020939 0.97495139
-6.1236134 1.5722852 -0.50021368 0.97495109
-6.1034079 1.6491308 -0.50021821 0.97495091
-6.0822754 1.7257031 -0.50022286 0.97495061
-6.0601754 1.8020215 -0.50022781 0.97495037
-6.0131054 1.9537792 -0.50023836 0.97494984
-1.7955078 0.65920895 -0.15133201 0.99235469
-1.7956347 0.68498045 -0.15205535 0.99231821
-1.6692969 0.70995116 -0.14352246 0.99274778
-1.5592773 0.70995116 -0.13555568 0.99314898
-1.4152539 0.70995116 -0.12527451 0.99366695
-1.2914063 0.70996094 -0.11659671 0.99410427
-1.2537988 0.70995116 -0.11399998 0.99423528
-1.1834179 0.70995116 -0.10918842 0.99447787
-1.1504102 0.70995116 -0.10695663 0.9945904
-1.1187011 0.70996094 -0.10483017 0.99469769
-1.0882324 0.70993161 -0.10280284 0.99480003
-1.058916 0.70995116 -0.10086799 0.9948976
-1.0306835 0.70994139 -0.099019811 0.99499083
-1.0230078 0.82486326 -0.10397407 0.9947409
-1.0225879 0.86783201 -0.10611469 0.9946329
-1.0223633 0.88998044 -0.10724346 0.99457598
-1.0221192 0.91259766 -0.10841373 0.99451697
-4.557158 4.3885255 -0.50056547 0.97493374
-4.5017576 4.4455466 -0.50057799 0.97493315
-4.417295 4.4731541 -0.49739611 0.97509044
-4.1980662 4.4704981 -0.48521179 0.97569311
-4.092422 4.4692087 -0.47945213 0.97597808
-3.8883398 4.4667187 -0.46855155 0.97651786
-3.6932323 4.464365 -0.45842016 0.97701973
-3.5987792 4.463203 -0.45362166 0.97725749
-3.4156053 4.4609861 -0.44452849 0.97770828
-3.3267381 4.4598923 -0.44022024 0.9779219
-3.2395313 4.4588475 -0.43606281 0.97812814
-3.1539648 4.4578123 -0.43205023 0.9783271
-3.0699413 4.4567871 -0.42817867 0.97851926
-2.9873827 4.4557714 -0.42444164 0.97870475
-2.6732714 4.4561033 -0.41114134 0.97936505
-2.451328 4.4589648 -0.40258947 0.97978997
-2.2545898 4.4944725 -0.397836 0.98002625
-2.1410644 4.5500097 -0.39786166 0.98002499
-2.0261817 4.6026855 -0.39788762 0.98002362
-1.9682519 4.6279297 -0.3979007 0.98002303
-1.8514453 4.6762595 -0.39792714 0.98002166
-1.7926074 4.6993065 -0.3979404 0.980021
-1.733457 4.721611 -0.39795378 0.9800204
-1.6740625 4.7431836 -0.39796722 0.98001969
-1.4337988 4.8219628 -0.39802155 0.98001701
-1.3122948 4.8568068 -0.39804903 0.98001564
-1.1898828 4.8886032 -0.39807674 0.9800142
-0.94291013 4.9429002 -0.39813262 0.98001146
-0.88074219 4.9545212 -0.39814666 0.98001081
-0.75599605 4.9754686 -0.39817488 0.98000932
-0.63078123 4.9932323 -0.39820322 0.98000795
-0.37916014 5.0193458 -0.39826024 0.98000509
-0.06325195 5.0341406 -0.39833176 0.98000157
0.12652344 5.0335059 -0.39837474 0.97999942
0.18979491 5.0316992 -0.39838904 0.97999871
0.50545895 5.0107517 -0.39846057 0.97999513
0.75667965 4.9797263 -0.39851752 0.97999233
1.0680566 4.9232616 -0.39858809 0.97998881
1.1298535 4.9096289 -0.39860213 0.97998816
1.252998 4.8800292 -0.39863002 0.97998673
1.314248 4.8640623 -0.39864394 0.97998607
1.375332 4.8473339 -0.3986578 0.97998536
1.5571874 4.7925391 -0.39869902 0.97998339
1.6772656 4.7522264 -0.39872625 0.97998196
1.736914 4.730947 -0.39873981 0.97998124
1.7962793 4.7089062 -0.39875329 0.97998059
1.8553613 4.6861229 -0.3987667 0.97997993
1.9141797 4.6625876 -0.39878002 0.97997928
1.972666 4.63833 -0.39879328 0.97997856
2.0887401 4.5875878 -0.39881966 0.97997731
2.2035253 4.5339355 -0.3988457 0.979976
2.4268067 4.5488281 -0.40791628 0.97952527
2.5809276 4.558115 -0.41443646 0.9792015
2.6613085 4.5652637 -0.41809383 0.97901982
2.760205 4.6010547 -0.42451465 0.97870106
2.8631835 4.639502 -0.43134865 0.97836196
3.3110058 4.8067479 -0.46180215 0.97685218
3.9865429 4.9441209 -0.5025 0.97483808
4.0484767 4.8937793 -0.50251412 0.9748373
4.2303905 4.7381153 -0.50255549 0.97483528
4.4063282 4.575654 -0.50259548 0.97483331
4.4635935 4.5200391 -0.50260854 0.97483265
4.5201464 4.4637012 -0.50262141 0.97483206
4.946279 3.9882812 -0.50271839 0.97482723
4.9961033 3.9258983 -0.50272977 0.97482669
1.2509668 0.93312496 -0.1234787 0.99375743
1.2511816 0.9090625 -0.12236351 0.99381363
1.2513964 0.88540035 -0.12128677 0.99386793
1.2516114 0.8621484 -0.12024719 0.99392033
1.2518164 0.83929688 -0.11924354 0.99397087
1.2525293 0.75142574 -0.11556629 0.9941563
1.2527051 0.73027343 -0.1147258 0.99419868
1.2538183 0.70996094 -0.11400005 0.99423522
1.3307421 0.70996094 -0.11933403 0.99396628
1.460791 0.70996094 -0.12850375 0.99350417
1.5087206 0.70995116 -0.13192531 0.99333185
1.6693066 0.70996094 -0.14352272 0.99274772
1.7293066 0.70995116 -0.1479045 0.99252725
1.8611327 0.70995116 -0.1576013 0.9920392
1.9337597 0.70995116 -0.1629831 0.99176848
2.0234962 0.68572265 -0.16904214 0.99146384
6.0702147 1.8883398 -0.50297523 0.97481453
6.1770997 1.5035352 -0.50299984 0.97481334
6.1955466 1.4258008 -0.50300407 0.97481316
6.213027 1.3478515 -0.50300813 0.97481298
6.2295313 1.2696874 -0.50301194 0.97481275
6.2595606 1.1127441 -0.50301892 0.97481239
6.2730761 1.0340234 -0.50302207 0.97481227
6.285625 0.95511717 -0.503025 0.97481209
6.317246 0.7175293 -0.50303245 0.97481173
6.3559375 0.15977539 -0.5030418 0.97481138
6.3574705 0.079902343 -0.50304222 0.97481132
6.3454099 -0.39920896 -0.50304002 0.97481138
6.3398633 -0.47891602 -0.50303882 0.97481149
6.3333397 -0.55854493 -0.50303745 0.97481149
6.3258004 -0.6380859 -0.50303578 0.97481155
6.2971678 -0.87604493 -0.50302958 0.97481191
6.285625 -0.95509762 -0.50302708 0.97481209
6.2731247 -1.0339941 -0.50302428 0.97481209
6.2595897 -1.1127343 -0.5030213 0.97481227
6.2450681 -1.1912988 -0.50301808 0.97481245
6.2295408 -1.2696778 -0.50301468 0.97481269
6.1955762 -1.4258105 -0.50300717 0.97481304
6.1771383 -1.5035449 -0.50300306 0.97481316
6.1159177 -1.7352344 -0.50298947 0.97481388
2.0235155 -0.6574707 -0.1683396 0.99149913
1.8611327 -0.70994139 -0.15760197 0.9920392
1.6692871 -0.70994139 -0.14352302 0.99274784
1.5087109 -0.70994139 -0.13192539 0.99333191
1.2527051 -0.73026365 -0.11472591 0.99419868
1.2523438 -0.77287108 -0.11643722 0.99411249
1.2518164 -0.83927733 -0.11924366 0.99397093
1.2515918 -0.86212891 -0.12024727 0.99392039
1.251416 -0.88538086 -0.12128692 0.99386793
1.2509766 -0.93311518 -0.12347885 0.99375743
4.7933302 -3.6700683 -0.47764605 0.97606754
4.4305272 -3.6652539 -0.45494753 0.97719187
4.3170896 -3.6637402 -0.44799078 0.97753668
3.9964452 -3.6594725 -0.42873427 0.97849178
3.7065625 -3.6602635 -0.41215476 0.97931486
3.5287402 -3.6643262 -0.40249571 0.97979462
3.4081738 -3.7219627 -0.39928845 0.97995394
3.2785254 -3.8631639 -0.40088716 0.97987461
3.2164941 -3.8880663 -0.3992452 0.97995621
2.8093846 -4.1902928 -0.39915332 0.9799608
2.7030566 -4.2593064 -0.3991293 0.97996193
2.4853125 -4.3891892 -0.39908013 0.97996444
2.0317383 -4.615283 -0.39897761 0.9799695
1.9735156 -4.6403027 -0.39896449 0.97997016
1.9149804 -4.6645703 -0.39895126 0.97997081
1.3148144 -4.8661423 -0.39881554 0.97997761
1.2535156 -4.8821092 -0.39880165 0.97997826
1.1303711 -4.9117284 -0.39877379 0.97997963
1.0685157 -4.9253807 -0.39875978 0.97998029
1.0064942 -4.938242 -0.39874575 0.97998101
0.94432616 -4.9503222 -0.39873168 0.97998172
0.75700194 -4.9818649 -0.3986893 0.97998387
0.63152343 -4.9989548 -0.39866087 0.9799853
0.56864256 -5.0063181 -0.39864665 0.97998595
0.50567383 -5.0128808 -0.39863238 0.97998673
0.4426074 -5.018662 -0.39861813 0.97998744
0.37952149 -5.0236621 -0.39860383 0.97998804
0.31631836 -5.0278516 -0.39858955 0.97998881
0.18987304 -5.0338573 -0.39856091 0.97999018
0.12660156 -5.0356541 -0.39854655 0.97999096
0.063320309 -5.0366602 -0.39853224 0.97999167
0 -5.0368748 -0.39851791 0.97999239
-0.063291013 -5.0363083 -0.39850357 0.97999305
-0.12656249 -5.0349317 -0.39848921 0.97999376
-0.18982421 -5.0327539 -0.39847487 0.97999454
-0.25304687 -5.0298047 -0.39846057 0.97999519
-0.31619141 -5.0260448 -0.39844626 0.97999591
-0.35303709 -4.0030761 -0.31795332 0.98400462
-0.45461914 -4.0026073 -0.31872272 0.98396623
-0.63107419 -4.9953809 -0.39837494 0.97999942
-0.81879878 -4.9675293 -0.39833236 0.98000151
-0.9433105 -4.9449997 -0.39830413 0.98000306
-1.0672168 -4.919414 -0.39827606 0.98000431
-1.1288965 -4.9054198 -0.39826205 0.98000509
-1.2517285 -4.8751659 -0.39823422 0.98000646
-1.3737402 -4.841836 -0.39820656 0.98000783
-1.4948926 -4.8054395 -0.39817905 0.98000926
-1.5551074 -4.7861228 -0.39816537 0.98000991
-1.6150585 -4.7660351 -0.39815181 0.98001063
-1.6747754 -4.7452049 -0.39813825 0.98001122
-1.7342187 -4.7236328 -0.39812475 0.98001188
-1.852246 -4.6782422 -0.39809799 0.98001325
-2.0270605 -4.6046581 -0.39805833 0.98001516
-2.1419823 -4.5519528 -0.39803222 0.98001653
-2.1989551 -4.5245314 -0.39801928 0.98001713
-2.2555468 -4.4963965 -0.39800644 0.98001778
-2.3676953 -4.4380174 -0.39798099 0.98001903
-2.4231834 -4.4077635 -0.39796835 0.98001969
-2.5330369 -4.3452048 -0.39794341 0.98002094
-2.6412597 -4.279912 -0.39791885 0.98002219
-2.694746 -4.2462401 -0.39790672 0.98002285
-2.7478321 -4.2119431 -0.39789465 0.98002326
-2.8004589 -4.1769433 -0.39788267 0.98002392
-2.9043553 -4.1050096 -0.39785907 0.98002511
-3.0567381 -3.9922752 -0.39782444 0.98002684
-3.1066113 -3.9534471 -0.39781311 0.98002732
-3.2047753 -3.8738964 -0.39779079 0.98002851
-3.2531054 -3.8332226 -0.39777979 0.98002905
-3.3009276 -3.7919335 -0.39776891 0.98002958
-3.3661327 -3.7701073 -0.39988559 0.97992444
-3.5320604 -3.5767088 -0.39771631 0.98003221
-3.6097167 -3.5646484 -0.40138739 0.97984982
-1.0221386 -0.91259766 -0.10841358 0.99451691
-1.0223633 -0.88997066 -0.10724358 0.99457598
-1.0225977 -0.86781245 -0.10611461 0.9946329
-1.0230078 -0.82486326 -0.10397422 0.9947409
-1.0236034 -0.76351559 -0.10103492 0.99488914
-1.0306739 -0.70994139 -0.099020191 0.99499089
-1.0589257 -0.70996094 -0.10086841 0.99489754
-1.0882324 -0.70995116 -0.10280323 0.99479997
-1.253828 -0.70995116 -0.11400032 0.99423516
-1.4152637 -0.70994139 -0.12527469 0.99366695
-1.4607812 -0.70995116 -0.12850414 0.99350423
-1.5087109 -0.70994139 -0.13192585 0.99333191
-1.6127148 -0.70994139 -0.13941501 0.99295467
-1.6692969 -0.70994139 -0.14352322 0.99274778
-1.7293164 -0.70994139 -0.14790501 0.99252719
-1.7955078 -0.65918946 -0.15133186 0.99235469
-6.0823045 -1.7257031 -0.50022656 0.97495055
-6.1428709 -1.495205 -0.50021261 0.97495115
-6.1783886 -1.3403223 -0.50020438 0.97495162
-6.1946969 -1.2625781 -0.50020063 0.9749518
-6.2244043 -1.1064843 -0.50019372 0.97495204
-6.2615724 -0.87109375 -0.50018501 0.97495252
-6.2720017 -0.79232419 -0.50018257 0.97495258
-6.2814159 -0.71344727 -0.50018036 0.97495276
-6.2973337 -0.55537111 -0.50017661 0.97495288
-6.3092284 -0.39693359 -0.50017375 0.97495317
-6.3172069 -0.23826171 -0.50017178 0.97495317
-6.3196969 -0.15885742 -0.50017112 0.97495323
-6.3211813 -0.07942383 -0.50017071 0.97495323
-6.10707 9.7656248e-06 -0.50021911 0.97578782
-6.1051559 0.15347657 -0.50021935 0.97578776
-6.0993652 0.30685547 -0.50022054 0.97578782
-6.0897751 0.46004882 -0.50022256 0.97578764
-6.0763083 0.6129297 -0.50022542 0.97578758
-6.0590329 0.76543945 -0.50022918 0.97578734
-5.9991894 1.1444141 -0.50024235 0.97578669
-5.984365 1.2197168 -0.50024563 0.97578657
-5.9686036 1.2948242 -0.50024909 0.97578639
-5.9157028 1.5188965 -0.50026083 0.97578585
-5.8962011 1.5931445 -0.50026518 0.97578561
-5.854414 1.7408203 -0.50027448 0.9757852
-1.7963672 0.65952146 -0.15674102 0.99234933
-1.5592773 0.70995116 -0.14033298 0.99314743
-1.3719823 0.70994139 -0.12652957 0.99381936
-1.2913867 0.70996094 -0.12070583 0.99410301
-1.2537988 0.70995116 -0.11801761 0.99423397
-1.1834179 0.70995116 -0.11303646 0.99447668
-1.1504102 0.70995116 -0.11072578 0.99458921
-1.1187011 0.70996094 -0.1085247 0.9946965
-1.058916 0.70996094 -0.10442261 0.99489641
-1.0306835 0.70994139 -0.10250957 0.99498969
-1.0230762 0.74331051 -0.10358109 0.99493754
-1.0229003 0.76300782 -0.10452492 0.99489146
-1.0225097 0.80348629 -0.10651463 0.99479449
-1.0218652 0.86720699 -0.10977611 0.99463552
-1.0216211 0.88933593 -0.11094306 0.99457866
-1.0213965 0.91194332 -0.11215282 0.99451965
-4.4023337 4.2394333 -0.50060076 0.97576958
-4.3488083 4.2945213 -0.5006128 0.97576904
-4.2946191 4.3489356 -0.50062501 0.97576839
-4.2397165 4.4026661 -0.50063741 0.97576785
-4.1841893 4.4557033 -0.50064987 0.9757672
-3.9892187 4.4679489 -0.4906027 0.97624761
-3.8883398 4.4667187 -0.48506454 0.97651267
-3.7897265 4.4655271 -0.47972465 0.97676814
-3.5987597 4.463203 -0.46960858 0.97725254
-3.5062597 4.46207 -0.46481642 0.97748196
-3.4156053 4.4609861 -0.46019426 0.97770333
-3.3267381 4.4598923 -0.45573333 0.97791702
-3.1539648 4.4578028 -0.44727674 0.97832239
-2.7479882 4.4528809 -0.42858681 0.97921866
-2.594707 4.4510059 -0.4219968 0.97953498
-2.4465332 4.4502735 -0.41596347 0.97982454
-2.3037598 4.4520311 -0.41058552 0.98008275
-1.9614258 4.4555664 -0.39874324 0.98065168
-1.9013281 4.4705567 -0.39791602 0.98069143
-1.5594629 4.6019726 -0.3979933 0.98068774
-1.446543 4.6500683 -0.39888126 0.98064506
-1.1494141 4.7222753 -0.39808607 0.98068333
-1.0900195 4.7365136 -0.39809951 0.98068261
-1.0304687 4.75 -0.39811298 0.98068196
-0.91080076 4.7747264 -0.39814007 0.98068064
-0.79059571 4.7964258 -0.39816725 0.98067939
-0.6093359 4.8233008 -0.39820829 0.98067743
-0.48794922 4.8374314 -0.39823577 0.98067611
-0.24430664 4.8565235 -0.39829093 0.98067343
-0.18327148 4.859375 -0.39830473 0.98067278
-0.1221875 4.861455 -0.39831859 0.98067212
9.7656248e-06 4.8633399 -0.39834625 0.98067075
0.061113279 4.8631153 -0.3983601 0.98067009
0.18333007 4.8603907 -0.39838779 0.98066872
0.24439453 4.8578711 -0.39840165 0.98066807
0.30542967 4.8545995 -0.39841545 0.98066735
0.36641601 4.8505273 -0.39842924 0.98066676
0.48825195 4.840117 -0.39845687 0.98066545
0.54903316 4.8337793 -0.39847064 0.98066479
0.79132813 4.8007421 -0.39852554 0.98066217
0.85162109 4.790576 -0.39853919 0.98066151
0.91176754 4.7796679 -0.39855289 0.98066086
0.97177732 4.7680078 -0.39856645 0.98066014
1.0316699 4.7555566 -0.39858004 0.9806596
1.2103027 4.713789 -0.39862055 0.98065758
1.3872362 4.6652927 -0.39866066 0.98065567
1.5622363 4.6101561 -0.39870036 0.98065376
1.6777148 4.569736 -0.39872658 0.98065251
1.848955 4.5037012 -0.39876541 0.98065054
1.9097558 4.4903712 -0.39967918 0.98060673
1.9794238 4.4964552 -0.40240255 0.98047584
2.0500293 4.5025487 -0.4052211 0.98034042
2.1216114 4.5086327 -0.40813708 0.98020041
2.1936133 4.5135546 -0.41104466 0.98006076
2.4167187 4.529912 -0.42053634 0.97960502
2.5766602 4.5505271 -0.42832801 0.97923112
2.660459 4.5637889 -0.43268916 0.97902185
2.7602148 4.6010351 -0.43947554 0.97869641
2.9695215 4.6792088 -0.45392901 0.97800356
3.1931834 4.7627439 -0.4696722 0.9772495
3.3109961 4.8067479 -0.4780764 0.97684711
3.4331055 4.8523731 -0.48686564 0.97642648
3.5598242 4.8996873 -0.49606338 0.97598654
3.7901659 4.8233981 -0.50245565 0.97568095
3.8505957 4.775527 -0.50246942 0.97568023
3.9104102 4.7269044 -0.50248301 0.97567952
4.0281739 4.6273727 -0.50250977 0.97567832
4.0861325 4.5765138 -0.50252295 0.97567761
4.1433983 4.5249119 -0.502536 0.97567707
4.2560253 4.4195995 -0.50256163 0.97567582
4.3113279 4.3658595 -0.50257421 0.97567528
4.4199023 4.2563477 -0.50259888 0.97567409
4.525713 4.1441407 -0.50262302 0.97567278
4.5775099 4.0870314 -0.50263482 0.97567236
4.825654 3.7919629 -0.50269127 0.97566962
1.2511816 0.81626952 -0.12236358 0.99402231
1.2513964 0.7941699 -0.12139668 0.99406928
1.2515723 0.7723828 -0.12046348 0.99411482
1.2517383 0.75094724 -0.11956307 0.99415869
1.3307421 0.70996094 -0.12353958 0.99396497
1.460791 0.70995116 -0.13303234 0.99350274
1.612705 0.70996094 -0.14432777 0.99295312
1.6693066 0.70996094 -0.1485807 0.99274611
1.7293066 0.70995116 -0.15311699 0.99252558
1.9337499 0.70996094 -0.16872713 0.99176663
2.0234277 0.71416014 -0.17575496 0.99142522
2.0234473 0.65746093 -0.17426607 0.99149752
5.8630271 1.8238866 -0.50292838 0.97565824
5.9071093 1.6759961 -0.50293851 0.97565782
5.9662399 1.4522167 -0.50295216 0.97565717
5.9840622 1.3771386 -0.50295627 0.97565699
6.000947 1.3018359 -0.50296015 0.97565681
6.0318651 1.1506543 -0.5029673 0.97565639
6.0458884 1.0747558 -0.50297058 0.97565627
6.0710645 0.92249995 -0.50297642 0.97565597
6.0821872 0.84614253 -0.50297904 0.97565591
6.0923634 0.76964843 -0.50298142 0.97565579
6.1015821 0.69303709 -0.50298363 0.97565567
6.1098337 0.61630857 -0.50298554 0.97565562
6.1171384 0.53949219 -0.50298727 0.97565544
6.1287789 0.38558593 -0.50299013 0.97565538
6.1331735 0.30855468 -0.50299114 0.97565526
6.1365724 0.23145507 -0.50299203 0.97565526
6.1390038 0.15433593 -0.50299263 0.9756552
6.1404591 0.077177733 -0.50299305 0.9756552
6.1409278 -0 -0.50299329 0.97565526
6.1389942 -0.15430664 -0.50299299 0.97565526
6.1365724 -0.23144531 -0.50299251 0.97565526
6.1331639 -0.30853516 -0.5029918 0.97565532
6.1287985 -0.38558593 -0.50299096 0.97565532
6.1171484 -0.53949219 -0.50298846 0.97565538
6.0822167 -0.84613281 -0.50298089 0.97565579
6.071074 -0.92249995 -0.50297844 0.97565591
6.0318942 -1.1506348 -0.5029698 0.97565633
6.0169139 -1.2263379 -0.50296646 0.97565651
5.966289 -1.4522167 -0.50295526 0.97565699
5.9278026 -1.6016601 -0.50294667 0.97565746
5.9071484 -1.6760156 -0.50294209 0.97565764
2.0234375 -0.68567383 -0.17499335 0.99146223
1.7931445 -0.70994139 -0.15796451 0.99228978
1.6127245 -0.70994139 -0.14432792 0.99295306
1.4152832 -0.70994139 -0.12968951 0.99366546
1.3719727 -0.70994139 -0.12653007 0.99381942
1.3307421 -0.70994139 -0.12353996 0.99396497
1.2519336 -0.72980469 -0.11869415 0.994201
1.251748 -0.75092775 -0.11956329 0.99415874
1.2509766 -0.83873045 -0.12336525 0.99397355
1.2503418 -0.90842772 -0.12659068 0.99381644
4.6684275 -3.6684179 -0.48631316 0.97645295
4.5475683 -3.6668065 -0.47848642 0.9768275
4.4305468 -3.6652539 -0.47098058 0.97718674
4.2070312 -3.6622851 -0.45686507 0.97786295
3.9964256 -3.659492 -0.44384348 0.97848701
3.7974803 -3.6569433 -0.43182045 0.97906363
3.6089549 -3.6545799 -0.42069763 0.97959745
3.2690234 -3.6613476 -0.40203586 0.98049361
3.1067967 -3.7554784 -0.3992202 0.98062885
2.9628026 -3.8695996 -0.39918771 0.98063034
2.9138672 -3.9064062 -0.39917666 0.98063093
2.8644824 -3.9426074 -0.39916554 0.98063141
2.8146288 -3.9781737 -0.39915428 0.98063195
2.7136133 -4.0474024 -0.39913145 0.98063314
2.6108789 -4.1141014 -0.39910826 0.98063421
2.5589061 -4.1464453 -0.39909652 0.98063481
2.5065429 -4.178154 -0.39908469 0.98063529
2.4537597 -4.209199 -0.3990728 0.98063588
2.3470507 -4.2692771 -0.39904869 0.98063707
2.1293457 -4.3812695 -0.39899948 0.9806394
2.074043 -4.4075584 -0.398987 0.98063993
2.0184472 -4.433115 -0.39897442 0.98064059
1.9625 -4.4579782 -0.39896178 0.98064125
1.9062598 -4.4821482 -0.39894909 0.9806419
1.7358007 -4.5503807 -0.39891055 0.98064369
1.6208105 -4.5922656 -0.39888453 0.98064494
1.5629101 -4.6121287 -0.39887145 0.98064554
1.5047852 -4.6312404 -0.39885828 0.98064619
1.3290331 -4.6841893 -0.39881855 0.98064816
1.2108105 -4.7158103 -0.39879179 0.98064935
1.0918554 -4.7444239 -0.39876488 0.98065066
0.97220701 -4.7700291 -0.39873782 0.98065203
0.91216797 -4.7817283 -0.3987242 0.98065257
0.85198241 -4.7926364 -0.39871064 0.98065329
0.73122066 -4.8121972 -0.39868328 0.9806546
0.61002928 -4.8287306 -0.39865583 0.98065591
0.54926759 -4.8358397 -0.39864212 0.98065662
0.18339844 -4.8624706 -0.39855924 0.98066056
0.12229492 -4.8642087 -0.39854541 0.98066127
0 -4.8654099 -0.39851773 0.98066258
-0.061142575 -4.8648729 -0.39850387 0.98066318
-0.12224609 -4.8635254 -0.39849001 0.98066396
-0.18333983 -4.861455 -0.39847618 0.98066455
-0.24442382 -4.8585935 -0.39846236 0.98066527
-0.35304686 -4.0031152 -0.32915953 0.98400092
-0.60959959 -4.8253808 -0.39837959 0.9806692
-0.67014647 -4.8171582 -0.39836586 0.98066992
-0.7306152 -4.8082128 -0.39835215 0.98067051
-0.79093748 -4.7984667 -0.3983385 0.98067123
-0.91123044 -4.7767577 -0.39831123 0.98067248
-0.97115231 -4.7647657 -0.39829764 0.98067313
-1.0308985 -4.7520213 -0.39828411 0.98067385
-1.090498 -4.7385449 -0.39827055 0.98067445
-1.1499023 -4.724287 -0.39825711 0.98067516
-1.2091405 -4.7093163 -0.39824367 0.98067576
-1.2681934 -4.6935935 -0.39823028 0.98067641
-1.3270313 -4.6771288 -0.39821693 0.98067701
-1.4440429 -4.6419921 -0.39819041 0.98067832
-1.5601562 -4.6039257 -0.39816406 0.98067957
-1.6178319 -4.583828 -0.39815098 0.98068017
-1.6752343 -4.5629783 -0.39813796 0.98068082
-1.7892675 -4.5191407 -0.39811206 0.98068208
-1.8458495 -4.4961619 -0.39809924 0.98068267
-1.9581348 -4.4480762 -0.39807376 0.98068386
-2.0137792 -4.4229589 -0.39806113 0.98068458
-2.1788573 -4.3435154 -0.39802364 0.98068637
-2.2871873 -4.2871189 -0.39799908 0.9806875
-2.3940723 -4.2280469 -0.39797476 0.98068863
-2.4469237 -4.1974902 -0.39796278 0.98068923
-2.499414 -4.1662793 -0.39795086 0.98068982
-2.6544139 -4.0687695 -0.39791563 0.98069149
-2.8056445 -3.9654784 -0.39788127 0.98069316
-2.855166 -3.9298143 -0.39787 0.9806937
-2.9042578 -3.893496 -0.39785889 0.98069423
-2.9528711 -3.8565917 -0.3978478 0.98069477
-3.0009961 -3.8190722 -0.39783686 0.98069537
-3.0486619 -3.7809668 -0.39782605 0.98069584
-3.1425586 -3.7029588 -0.39780468 0.98069686
-3.2344432 -3.622617 -0.39778382 0.98069793
-3.3512206 -3.5686815 -0.40098342 0.98054409
-3.5160253 -3.5604784 -0.40986437 0.9801175
-3.6896288 -3.5530858 -0.41955706 0.97965211
-3.7822461 -3.551748 -0.42497894 0.97939187
-1.0220996 -0.84552735 -0.10865013 0.99469036
-1.0223047 -0.82429683 -0.1075634 0.99474335
-1.0225195 -0.8034668 -0.10651436 0.99479449
-1.023086 -0.74331051 -0.1035812 0.99493754
-1.0232617 -0.72397459 -0.10267017 0.99498194
-1.0306739 -0.70994139 -0.10250995 0.99498975
-1.0589355 -0.70995116 -0.10442325 0.99489641
-1.0882422 -0.70995116 -0.10642628 0.99479878
-1.1187011 -0.70995116 -0.10852524 0.9946965
-1.15042 -0.70995116 -0.11072624 0.99458921
-1.1834472 -0.70994139 -0.11303695 0.99447656
-1.2178711 -0.70993161 -0.1154647 0.99435836
-1.3719727 -0.70994139 -0.12653004 0.99381942
-1.4152637 -0.70994139 -0.1296899 0.99366558
-1.4607812 -0.70995116 -0.1330328 0.9935028
-1.5592968 -0.70995116 -0.14033332 0.99314737
-1.6127148 -0.70994139 -0.14432834 0.99295306
-1.7966211 -0.71132809 -0.15827304 0.99227488
-1.7963672 -0.65951169 -0.15674122 0.99234933
-5.7598243 -2.032871 -0.50029993 0.97578406
-5.8321776 -1.8142871 -0.5002833 0.97578478
-5.8544531 -1.7408301 -0.50027817 0.97578502
-5.9342871 -1.4444238 -0.50025976 0.97578597
-5.9519529 -1.3697363 -0.5002557 0.97578603
-6.0130758 -1.0689355 -0.50024152 0.97578675
-6.0259862 -0.99326169 -0.50023854 0.97578698
-6.0379686 -0.91746092 -0.50023574 0.97578704
-6.0490036 -0.84151363 -0.50023311 0.9757871
-6.0590625 -0.7654199 -0.50023079 0.97578728
-6.0681834 -0.68922848 -0.50022864 0.97578734
-6.0835352 -0.53651369 -0.50022501 0.97578752
-6.0950584 -0.38346678 -0.50022221 0.9757877
-6.0993748 -0.30682617 -0.50022119 0.97578776
-6.1027341 -0.23015624 -0.5002203 0.97578782
-6.1051559 -0.15346679 -0.5002197 0.97578776
-5.9064841 9.7656248e-06 -0.50026453 0.97656834
-5.9059958 0.07422851 -0.50026459 0.97656846
-5.9022851 0.22261718 -0.50026524 0.97656834
-5.8990426 0.29676756 -0.5002659 0.97656828
-5.8897266 0.44491211 -0.50026786 0.97656828
-5.8836718 0.51889646 -0.50026917 0.97656828
-5.8502636 0.81387693 -0.50027639 0.97656786
-5.8395896 0.88732421 -0.50027877 0.9765678
-5.8280272 0.96065426 -0.50028127 0.97656763
-5.8155274 1.0338184 -0.50028402 0.97656751
-5.8020997 1.1068164 -0.500287 0.97656739
-5.7877831 1.1796484 -0.50029016 0.97656721
-5.7563868 1.324746 -0.50029713 0.97656691
-5.739326 1.3969824 -0.50030094 0.97656673
-5.7213669 1.4690039 -0.50030488 0.97656655
-5.7024999 1.5408007 -0.50030911 0.97656637
-5.6827245 1.6123437 -0.50031352 0.9765662
-5.6620798 1.6836523 -0.50031811 0.97656596
-1.7972363 0.65984374 -0.16215801 0.9923439
-1.7973731 0.68563473 -0.16293378 0.99230736
-1.7293066 0.70994139 -0.15833142 0.99252385
-1.6692773 0.70996094 -0.15364085 0.99274457
-1.6127148 0.70995116 -0.14924297 0.99295145
-1.5592773 0.70995116 -0.14511226 0.99314588
-1.5087206 0.70995116 -0.14122596 0.99332881
-1.460791 0.70994139 -0.1375629 0.99350125
-1.3307421 0.70996094 -0.12774678 0.99396354
-1.2913867 0.70996094 -0.1248167 0.99410164
-1.2537988 0.70995116 -0.12203693 0.99423265
-1.1187011 0.70996094 -0.11222068 0.99469531
-1.0306933 0.70994139 -0.10600071 0.9949885
-1.0225977 0.72349608 -0.1060963 0.99498403
-1.0224121 0.74282223 -0.10703693 0.99493968
-1.022207 0.76249021 -0.10801125 0.99489379
-1.0217968 0.80292964 -0.11006607 0.99479687
-1.0211328 0.86659175 -0.11343384 0.99463809
-1.0204004 0.93436521 -0.11718277 0.9944613
-4.3087111 4.0461521 -0.50062215 0.97655183
-4.2058496 4.1533494 -0.50064534 0.97655082
-4.1534376 4.2059665 -0.50065708 0.97655022
-4.0466113 4.3092284 -0.50068122 0.97654915
-3.9372656 4.4097753 -0.50070584 0.9765479
-3.6932323 4.464365 -0.49073771 0.97700942
-3.598789 4.463213 -0.48560256 0.97724724
-3.5062695 4.46208 -0.48064694 0.97747678
-3.4155955 4.4609861 -0.47586763 0.97769827
-3.1539648 4.4578028 -0.46251005 0.97831744
-2.90625 4.4547849 -0.45050403 0.97887433
-2.7480078 4.4528708 -0.44318438 0.97921395
-2.6707518 4.4519238 -0.43971527 0.979375
-2.5197754 4.4500976 -0.43314049 0.97968018
-2.4459667 4.4491992 -0.43002775 0.97982472
-2.2305565 4.4465818 -0.42134383 0.98022813
-2.1606348 4.4457321 -0.41865695 0.98035294
-1.9577441 4.4472556 -0.41155303 0.98068303
-1.8916503 4.4478416 -0.40937799 0.98078424
-1.6337011 4.449873 -0.40148941 0.98115087
-1.570664 4.4502344 -0.39971331 0.9812336
-1.2827832 4.5212693 -0.39805609 0.98131067
-1.2259277 4.537168 -0.3980689 0.98131007
-1.1688575 4.5523729 -0.39808184 0.98130941
-0.8252539 4.6422949 -0.39935568 0.98125017
-0.70623046 4.6479297 -0.39818653 0.98130453
-0.58925778 4.6645017 -0.398213 0.98130333
-0.47189453 4.678164 -0.39823958 0.98130208
-0.41308594 4.6838865 -0.3982529 0.98130143
-0.35418946 4.6888475 -0.39826623 0.98130089
-0.17724609 4.6993361 -0.39830628 0.98129904
-0.059082031 4.7026367 -0.39833304 0.98129773
0.059121091 4.702949 -0.39835984 0.98129648
0.11821289 4.701992 -0.39837322 0.98129588
0.17730469 4.7003026 -0.39838657 0.98129523
0.23634765 4.6978517 -0.39839995 0.98129463
0.29538086 4.6946678 -0.39841333 0.98129398
0.35434571 4.6907325 -0.39842668 0.98129344
0.41328123 4.6860838 -0.39844003 0.98129272
0.47214842 4.6806736 -0.39845338 0.98129213
0.53095704 4.674531 -0.39846671 0.98129147
0.64830077 4.6600194 -0.39849329 0.98129028
0.88631833 4.6462302 -0.40062058 0.98119134
0.99767578 4.5988669 -0.3985725 0.98128653
1.1704297 4.5584474 -0.39861166 0.98128468
1.3415136 4.5115232 -0.39865047 0.98128295
1.6999218 4.4562988 -0.4039675 0.98103571
1.9718066 4.4792089 -0.41451064 0.98054558
2.262373 4.5099998 -0.42735198 0.97994894
2.7601953 4.6010251 -0.45444259 0.97869164
2.8631444 4.6394825 -0.46175835 0.97835237
2.9695215 4.6792088 -0.46938932 0.97799855
3.193203 4.7627439 -0.48566914 0.97724426
3.5465918 4.7546582 -0.50240058 0.97646952
3.6061425 4.7098341 -0.50241411 0.97646892
3.7814062 4.5709376 -0.50245392 0.97646707
4.0067091 4.3756151 -0.50250518 0.97646469
4.1690722 4.221797 -0.50254214 0.97646302
4.376338 4.0073829 -0.50258934 0.97646081
4.4264355 3.9521484 -0.50260073 0.97646034
4.572578 3.7827537 -0.50263399 0.97645873
4.7121973 3.6079686 -0.50266582 0.97645724
1.2495019 0.9078418 -0.13081424 0.99381912
1.2497559 0.88420898 -0.12966457 0.99387324
1.2501757 0.83819336 -0.12748305 0.993976
1.2505859 0.79365236 -0.12545036 0.99407178
1.2507714 0.77190429 -0.12448684 0.9941172
1.2511231 0.72935545 -0.12265934 0.99420333
1.2538183 0.70996094 -0.12203685 0.99423259
1.2913672 0.70995116 -0.12481693 0.99410176
1.5087206 0.70995116 -0.1412257 0.99332881
1.5592675 0.70995116 -0.14511241 0.99314594
1.6127245 0.70996094 -0.14924335 0.99295139
1.7293066 0.70995116 -0.15833154 0.99252385
1.861123 0.70996094 -0.16871235 0.99203563
2.0233495 0.71414059 -0.18173446 0.99142355
2.0233691 0.65744138 -0.1801948 0.99149591
5.669414 1.7636621 -0.50288457 0.97644717
5.7120409 1.6206738 -0.5028944 0.97644675
5.7320118 1.5487695 -0.50289899 0.97644651
5.802793 1.2588574 -0.50291532 0.97644573
5.8181934 1.1858495 -0.5029189 0.97644556
5.8326755 1.1126465 -0.50292224 0.97644538
5.8462501 1.0392773 -0.5029254 0.9764452
5.8705664 0.89205074 -0.50293106 0.97644502
5.8911719 0.74424803 -0.50293589 0.97644484
5.9001074 0.67015624 -0.50293797 0.97644466
5.9080758 0.59596676 -0.50293988 0.9764446
5.9150877 0.52166992 -0.50294155 0.9764446
5.9212303 0.44731444 -0.50294304 0.97644442
5.9263768 0.37286133 -0.50294423 0.97644442
5.9362597 0.14922851 -0.50294673 0.9764443
5.9376659 0.074628904 -0.50294715 0.9764443
5.9381347 1.953125e-05 -0.50294733 0.9764443
5.9376755 -0.074599609 -0.50294727 0.97644424
5.9362693 -0.14920898 -0.50294709 0.97644424
5.9263864 -0.37286133 -0.50294507 0.97644442
5.9080954 -0.59594727 -0.50294113 0.97644454
5.891201 -0.74421871 -0.5029375 0.97644472
5.8706055 -0.89203125 -0.50293297 0.97644484
5.8182321 -1.18583 -0.50292146 0.97644544
5.7865133 -1.3316602 -0.50291443 0.97644573
5.7320604 -1.5487792 -0.50290227 0.97644633
5.7120895 -1.620664 -0.50289786 0.97644657
5.6912303 -1.6922851 -0.50289321 0.97644675
5.6694627 -1.7636719 -0.50288838 0.97644699
2.0233691 -0.65742189 -0.1801948 0.99149591
2.0233691 -0.68565428 -0.18094733 0.9914605
2.0233691 -0.71411133 -0.18173446 0.99142349
1.7931445 -0.70995116 -0.16334446 0.99228799
1.7293164 -0.70993161 -0.15833215 0.99252385
1.6692871 -0.70994139 -0.15364143 0.99274457
1.6127245 -0.70994139 -0.14924355 0.99295145
1.5592871 -0.70995116 -0.1451128 0.99314582
1.5087109 -0.70994139 -0.14122638 0.99332887
1.4607812 -0.70994139 -0.13756339 0.99350131
1.3307421 -0.70994139 -0.12774742 0.9939636
1.2913965 -0.70995116 -0.12481742 0.99410164
1.2537891 -0.70994139 -0.12203746 0.99423271
1.2511327 -0.72934568 -0.12265938 0.99420333
1.2507617 -0.77188474 -0.12448673 0.99411726
1.2503613 -0.81573242 -0.12644863 0.99402487
1.2499511 -0.86098629 -0.12855469 0.99392563
1.2497265 -0.88420898 -0.12966461 0.99387336
1.2495117 -0.90782225 -0.13081424 0.99381912
1.2493261 -0.93190426 -0.13201176 0.99376279
4.7122655 -3.6080077 -0.50267351 0.97645694
4.5475683 -3.6668162 -0.49478197 0.9768222
4.4305372 -3.6652539 -0.48702163 0.97718161
4.31708 -3.6637499 -0.47957411 0.97752655
4.2070212 -3.6622851 -0.47242457 0.97785789
4.100215 -3.6608691 -0.46555793 0.97817612
3.9964256 -3.659492 -0.45895949 0.97848213
3.895576 -3.6581738 -0.45261961 0.97877616
3.6089549 -3.6545799 -0.43502593 0.97959274
3.4298046 -3.6523535 -0.42436212 0.98008788
3.3434472 -3.6512694 -0.41932181 0.98032206
3.261533 -3.6529393 -0.41477379 0.98053342
3.1031737 -3.6565428 -0.40619606 0.98093212
3.0263476 -3.6582129 -0.40212598 0.98112142
2.9583495 -3.6689453 -0.39918652 0.98125809
2.9119432 -3.7057128 -0.39917603 0.98125863
2.8650682 -3.741914 -0.39916545 0.98125911
2.7699804 -3.8125584 -0.39914396 0.98126
2.6241014 -3.9139256 -0.39911106 0.98126155
2.5746288 -3.946455 -0.39909989 0.98126215
2.4238672 -4.0403419 -0.39906585 0.98126376
2.3728125 -4.0703807 -0.39905432 0.98126423
2.2696581 -4.1284766 -0.39903098 0.98126531
2.2175293 -4.1565528 -0.39901924 0.9812659
2.1650684 -4.1839647 -0.39900738 0.98126644
2.0591114 -4.2367969 -0.39898345 0.98126751
2.0056543 -4.2622166 -0.39897135 0.98126805
1.8977929 -4.3109961 -0.39894697 0.98126924
1.8434179 -4.3343654 -0.39893466 0.98126984
1.7887402 -4.3570604 -0.39892229 0.98127037
1.6785742 -4.4003515 -0.39889744 0.98127156
1.567373 -4.4408689 -0.39887226 0.98127276
1.5113866 -4.4600782 -0.39885962 0.98127329
1.4551855 -4.4785743 -0.39884689 0.98127389
1.3987695 -4.496367 -0.39883414 0.98127443
1.2852441 -4.5298142 -0.39880848 0.98127562
1.1134863 -4.5745702 -0.39876959 0.98127753
0.88211912 -4.6241503 -0.39871725 0.98127985
0.82389647 -4.634707 -0.39870405 0.98128057
0.76557618 -4.6445408 -0.39869091 0.98128116
0.58991212 -4.6696386 -0.39865112 0.98128295
0.41343749 -4.688076 -0.39861119 0.98128486
0.35450193 -4.6927342 -0.39859784 0.98128551
0.17735352 -4.7022948 -0.39855772 0.98128736
0.11826172 -4.7040038 -0.39854434 0.98128796
0.059130859 -4.7049608 -0.39853096 0.98128855
1.953125e-05 -4.7051659 -0.39851752 0.98128921
-0.059101563 -4.7046289 -0.39850417 0.98128986
