# .PCD v0.7 - Point Cloud Data file format
VERSION 0.7
FIELDS x y z intensity
SIZE 4 4 4 4
TYPE F F F F
COUNT 1 1 1 1
WIDTH 1082
HEIGHT 1
VIEWPOINT 0 0 0 1 0 0 0
POINTS 1082
DATA ascii
-1.1405566 -6.919404 -0.39870134 0.97229463
-1.314121 -6.8887691 -0.39871371 0.97229379
-1.5728711 -6.8346677 -0.39873213 0.97229254
-1.6586816 -6.8144627 -0.39873821 0.97229213
-1.7442187 -6.7931833 -0.39874431 0.97229171
-1.8294727 -6.7708302 -0.39875036 0.97229129
-1.9144434 -6.7474217 -0.39875641 0.97229081
-2.0834374 -6.6973729 -0.39876842 0.97229004
-1.2919433 -3.976162 -0.23769177 0.98338938
-2.4174511 -6.584619 -0.39879212 0.97228843
-2.5000489 -6.5538182 -0.39879799 0.97228801
-2.5822461 -6.5219922 -0.39880383 0.9722876
-2.74542 -6.4552245 -0.39881536 0.97228682
-2.9068456 -6.3843751 -0.39882687 0.97228605
-3.0664647 -6.3095117 -0.39883816 0.97228515
-3.3022265 -6.1896873 -0.39885485 0.97228408
-3.3797851 -6.1477833 -0.39886037 0.97228378
-3.4568164 -6.1049218 -0.39886582 0.97228336
-3.5333202 -6.0610838 -0.39887121 0.97228295
-3.6092577 -6.0162888 -0.39887658 0.97228259
-3.6845899 -5.9705176 -0.39888191 0.97228235
-3.7593944 -5.9238377 -0.39888722 0.97228187
-3.9071777 -5.8276367 -0.39889765 0.97228122
-3.9801562 -5.7781639 -0.3989028 0.9722808
-4.0524802 -5.7277637 -0.39890793 0.9722805
-4.1241989 -5.676455 -0.39891297 0.97228014
-4.2656541 -5.5711718 -0.39892295 0.97227943
-4.6735449 -5.2343946 -0.39895171 0.97227746
-4.8676758 -5.0547166 -0.39896536 0.97227645
-4.9932814 -4.9309082 -0.39897421 0.97227585
-1.0279199 -0.94125974 -0.079241447 0.9944315
-1.0286132 -0.85092771 -0.075896718 0.9946658
-1.0287597 -0.8295117 -0.075132713 0.99471933
-1.0289062 -0.80849606 -0.074395522 0.99477106
-1.0292969 -0.747832 -0.07233429 0.9949156
-1.0306835 -0.70995116 -0.071153261 0.99499834
-1.0589062 -0.70995116 -0.072481267 0.99490529
-1.0882519 -0.70994139 -0.073871575 0.99480772
-1.2178515 -0.70995116 -0.080145493 0.99436808
-1.3307323 -0.70995116 -0.085750386 0.9939754
-1.415293 -0.70995116 -0.090019301 0.99367636
-1.460791 -0.70995116 -0.092339627 0.99351394
-1.6127343 -0.70995116 -0.10018001 0.99296516
-1.7293359 -0.70995116 -0.10628055 0.99253833
-1.7887793 -0.70822263 -0.10937881 0.99232167
-1.7886816 -0.68231446 -0.10884044 0.99235934
-1.7886034 -0.65666014 -0.10832466 0.9923954
-8.402627 -2.7301757 -0.50230503 0.96522188
-8.4996777 -2.4115918 -0.50231165 0.96522141
-8.529336 -2.3045897 -0.50231361 0.96522135
-8.5576658 -2.1972363 -0.50231552 0.96522117
-8.5846481 -2.089541 -0.50231737 0.96522093
-8.6102533 -1.9814941 -0.50231904 0.96522087
-8.6344919 -1.8731641 -0.50232065 0.96522075
-8.7351952 -1.3273144 -0.50232726 0.96522027
-8.7512007 -1.2174413 -0.50232828 0.96522021
-8.76581 -1.107373 -0.50232923 0.96522021
-8.7790527 -0.99713868 -0.50233006 0.96522015
-8.7908983 -0.88674802 -0.50233078 0.96522009
-8.8013868 -0.7762109 -0.50233144 0.96521997
-8.8327541 -0.22204101 -0.50233305 0.96521997
-8.8348532 -0.11102539 -0.5023331 0.96521997
-8.4231834 -0 -0.50230354 0.96681064
-8.412529 0.42321289 -0.50230241 0.96681076
-8.4065428 0.52889645 -0.50230181 0.96681076
-8.3992186 0.63449216 -0.50230122 0.96681082
-8.2929783 1.4742187 -0.50229269 0.96681142
-8.2737989 1.5783105 -0.50229126 0.96681142
-8.2532711 1.6821387 -0.50228965 0.9668116
-8.2314548 1.7857324 -0.50228798 0.96681166
-8.1582127 2.0946777 -0.50228244 0.96681201
-8.0733786 2.4006348 -0.50227606 0.96681243
-7.9770508 2.7031837 -0.50226885 0.96681285
-7.9424024 2.8031933 -0.50226629 0.96681303
-1.7895606 0.68264645 -0.11421711 0.99235439
-1.7896582 0.70855469 -0.11478248 0.99231672
-1.7293261 0.70994139 -0.11147694 0.9925372
-1.6692969 0.70995116 -0.10817463 0.9927575
-1.5087304 0.70994139 -0.099433631 0.99334073
-1.4152637 0.70995116 -0.094420739 0.99367541
-1.3719823 0.70994139 -0.092120476 0.99382901
-1.253828 0.70994139 -0.085923076 0.99424291
-1.2178515 0.70995116 -0.084064253 0.99436718
-1.15042 0.70994139 -0.080614239 0.99459767
-1.0882226 0.70995116 -0.077483751 0.994807
-1.0287597 0.72785157 -0.075149573 0.99496293
-1.0284863 0.76716793 -0.076514356 0.99487168
-1.0283399 0.78737301 -0.077233806 0.99482358
-1.0281934 0.80792969 -0.077979162 0.99477386
-1.0280371 0.82891601 -0.078751221 0.99472225
-1.0278906 0.85032225 -0.079551429 0.99466872
-1.0277051 0.87216794 -0.080380708 0.99461335
-1.0271875 0.94056636 -0.083054617 0.9944346
-4.8749413 4.5778513 -0.39879456 0.9735586
-4.7582812 4.6988182 -0.39878607 0.97355908
-4.6987987 4.758193 -0.39878178 0.97355938
-4.6385937 4.8168163 -0.39877743 0.97355962
-4.5776172 4.8746581 -0.39877298 0.97356004
-4.4535837 4.9880567 -0.39876404 0.97356057
-4.3267283 5.0982714 -0.39875486 0.97356117
-4.2622852 5.1522069 -0.39875022 0.97356135
-4.0649118 5.3089843 -0.39873594 0.97356236
-3.9978223 5.35958 -0.39873111 0.97356272
-3.8617871 5.4582324 -0.39872131 0.97356331
-3.7928319 5.5062594 -0.39871636 0.97356367
-3.6531737 5.5996876 -0.39870629 0.97356433
-3.5824707 5.6450586 -0.39870116 0.97356474
-3.5112207 5.68957 -0.39869601 0.97356498
-3.2207713 5.8584962 -0.39867511 0.97356629
-3.072412 5.9374218 -0.39866447 0.97356707
-2.9975097 5.9754977 -0.39865905 0.97356737
-2.9221582 6.0125875 -0.39865363 0.97356778
-2.8463378 6.0487595 -0.39864817 0.97356814
-2.5386815 6.1837792 -0.39862609 0.97356963
-2.3824022 6.2454591 -0.39861488 0.97357035
-2.2246583 6.3031735 -0.39860356 0.97357106
-2.0654981 6.356914 -0.39859214 0.97357178
-1.9854394 6.3822656 -0.39858642 0.97357219
-1.4988965 6.5131149 -0.39855155 0.97357446
-1.4169042 6.5313668 -0.39854568 0.97357476
-1.3346972 6.5485449 -0.39853981 0.97357523
-1.003955 6.6069336 -0.39851609 0.97357678
-0.75416988 6.6397948 -0.39849821 0.97357792
-0.6706543 6.6486521 -0.39849228 0.97357827
-0.41956055 6.6688766 -0.39847434 0.97357959
-0.3357324 6.6735449 -0.39846835 0.97357988
-0.25184569 6.6771188 -0.39846236 0.9735803
-0.16791992 6.6796579 -0.39845636 0.97358072
0.083935544 6.6809278 -0.39843839 0.97358191
0.16789062 6.6792579 -0.39843237 0.97358227
0.25180665 6.6765037 -0.39842638 0.97358274
0.33569336 6.6727438 -0.39842045 0.97358298
0.50325197 6.6620016 -0.39840847 0.97358376
0.67047852 6.6470408 -0.39839655 0.97358459
0.75394529 6.6379981 -0.39839062 0.97358495
0.92048824 6.6167674 -0.39837876 0.97358572
1.0035449 6.6045604 -0.39837283 0.97358614
1.1691797 6.5770602 -0.39836106 0.97358692
1.4161913 6.5280566 -0.39834347 0.97358799
1.4980567 6.5096188 -0.39833763 0.97358853
1.5797266 6.4901953 -0.39833182 0.97358882
1.6611426 6.4697361 -0.39832604 0.97358924
1.8231348 6.4257712 -0.39831451 0.97358996
1.9037108 6.4022555 -0.39830878 0.97359037
1.9840137 6.3777537 -0.39830306 0.97359061
2.1435645 6.3257031 -0.39829177 0.97359139
2.2228613 6.2981639 -0.39828613 0.9735918
2.3018067 6.2696581 -0.39828053 0.9735921
2.4585643 6.2096481 -0.39826941 0.97359288
2.6137598 6.1457419 -0.39825839 0.97359359
2.8434179 6.0426168 -0.39824212 0.97359467
3.0690429 5.9309082 -0.39822611 0.97359568
3.1432617 5.891777 -0.3982209 0.97359616
3.4351561 5.7261229 -0.39820021 0.97359741
3.5068066 5.6824412 -0.39819515 0.97359771
3.6483788 5.5923634 -0.3981851 0.97359848
3.8334179 5.5651855 -0.40298456 0.97328454
5.1942091 6.6101756 -0.50132465 0.96687418
5.2767868 6.5442867 -0.50131881 0.96687466
5.4394822 6.4094629 -0.50130731 0.96687531
5.5195117 6.3405566 -0.50130171 0.96687567
5.598711 6.2706246 -0.5012961 0.96687597
5.677002 6.199697 -0.50129062 0.96687639
5.754375 6.1278024 -0.50128514 0.9668768
5.9810352 5.9063573 -0.50126922 0.96687794
6.0547557 5.8306932 -0.50126404 0.96687812
6.1274705 5.7540817 -0.50125891 0.96687853
6.2700195 5.5981736 -0.5012489 0.96687913
6.3397946 5.518877 -0.50124401 0.96687949
6.6088281 5.1931639 -0.50122517 0.96688074
6.6735058 5.1096678 -0.50122064 0.96688104
1.2569238 0.93755859 -0.093509749 0.99373627
1.2570899 0.91333008 -0.092660978 0.99379289
1.2572558 0.88953125 -0.091841884 0.99384761
1.2574023 0.8661328 -0.091051064 0.99390048
1.2575586 0.84313476 -0.090287663 0.99395144
1.2577245 0.82050776 -0.089550972 0.99400061
1.2579784 0.77633786 -0.088153459 0.99409401
1.2582421 0.73348629 -0.086851917 0.99418092
1.2913965 0.70995116 -0.087880097 0.99411219
1.3307421 0.70995116 -0.089943156 0.99397439
1.4607714 0.70995116 -0.096854247 0.99351299
1.5592675 0.70994139 -0.10216972 0.99315822
1.6692871 0.70995116 -0.10817424 0.9927575
1.7293066 0.70994139 -0.11147717 0.99253726
1.7931151 0.70995116 -0.11500629 0.99230188
1.8611327 0.70995116 -0.11878552 0.99204981
1.9337401 0.70995116 -0.12284202 0.99177957
2.0239844 0.6858691 -0.12743945 0.9914732
8.0548725 2.3951268 -0.50112492 0.96688724
8.1124411 2.1919336 -0.50112104 0.96688753
8.1649313 1.9873828 -0.50111753 0.96688765
8.1892385 1.8846093 -0.50111592 0.96688771
8.2339649 1.6782129 -0.50111294 0.96688789
8.2734957 1.4707519 -0.50111032 0.96688807
8.2913084 1.3666699 -0.50110912 0.96688813
8.3078022 1.262373 -0.50110811 0.96688825
8.3606634 0.84334958 -0.50110477 0.96688855
8.3864841 0.52762693 -0.50110328 0.96688861
8.3924513 0.42218748 -0.50110298 0.96688861
8.3970995 0.31670898 -0.50110275 0.96688861
8.4023829 0.10558593 -0.50110257 0.96688867
8.4004202 -0.21117187 -0.50110304 0.96688861
8.3971186 -0.31670898 -0.5011034 0.96688855
8.3792572 -0.63299805 -0.50110501 0.96688837
8.3706245 -0.73824215 -0.50110573 0.96688843
8.3078318 -1.2623925 -0.50111079 0.96688813
8.2735548 -1.4707812 -0.50111347 0.96688783
8.2544241 -1.5746191 -0.50111496 0.96688783
8.2340231 -1.6782227 -0.50111651 0.96688771
8.1892967 -1.8846289 -0.50111991 0.96688747
8.1394043 -2.0898535 -0.50112367 0.96688724
8.0843849 -2.2937598 -0.50112784 0.966887
8.0549507 -2.3951855 -0.50113004 0.96688688
8.0242672 -2.4962304 -0.50113237 0.96688664
1.9337499 -0.70994139 -0.12284122 0.99177951
1.7293164 -0.70995116 -0.11147674 0.9925372
1.4607617 -0.70994139 -0.096854128 0.99351299
1.4152539 -0.70996094 -0.094420277 0.99367547
1.2581152 -0.75476563 -0.087490916 0.99413824
1.2579784 -0.77634764 -0.088153265 0.99409401
1.2576953 -0.82051754 -0.089551277 0.99400067
1.2575586 -0.84313476 -0.090287857 0.99395144
1.2572362 -0.88954097 -0.091842115 0.99384761
1.2570899 -0.9133203 -0.092661396 0.99379295
5.3023729 -4.059824 -0.39823845 0.9735949
5.250957 -4.1261816 -0.39824218 0.97359473
5.1987596 -4.1918845 -0.39824599 0.97359443
5.1457324 -4.2569237 -0.39824983 0.97359413
5.0918846 -4.3212891 -0.39825377 0.97359389
4.9817677 -4.4479685 -0.39826176 0.97359341
4.9255567 -4.5102735 -0.39826584 0.97359306
4.7521973 -4.692832 -0.39827842 0.9735924
4.6328712 -4.8108888 -0.39828703 0.97359174
4.5720897 -4.8687792 -0.39829147 0.97359151
4.5105958 -4.9259081 -0.39829588 0.97359121
4.4484081 -4.9822655 -0.39830038 0.97359085
4.3218751 -5.0925975 -0.39830956 0.97359031
4.1926365 -5.1997166 -0.39831886 0.97358972
3.9938183 -5.3542185 -0.39833322 0.97358882
3.7893262 -5.5011716 -0.398348 0.97358775
3.7199512 -5.548408 -0.39835295 0.97358745
3.5794334 -5.6402926 -0.39836311 0.9735868
3.5083106 -5.6848826 -0.39836821 0.9735865
3.3644335 -5.7714062 -0.39837858 0.97358578
3.2916894 -5.8133106 -0.39838386 0.97358543
3.2184081 -5.8543067 -0.39838913 0.97358507
3.0703807 -5.9334764 -0.39839977 0.97358441
2.9955957 -5.9716697 -0.39840513 0.97358412
2.768496 -6.080586 -0.39842147 0.97358304
2.6919141 -6.1149902 -0.39842695 0.97358263
2.6148925 -6.1483984 -0.39843249 0.97358233
2.5374706 -6.1808887 -0.39843807 0.97358185
2.3028221 -6.2723923 -0.39845487 0.97358072
2.2238379 -6.3009176 -0.39846057 0.97358042
2.1445117 -6.3284373 -0.39846626 0.97358012
2.0648632 -6.355 -0.39847198 0.97357965
1.9045604 -6.4050584 -0.39848346 0.97357893
1.7430567 -6.4510741 -0.39849502 0.97357821
1.4987206 -6.5124903 -0.39851257 0.97357702
1.3346288 -6.5482812 -0.39852431 0.97357625
1.2522753 -6.5646386 -0.39853019 0.97357583
1.1696973 -6.5799508 -0.39853612 0.97357547
1.0869434 -6.5942087 -0.39854202 0.97357517
1.0039941 -6.607461 -0.39854798 0.9735747
0.92090815 -6.619658 -0.39855391 0.97357428
0.83764648 -6.6308103 -0.39855987 0.97357392
0.75429684 -6.6409278 -0.39856583 0.97357345
0.6707617 -6.649951 -0.39857176 0.97357321
0.58717769 -6.6579685 -0.39857775 0.97357273
0.50346678 -6.6649117 -0.39858374 0.97357237
0.41967773 -6.6708102 -0.39858973 0.97357202
0.33583006 -6.6756444 -0.39859572 0.97357166
-1.953125e-05 -6.6844921 -0.39861968 0.97357011
-0.16800781 -6.6825876 -0.39863169 0.97356927
-0.25195312 -6.6800485 -0.39863768 0.97356886
-0.41976562 -6.6718163 -0.39864966 0.97356808
-0.6709668 -6.6515527 -0.39866754 0.97356689
-1.2528515 -6.5675683 -0.39870897 0.97356421
-1.4175586 -6.5342188 -0.39872068 0.97356337
-1.4995605 -6.5159764 -0.39872658 0.97356302
-1.5813574 -6.4967089 -0.39873236 0.97356266
-1.6628808 -6.4764352 -0.39873818 0.97356224
-1.986289 -6.385078 -0.39876112 0.97356069
-1.3490527 -3.9809959 -0.2506611 0.98329771
-2.5397851 -6.1864939 -0.39880043 0.97355819
-2.694541 -6.1208787 -0.3988114 0.97355747
-2.7712696 -6.0866113 -0.39881685 0.97355717
-2.9988377 -5.978076 -0.39883301 0.9735561
-3.0737598 -5.9400096 -0.39883825 0.97355568
-3.1482031 -5.9009957 -0.39884353 0.97355533
-3.2221484 -5.8610349 -0.3988488 0.97355503
-3.2955761 -5.8201661 -0.39885399 0.97355467
-3.3685057 -5.7783689 -0.39885914 0.97355437
-3.4408984 -5.7356544 -0.39886427 0.97355402
-3.5127439 -5.6920309 -0.39886937 0.97355372
-3.5840526 -5.6475391 -0.3988744 0.97355324
-3.7249217 -5.5558004 -0.39888436 0.9735527
-3.794492 -5.5086327 -0.39888927 0.97355235
-3.9995506 -5.3618846 -0.39890376 0.97355145
-4.1331444 -5.2598143 -0.39891317 0.9735508
-4.1989646 -5.2075291 -0.39891782 0.9735505
-4.3285837 -5.1004782 -0.39892694 0.9735499
-4.3923826 -5.0457225 -0.39893144 0.97354966
-4.4555078 -4.9902148 -0.39893588 0.97354925
-4.6405759 -4.8188767 -0.39894894 0.97354847
-4.70082 -4.7602539 -0.39895317 0.97354811
-4.7603025 -4.7008495 -0.39895737 0.97354788
-4.8190527 -4.6407032 -0.39896148 0.97354764
-1.0273535 -0.91728514 -0.082130924 0.99449635
-1.027539 -0.89448237 -0.081239738 0.99455589
-1.0278808 -0.85033202 -0.079551235 0.99466872
-1.028623 -0.74733394 -0.075819969 0.99491817
-1.0287402 -0.72786129 -0.075149648 0.99496299
-1.0306835 -0.70995116 -0.074632414 0.9949975
-1.0589257 -0.70995116 -0.076025352 0.9949044
-1.1187011 -0.70996094 -0.079011649 0.99470478
-1.2178711 -0.70995116 -0.084063798 0.99436712
-1.2913965 -0.70995116 -0.087880135 0.99411219
-1.3307323 -0.70995116 -0.089943349 0.99397445
-1.3719921 -0.70995116 -0.092120357 0.99382895
-1.5087206 -0.70995116 -0.099433362 0.99334079
-1.7896386 -0.70856446 -0.11478203 0.99231678
-1.7895508 -0.68264645 -0.11421737 0.99235445
-1.7894726 -0.65697265 -0.11367553 0.99239051
-7.9425097 -2.8032227 -0.50227225 0.96681261
-8.010498 -2.6027832 -0.5022769 0.96681237
-8.0734568 -2.4006739 -0.50228119 0.96681207
-8.1030273 -2.2990429 -0.50228316 0.9668119
-8.2315235 -1.7857422 -0.5022918 0.96681142
-8.2738571 -1.57833 -0.5022946 0.96681118
-8.293066 -1.4742285 -0.50229585 0.96681106
-8.3109274 -1.369912 -0.50229704 0.96681112
-8.3693361 -0.95061523 -0.50230074 0.96681082
-8.4065819 -0.52888674 -0.50230294 0.96681058
-8.4125681 -0.42321289 -0.50230324 0.96681058
-8.4172268 -0.3174707 -0.50230348 0.96681058
-8.4225292 -0.10584961 -0.50230366 0.96681064
-8.0475092 -0 -0.50227678 0.9682619
-8.0449514 0.20222656 -0.50227636 0.96826196
-8.0417776 0.30330077 -0.502276 0.96826196
-8.0372944 0.40433592 -0.50227559 0.96826208
-8.0163374 0.70698243 -0.5022738 0.96826214
-7.9960155 0.90820312 -0.50227213 0.9682622
-7.9706445 1.1088476 -0.5022701 0.96826231
-7.9560547 1.2089159 -0.50226891 0.96826243
-7.9047656 1.5079101 -0.50226498 0.96826267
-7.8851757 1.6071289 -0.50226349 0.96826273
-7.864326 1.7060742 -0.50226188 0.96826291
-7.8422461 1.8047558 -0.50226021 0.96826297
-7.7685742 2.0990233 -0.50225461 0.96826327
-7.7415328 2.1964648 -0.50225258 0.96826351
-7.6838474 2.3903124 -0.50224823 0.96826369
-1.7905371 0.70890623 -0.12019309 0.99231166
-1.6127441 0.70994139 -0.10997814 0.99296278
-1.5592773 0.70995116 -0.10693394 0.99315703
-1.5087304 0.70994139 -0.10406993 0.9933396
-1.4608008 0.70994139 -0.10137112 0.9935118
-1.4152637 0.70995116 -0.09882351 0.99367434
-1.3307519 0.70994139 -0.094137415 0.99397337
-1.1834277 0.70994139 -0.086134262 0.99448436
-1.15042 0.70994139 -0.084373623 0.99459678
-1.0306835 0.70994139 -0.078112639 0.99499673
-1.0280762 0.72736329 -0.078601375 0.99496543
-1.0277929 0.76662105 -0.08002796 0.99487436
-1.0273242 0.82833982 -0.082365833 0.99472499
-1.0268066 0.89383787 -0.084966965 0.99455887
-1.0266211 0.91662109 -0.085898057 0.99449933
-4.7634764 4.4732032 -0.40784773 0.9741509
-4.4892969 4.5460353 -0.39876705 0.97471905
-4.4317675 4.6020508 -0.39876288 0.97471929
-4.389502 4.674336 -0.40021479 0.97462845
-4.3146191 4.7118649 -0.39875442 0.97471982
-4.194746 4.8186817 -0.39874575 0.97472048
-4.1338086 4.8709669 -0.39874133 0.97472072
-3.7549024 5.1681738 -0.39871398 0.97472239
-3.6896386 5.2148829 -0.39870924 0.97472262
-3.62375 5.2607517 -0.39870453 0.97472304
-3.5573242 5.3058395 -0.3986997 0.97472322
-3.3546972 5.4359374 -0.39868513 0.97472417
-3.2169433 5.5183887 -0.39867523 0.97472483
-3.1473045 5.5583105 -0.3986702 0.97472513
-3.077168 5.5973434 -0.39866516 0.97472548
-3.0065625 5.635498 -0.39866003 0.97472578
-2.9354687 5.6727734 -0.39865494 0.97472602
-2.8639257 5.7091208 -0.39864981 0.97472644
-2.7194629 5.7791505 -0.39863944 0.97472703
-2.6465917 5.8127928 -0.39863417 0.97472739
-2.2762303 5.9671092 -0.39860758 0.974729
-2.1254981 6.0222654 -0.39859679 0.97472966
-1.8201367 6.1211228 -0.39857489 0.97473103
-1.7430567 6.1433887 -0.39856938 0.9747315
-1.5880566 6.1850877 -0.39855826 0.97473216
-1.4320996 6.2228904 -0.39854705 0.97473282
-1.3537695 6.2403126 -0.39854145 0.97473311
-1.1175488 6.2866111 -0.39852455 0.97473431
-1.0384766 6.3000684 -0.39851889 0.9747346
-0.95919919 6.3125391 -0.39851323 0.97473496
-0.80023438 6.3344626 -0.39850184 0.97473568
-0.72056639 6.3439355 -0.39849615 0.97473603
-0.48093748 6.3663182 -0.39847904 0.97473705
-0.40088865 6.3717675 -0.39847332 0.97473741
-2.9296874e-05 6.3838964 -0.39844471 0.97473925
0.16042969 6.3817086 -0.39843327 0.97473991
0.2405957 6.3790917 -0.39842749 0.97474033
0.32072264 6.3754783 -0.39842182 0.97474062
0.72037107 6.3422852 -0.3983933 0.97474247
0.79998046 6.3326659 -0.39838767 0.97474277
1.1170899 6.284111 -0.39836505 0.9747442
1.4313574 6.2196875 -0.3983427 0.97474563
1.7419531 6.1395702 -0.39832062 0.974747
1.8189257 6.1171093 -0.39831516 0.97474742
1.9720312 6.0693164 -0.39830428 0.97474802
2.0481153 6.0439649 -0.39829886 0.97474837
2.123867 6.0176659 -0.3982935 0.97474873
2.1992774 5.9904394 -0.3982881 0.97474903
2.349082 5.9331055 -0.39827749 0.97474974
2.4234178 5.9030566 -0.39827225 0.97474998
2.4973731 5.8720407 -0.39826697 0.9747504
2.5709178 5.840117 -0.39826179 0.97475076
2.8609569 5.7032809 -0.39824122 0.97475201
2.9323633 5.6668162 -0.39823616 0.97475231
3.1437597 5.5520606 -0.39822119 0.9747532
3.2821875 5.4711523 -0.39821139 0.97475392
3.6144726 5.3910642 -0.40510577 0.9743225
3.8141406 5.5371776 -0.41965213 0.97341275
4.0284181 5.6937499 -0.43532076 0.97243387
4.2642674 5.8692284 -0.4527992 0.97134304
4.5394044 6.0856442 -0.47385892 0.97003043
4.8407421 6.3223047 -0.49698436 0.96859115
4.9629493 6.3158689 -0.50134146 0.96832013
5.0418653 6.2529392 -0.50133592 0.96832049
5.1199999 6.1890235 -0.50133038 0.96832079
5.1972947 6.1241307 -0.50132489 0.96832114
5.2737889 6.0582614 -0.50131953 0.9683215
5.349463 5.9914451 -0.50131416 0.9683218
5.4242578 5.9237108 -0.50130892 0.9683221
5.5712891 5.7853904 -0.50129861 0.96832281
5.643496 5.7148633 -0.50129354 0.96832311
5.8547068 5.4979491 -0.5012787 0.96832401
6.0576072 5.2732224 -0.50126445 0.96832484
6.1233397 5.1966405 -0.5012598 0.96832514
6.188076 5.1192284 -0.50125527 0.9683255
6.3146777 4.9620118 -0.50124639 0.96832603
1.2560644 0.93691403 -0.09780369 0.99373949
1.2562305 0.91272461 -0.096916728 0.99379605
1.2564062 0.88893551 -0.096060485 0.99385071
1.2565722 0.8655566 -0.095233992 0.99390346
1.2567285 0.84257811 -0.094435915 0.99395442
1.2568945 0.81997067 -0.093665652 0.99400353
1.2573144 0.75427735 -0.091512449 0.99414098
1.2575684 0.71208984 -0.090200081 0.99422479
1.3719531 0.70994139 -0.096415706 0.99382806
1.4152637 0.70993161 -0.098823391 0.9936744
1.4607714 0.70995116 -0.10137062 0.99351186
1.5592675 0.70995116 -0.10693374 0.99315703
1.612705 0.70994139 -0.10997764 0.99296296
1.6692871 0.70995116 -0.1132188 0.99275631
1.7293066 0.70994139 -0.11667529 0.99253601
1.9337401 0.70994139 -0.12856995 0.99177819
2.023916 0.71432614 -0.13395779 0.99143511
2.0239062 0.68584961 -0.13337718 0.99147213
2.0239258 0.65761715 -0.13282233 0.99150735
7.7770996 1.9968262 -0.50114518 0.96833235
7.8015528 1.8989258 -0.50114357 0.96833247
7.8870311 1.504541 -0.50113785 0.96833277
7.905293 1.405293 -0.50113672 0.96833283
7.9380956 1.2061914 -0.50113457 0.96833289
7.9525976 1.1063477 -0.50113362 0.96833301
7.9658689 1.0063183 -0.50113279 0.96833301
7.9778609 0.90613282 -0.50113201 0.96833313
7.998086 0.70537108 -0.50113076 0.96833324
8.006299 0.60479492 -0.50113034 0.9683333
8.0189743 0.4034082 -0.50112963 0.9683333
8.0234175 0.30261719 -0.50112939 0.96833324
8.0284958 0.10089844 -0.50112927 0.96833324
8.0234375 -0.30261719 -0.50113004 0.96833318
8.0189838 -0.40341794 -0.50113046 0.96833324
8.0132713 -0.50416017 -0.501131 0.9683333
8.0063276 -0.60481441 -0.50113159 0.96833318
7.9981346 -0.70539063 -0.50113231 0.96833301
7.9886618 -0.80583006 -0.50113308 0.96833295
7.9779 -0.90616208 -0.50113392 0.96833295
7.9526267 -1.1063477 -0.50113595 0.96833289
7.8870797 -1.504541 -0.50114107 0.96833253
7.8468261 -1.7022948 -0.50114417 0.96833235
7.8248534 -1.8007617 -0.50114584 0.96833223
7.7515039 -2.0944335 -0.50115138 0.96833187
2.0239062 -0.68584961 -0.13337708 0.99147213
2.023916 -0.71431637 -0.13395779 0.99143511
1.9337499 -0.70994139 -0.12856968 0.99177814
1.8611034 -0.70995116 -0.12432399 0.99204862
1.7931151 -0.70996094 -0.12036865 0.99230057
1.612705 -0.70994139 -0.10997733 0.99296296
1.5592675 -0.70996094 -0.10693344 0.99315703
1.5087109 -0.70994139 -0.10406955 0.99333972
1.4607617 -0.70994139 -0.10137042 0.99351192
1.3719629 -0.70994139 -0.096415594 0.99382806
1.3307129 -0.70994139 -0.094136924 0.99397349
1.2913867 -0.70995116 -0.091977879 0.99411124
1.2573144 -0.75428706 -0.091512524 0.99414098
1.2567285 -0.84258789 -0.094435878 0.99395436
1.2565722 -0.86556637 -0.095233917 0.99390346
1.2564062 -0.88894528 -0.096060634 0.99385065
1.2560546 -0.93693358 -0.097803839 0.99373943
5.0918064 -3.898623 -0.40025711 0.97462583
5.0172262 -3.9424999 -0.39825866 0.97475094
4.9673533 -4.0052829 -0.39826232 0.97475064
4.9166698 -4.0674219 -0.39826602 0.97475046
4.8652244 -4.1289158 -0.39826971 0.97475022
4.7062693 -4.3094821 -0.39828128 0.97474951
4.6517868 -4.36832 -0.39828521 0.97474927
4.5406446 -4.4839454 -0.39829329 0.97474873
4.4839845 -4.5406833 -0.39829737 0.97474849
4.1902442 -4.8135352 -0.39831862 0.97474718
3.9432616 -5.0182323 -0.39833647 0.97474605
3.8160155 -5.1158495 -0.39834568 0.97474545
3.6863377 -5.2102637 -0.39835501 0.9747448
3.5543163 -5.3013768 -0.39836454 0.97474426
3.4874511 -5.3456931 -0.39836937 0.97474396
3.3520994 -5.4317579 -0.39837912 0.97474343
3.2146094 -5.5144334 -0.39838901 0.97474277
3.0046093 -5.6318846 -0.39840415 0.97474182
2.5720313 -5.8426561 -0.39843524 0.97473991
2.4244823 -5.9056249 -0.39844581 0.97473913
2.3500879 -5.9357028 -0.39845115 0.97473884
2.275332 -5.9648438 -0.39845651 0.97473854
2.2002637 -5.9930367 -0.39846191 0.97473818
2.124795 -6.0203028 -0.39846733 0.97473782
1.9728808 -6.0719724 -0.39847824 0.97473711
1.8964453 -6.0963473 -0.39848372 0.97473687
1.8197265 -6.1197948 -0.39848921 0.97473645
1.5878417 -6.1842771 -0.39850584 0.97473544
1.5100293 -6.2038379 -0.39851141 0.97473508
1.4319726 -6.2224121 -0.39851698 0.97473472
1.3536913 -6.2400098 -0.39852259 0.97473437
1.1175976 -6.2868457 -0.39853948 0.97473335
0.95927733 -6.3131247 -0.39855084 0.97473264
0.87988281 -6.3247852 -0.3985565 0.97473222
0.7206738 -6.3450685 -0.39856789 0.97473156
0.64089841 -6.3537107 -0.39857361 0.97473121
0.48101562 -6.3679981 -0.39858505 0.97473049
0.40098631 -6.3736229 -0.39859077 0.97473013
0.32086915 -6.3782616 -0.39859644 0.97472978
0.16048828 -6.3844919 -0.39860794 0.97472906
-0.080253907 -6.3862791 -0.39862511 0.97472799
-0.16050781 -6.3848634 -0.39863083 0.97472757
-0.40106446 -6.3745508 -0.39864799 0.9747265
-0.48113281 -6.3691111 -0.39865372 0.97472614
-0.56114256 -6.362627 -0.39865944 0.97472584
-0.80058593 -6.3372364 -0.39867648 0.97472477
-0.88018554 -6.3267479 -0.39868212 0.97472447
-0.9596191 -6.3153124 -0.39868781 0.97472399
-1.1970117 -6.2748923 -0.39870471 0.97472304
-1.4327148 -6.2255955 -0.39872146 0.97472197
-1.5108789 -6.2071676 -0.39872703 0.97472167
-1.5887696 -6.1878028 -0.39873257 0.97472119
-1.6664257 -6.1674314 -0.39873809 0.9747209
-2.277246 -5.969697 -0.39878145 0.97471815
-2.3520899 -5.9406834 -0.39878675 0.97471786
-2.4265819 -5.9107423 -0.39879206 0.97471756
-2.5744433 -5.8480368 -0.39880255 0.9747169
-2.7206542 -5.7816601 -0.39881292 0.97471619
-2.7931249 -5.7470899 -0.39881805 0.97471589
-3.0785058 -5.5997753 -0.39883825 0.97471464
-3.2874999 -5.4799609 -0.39885306 0.97471374
-3.3561327 -5.4382811 -0.39885792 0.97471344
-3.4918358 -5.3523631 -0.39886752 0.97471279
-3.6253123 -5.2630272 -0.39887694 0.97471225
-3.8212597 -5.1228418 -0.39889076 0.9747113
-3.8853612 -5.0744724 -0.39889529 0.97471106
-3.9488671 -5.0252929 -0.39889976 0.97471082
-4.1356053 -4.8730664 -0.39891297 0.97470993
-4.1965623 -4.8207617 -0.39891723 0.97470969
-4.2568359 -4.767705 -0.39892149 0.97470945
-4.3164649 -4.7138867 -0.39892569 0.97470915
-4.3754001 -4.6593165 -0.3989298 0.97470891
-4.433672 -4.6040134 -0.39893395 0.97470862
-4.4912205 -4.547998 -0.39893797 0.97470832
-4.6041894 -4.4337888 -0.39894593 0.97470778
-4.6595798 -4.3756151 -0.3989498 0.9747076
-1.0266113 -0.91661131 -0.085897826 0.99449939
-1.0269922 -0.87155271 -0.084068604 0.99461621
-1.0271484 -0.84972656 -0.083201937 0.99467158
-1.0276269 -0.78682613 -0.080779649 0.99482632
-1.0280566 -0.727373 -0.078601301 0.99496549
-1.0882519 -0.70994139 -0.08109653 0.99480605
-1.1187011 -0.70996094 -0.082695805 0.99470389
-1.15042 -0.70996094 -0.08437328 0.99459672
-1.1834277 -0.70995116 -0.086134069 0.99448431
-1.2178711 -0.70995116 -0.08798378 0.99436617
-1.2913965 -0.70995116 -0.091977879 0.99411124
-1.3307323 -0.70995116 -0.094137378 0.99397343
-1.3719921 -0.70995116 -0.096415788 0.99382794
-1.415293 -0.70995116 -0.098823696 0.99367428
-1.460791 -0.70995116 -0.10137047 0.9935118
-1.5087402 -0.70995116 -0.10406975 0.9933396
-1.6127343 -0.70995116 -0.10997791 0.99296284
-1.6692969 -0.70996094 -0.11321842 0.99275625
-1.7905176 -0.70891601 -0.12019283 0.99231172
-1.7904296 -0.68296874 -0.11960094 0.99234945
-7.6839156 -2.3903418 -0.50225335 0.96826339
-7.7415915 -2.1964941 -0.50225729 0.96826327
-7.7686324 -2.0990527 -0.50225908 0.96826303
-7.7944236 -2.0012598 -0.50226086 0.96826291
-7.8423142 -1.8047851 -0.50226402 0.96826267
-7.8852243 -1.6071289 -0.50226688 0.96826255
-7.9706736 -1.1088574 -0.50227249 0.9682622
-8.0068359 -0.80764645 -0.50227475 0.96826208
-8.016367 -0.70698243 -0.50227529 0.96826202
-8.0246286 -0.6061914 -0.50227576 0.96826196
-8.031601 -0.5053125 -0.50227618 0.96826202
-8.0373144 -0.40434569 -0.50227648 0.96826202
-8.0417871 -0.30330077 -0.50227666 0.9682619
-7.7031541 0.096806638 -0.50225204 0.96959144
-7.7013474 0.19359374 -0.50225186 0.96959138
-7.6982908 0.29036132 -0.50225157 0.96959144
-7.6885448 0.48371091 -0.50225061 0.9695915
-7.6648045 0.77314454 -0.50224864 0.96959174
-7.6429391 0.96551758 -0.50224686 0.9695918
-7.61624 1.1572851 -0.50224477 0.96959186
-7.6010838 1.2528906 -0.50224358 0.96959192
-7.5847168 1.3483105 -0.50224233 0.96959198
-7.5483885 1.5384766 -0.50223953 0.96959221
-7.5284371 1.633203 -0.50223798 0.96959227
-7.5073047 1.7276758 -0.50223637 0.96959233
-7.4849801 1.8218554 -0.5022347 0.96959245
-7.4367676 2.0093749 -0.50223106 0.96959269
-7.4108887 2.1026561 -0.50222909 0.96959287
-7.2957711 2.4723046 -0.50222051 0.96959335
-7.2641015 2.5637889 -0.50221813 0.96959341
-1.7912011 0.65760744 -0.12439888 0.99238056
-1.7913672 0.70925778 -0.12561084 0.99230671
-1.6692969 0.70995116 -0.11826488 0.992755
-1.6127441 0.70994139 -0.11487949 0.99296159
-1.5592773 0.70995116 -0.11169979 0.99315578
-1.4608008 0.70994139 -0.10588886 0.99351066
-1.4152637 0.70995116 -0.10322796 0.99367326
-1.3307519 0.70994139 -0.098332897 0.9939723
-1.2913965 0.70994139 -0.096077345 0.99411017
-1.253828 0.70994139 -0.09393768 0.99424094
-1.1834277 0.70994139 -0.089972913 0.99448341
-1.15042 0.70994139 -0.088133849 0.99459583
-1.0882226 0.70995116 -0.084711 0.99480516
-1.0306835 0.70994139 -0.081593782 0.99499583
-1.0273731 0.72688472 -0.082049593 0.99496794
-1.0272363 0.74632812 -0.082780644 0.99492323
-1.0270801 0.76611328 -0.083537824 0.99487692
-1.0269531 0.78626949 -0.084322087 0.99482888
-1.0267578 0.80682617 -0.085134655 0.99477923
-1.0265918 0.8277539 -0.085976481 0.99472779
-1.0264257 0.84913087 -0.086848527 0.99467438
-1.02625 0.87093747 -0.087752566 0.99461907
-1.0256641 0.93918943 -0.090667799 0.99444085
-4.6362696 4.4647069 -0.41963363 0.97452933
-4.5225096 4.4660349 -0.4143838 0.97484392
-4.4121485 4.4679198 -0.40938216 0.97514367
-4.1303906 4.5106835 -0.39874148 0.97578186
-4.0156641 4.6129394 -0.3987332 0.97578233
-3.9630566 4.6697364 -0.39930537 0.975748
-3.8983788 4.7123241 -0.3987247 0.97578281
-3.6565137 4.9020214 -0.39870724 0.97578388
-3.594619 4.9475293 -0.39870277 0.97578412
-3.5320995 4.9922462 -0.39869827 0.97578442
-3.4054394 5.0793161 -0.39868912 0.97578502
-3.3413281 5.1216502 -0.39868453 0.97578526
-3.2115037 5.203877 -0.39867514 0.97578579
-3.1458201 5.2437596 -0.39867041 0.97578603
-3.0129395 5.3210449 -0.39866087 0.97578669
-2.8782032 5.3949413 -0.39865115 0.97578728
-2.8101659 5.4306054 -0.39864627 0.97578758
-2.6727343 5.4993849 -0.3986364 0.97578812
-2.5336132 5.5646677 -0.39862639 0.97578877
-2.4634569 5.5960059 -0.39862135 0.97578901
-2.39291 5.6264453 -0.39861628 0.97578937
-2.3220019 5.6559958 -0.39861122 0.97578967
-2.1790721 5.7124023 -0.39860091 0.97579032
-1.7424608 5.8598633 -0.39856964 0.97579217
-1.3709863 5.957324 -0.398543 0.97579372
-1.2960058 5.9739842 -0.39853764 0.97579408
-1.14542 6.0045114 -0.39852682 0.97579473
-0.91826171 6.0431738 -0.39851058 0.97579569
-0.84223628 6.0541306 -0.39850515 0.9757961
-0.76610351 6.0641794 -0.3984997 0.97579628
-0.68982422 6.0732322 -0.39849424 0.9757967
-0.61344725 6.0813279 -0.39848879 0.97579706
-0.46041015 6.0946679 -0.39847785 0.97579765
-0.15359375 6.1097751 -0.39845595 0.97579896
-0.076806642 6.1111231 -0.39845046 0.97579932
0.15357421 6.1094141 -0.39843401 0.97580034
0.23034179 6.1069336 -0.39842856 0.97580063
0.30704102 6.1034665 -0.39842308 0.97580099
0.3837207 6.0990524 -0.39841762 0.97580123
0.46031249 6.0936718 -0.39841217 0.97580159
0.53684568 6.0873141 -0.39840671 0.97580194
0.9937793 6.0291014 -0.39837414 0.97580385
1.0694531 6.0160351 -0.39836875 0.97580421
1.2202538 5.9871092 -0.39835799 0.97580487
1.2953906 5.9712305 -0.39835268 0.9758051
1.4449902 5.9366307 -0.39834201 0.97580576
1.6676464 5.8776951 -0.39832619 0.97580683
1.7413671 5.8562303 -0.39832094 0.97580701
2.3908594 5.6216502 -0.39827484 0.97580975
2.5313087 5.559629 -0.39826488 0.97581047
2.6009374 5.5273142 -0.39825997 0.97581071
2.9427049 5.3527732 -0.39823577 0.97581214
3.0945702 5.308486 -0.40060401 0.97567016
3.5969822 5.3649902 -0.4211126 0.97444063
4.012207 5.6708398 -0.45289406 0.97253847
4.6750388 6.1058788 -0.5013622 0.96964455
4.7513571 6.0465918 -0.50135684 0.96964478
4.9017091 5.9251561 -0.50134623 0.96964544
5.3337693 5.5387301 -0.50131577 0.96964735
5.4028807 5.4712205 -0.50131094 0.96964765
5.5385838 5.3336229 -0.50130141 0.96964812
5.6707711 5.192656 -0.50129217 0.96964866
5.799365 5.0484276 -0.50128311 0.9696492
5.8622947 4.9750977 -0.5012787 0.96964949
5.9242773 4.9010057 -0.50127435 0.96964979
1.2554004 0.91208982 -0.10116772 0.99379909
1.2557422 0.86500001 -0.099412307 0.99390638
1.2559179 0.84203124 -0.098579787 0.99395722
1.2562207 0.79722655 -0.097000994 0.99405378
1.2563574 0.77535152 -0.096252322 0.99409956
1.2565234 0.75379878 -0.095530279 0.99414361
1.2566503 0.73256832 -0.094833449 0.99418628
1.2913965 0.70995116 -0.096077114 0.99411017
1.3719531 0.70994139 -0.10071258 0.99382699
1.4607714 0.70995116 -0.10588859 0.99351072
1.5592675 0.70995116 -0.11169945 0.99315584
1.612705 0.70994139 -0.1148793 0.9929617
1.6692871 0.70995116 -0.11826427 0.992755
1.7293066 0.70994139 -0.12187496 0.9925347
1.7931151 0.70995116 -0.12573367 0.99229926
1.9337401 0.70995116 -0.13430031 0.9917767
2.023828 0.71429688 -0.13992283 0.99143392
2.0238574 0.65758789 -0.13873719 0.99150616
7.3403025 2.2834473 -0.50117606 0.96965557
7.3683786 2.1909959 -0.50117415 0.96965575
7.3953123 2.0982323 -0.5011723 0.96965581
7.4210544 2.005127 -0.50117058 0.96965593
7.4912791 1.7239844 -0.50116587 0.96965623
7.5123434 1.629707 -0.50116444 0.96965629
7.5322266 1.5351855 -0.50116318 0.96965629
7.5508785 1.4404199 -0.50116193 0.96965647
7.5997753 1.1547852 -0.50115871 0.96965659
7.6136422 1.0591797 -0.50115788 0.96965677
7.6263571 0.96342772 -0.50115705 0.96965671
7.6572165 0.67531246 -0.50115514 0.96965683
7.6651073 0.57904297 -0.50115472 0.96965683
7.6717577 0.48266602 -0.5011543 0.96965688
7.6772165 0.38621092 -0.50115407 0.96965688
7.6845016 0.19316407 -0.50115371 0.96965688
7.6863084 -0.096611328 -0.50115389 0.96965694
7.6814938 -0.28972656 -0.50115448 0.96965677
7.6772165 -0.38623047 -0.50115484 0.96965688
7.6717868 -0.48266602 -0.50115532 0.96965677
7.6572361 -0.67531246 -0.50115663 0.96965677
7.6378808 -0.86753905 -0.50115818 0.96965665
7.6263962 -0.96344727 -0.50115913 0.96965659
7.6137109 -1.0591894 -0.50116009 0.96965647
7.5998044 -1.1547949 -0.50116122 0.96965647
7.5847068 -1.250205 -0.50116235 0.96965641
7.5509276 -1.4404199 -0.50116497 0.96965629
7.5322461 -1.5351952 -0.50116646 0.96965623
7.5124021 -1.6297461 -0.50116795 0.96965605
7.4913473 -1.7240039 -0.50116956 0.96965599
7.445703 -1.9117481 -0.50117302 0.96965575
7.4211326 -2.0051563 -0.50117487 0.96965563
7.3403516 -2.2834668 -0.50118095 0.96965533
2.0238476 -0.65759766 -0.13873714 0.99150622
2.0238476 -0.68583983 -0.13931632 0.99147081
1.9337499 -0.70994139 -0.13429958 0.9917767
1.8611034 -0.70995116 -0.12986515 0.99204719
1.7293164 -0.70995116 -0.12187477 0.99253464
1.6692871 -0.70994139 -0.118264 0.99275506
1.5592675 -0.70996094 -0.11169937 0.99315584
1.4607617 -0.70994139 -0.1058881 0.99351078
1.4152539 -0.70996094 -0.1032275 0.99367326
1.3719629 -0.70994139 -0.10071247 0.99382693
1.2567871 -0.7116406 -0.094161071 0.99422735
1.2566601 -0.73256832 -0.094833337 0.99418622
1.256377 -0.7753613 -0.096252553 0.99409944
1.2560644 -0.81944335 -0.097776718 0.9940064
1.2558887 -0.84205079 -0.098580055 0.99395728
1.2552246 -0.93628901 -0.10209312 0.99374253
4.8503613 -3.7137597 -0.39827034 0.97581011
4.803359 -3.7744529 -0.39827377 0.97580987
4.7070603 -3.894043 -0.39828077 0.97580945
4.6578126 -3.9529004 -0.39828438 0.97580928
4.6077833 -4.0111618 -0.39828798 0.97580916
4.5570993 -4.0687695 -0.39829165 0.9758088
4.4006152 -4.2377734 -0.39830297 0.97580814
4.3470607 -4.2927732 -0.39830688 0.97580791
4.2379003 -4.4007521 -0.3983148 0.97580743
4.1260448 -4.5059376 -0.39832291 0.97580701
3.8945897 -4.7077732 -0.3983396 0.975806
3.835166 -4.7563868 -0.39834392 0.97580576
3.7751367 -4.8042674 -0.39834827 0.97580546
3.7145214 -4.851367 -0.39835262 0.97580516
3.5915039 -4.9432907 -0.3983615 0.97580469
3.4662206 -5.0321093 -0.39837053 0.97580409
3.3387597 -5.1177344 -0.39837974 0.97580355
3.0775292 -5.2792673 -0.39839855 0.97580248
3.0109863 -5.3176074 -0.39840335 0.97580212
2.9439745 -5.3550782 -0.39840814 0.97580183
2.8764844 -5.3917189 -0.398413 0.97580153
2.8085253 -5.4274802 -0.39841789 0.97580135
2.3210742 -5.6537399 -0.39845294 0.9757992
2.106416 -5.7374315 -0.39846835 0.97579825
2.0341797 -5.7635155 -0.39847353 0.97579795
1.8155761 -5.836318 -0.39848921 0.975797
1.7421093 -5.8587594 -0.39849448 0.9757967
1.5201172 -5.9205079 -0.3985104 0.97579569
1.4456152 -5.939209 -0.39851573 0.97579539
1.2959374 -5.9738278 -0.39852646 0.97579473
0.99419922 -6.0317187 -0.39854804 0.97579348
0.91833985 -6.043818 -0.39855346 0.97579312
0.76619136 -6.065156 -0.39856437 0.97579247
0.68992186 -6.0743747 -0.39856979 0.97579217
0.61355466 -6.0826659 -0.39857528 0.97579181
0.53707027 -6.0899606 -0.39858073 0.97579151
0.46051756 -6.0963182 -0.39858618 0.97579116
0.38386717 -6.1016989 -0.39859167 0.97579092
0.3071875 -6.1061621 -0.39859718 0.97579044
0.23043945 -6.1095996 -0.39860263 0.9757902
0.15362304 -6.1120996 -0.39860812 0.97578984
-2.9296874e-05 -6.1141992 -0.39861912 0.97578919
-0.076845698 -6.1137891 -0.39862457 0.97578889
-0.1536621 -6.1124215 -0.39863005 0.97578859
-0.23045897 -6.1100879 -0.39863554 0.9757883
-0.38394532 -6.1025486 -0.39864647 0.97578758
-0.46061522 -6.0973339 -0.39865196 0.97578722
-0.61370116 -6.0839939 -0.39866287 0.97578657
-0.69013673 -6.0758886 -0.39866829 0.97578621
-0.76642579 -6.0668163 -0.39867374 0.97578591
-0.99458003 -6.0338669 -0.39868999 0.9757849
-1.0703418 -6.0209665 -0.39869538 0.9757846
-1.2213281 -5.9923239 -0.39870611 0.975784
-1.3715918 -5.9598923 -0.39871681 0.97578335
-1.520957 -5.9237204 -0.39872745 0.97578269
-1.7432226 -5.862412 -0.39874324 0.97578174
-1.8167676 -5.840117 -0.39874846 0.97578144
-1.3490527 -3.9809959 -0.27404109 0.98329198
-2.0356739 -5.767705 -0.39876404 0.97578055
-2.2516992 -5.6871095 -0.39877933 0.97577959
-2.464541 -5.5984278 -0.39879444 0.97577864
-2.5347266 -5.56708 -0.39879942 0.9757784
-2.6045117 -5.5348535 -0.3988044 0.9757781
-2.6738868 -5.5017676 -0.39880928 0.97577775
-2.7428417 -5.467793 -0.39881414 0.97577751
-2.8794725 -5.3972754 -0.39882386 0.97577685
-2.9471092 -5.3607321 -0.39882863 0.97577655
-3.0142577 -5.3233299 -0.39883339 0.97577631
-3.0809472 -5.2850876 -0.3988381 0.97577608
-3.1471581 -5.2460055 -0.39884275 0.97577584
-3.2128711 -5.2061229 -0.39884743 0.97577548
-3.2780664 -5.1653905 -0.39885202 0.97577524
-3.4069335 -5.0814939 -0.39886114 0.97577471
-3.4705565 -5.0383396 -0.39886564 0.97577441
-3.6580858 -4.9041309 -0.3988789 0.97577363
-3.7194629 -4.8578124 -0.39888319 0.97577339
-3.7802734 -4.8107519 -0.39888752 0.9757731
-3.9000585 -4.7143455 -0.39889595 0.9757725
-3.9590232 -4.6650095 -0.39890009 0.97577232
-4.0173731 -4.6149216 -0.39890423 0.97577214
-4.1321583 -4.5125976 -0.39891231 0.97577167
-4.1886134 -4.460371 -0.39891627 0.97577131
-4.2994237 -4.3537889 -0.39892405 0.97577095
-4.3538575 -4.2994628 -0.3989279 0.97577065
-4.4075584 -4.244453 -0.39893168 0.97577047
-1.0256641 -0.93917966 -0.090667605 0.99444091
-1.02625 -0.87093747 -0.08775261 0.99461907
-1.0264257 -0.84913087 -0.086848602 0.99467438
-1.0266016 -0.82777339 -0.085976481 0.99472773
-1.0267578 -0.80682617 -0.085134387 0.99477923
-1.0269238 -0.78627926 -0.084321856 0.99482894
-1.0272559 -0.74633789 -0.082780607 0.99492311
-1.0306835 -0.70995116 -0.081593476 0.99499577
-1.1187011 -0.70996094 -0.086381488 0.99470294
-1.1834277 -0.70995116 -0.08997272 0.99448335
-1.3307323 -0.70995116 -0.098332554 0.99397236
-1.3719921 -0.70995116 -0.10071281 0.99382681
-1.415293 -0.70995116 -0.10322753 0.99367315
-1.5592968 -0.70995116 -0.11169975 0.99315572
-1.6127343 -0.70995116 -0.11487934 0.99296159
-1.791289 -0.68331051 -0.12499183 0.99234438
-7.355742 -2.2882421 -0.50222981 0.96959269
-7.3839254 -2.1956251 -0.50223172 0.96959269
-7.4109859 -2.1026855 -0.50223356 0.96959245
-7.4850192 -1.8218945 -0.50223857 0.96959227
-7.5073533 -1.7276952 -0.50224006 0.96959215
-7.5847459 -1.3483202 -0.50224519 0.96959186
-7.61624 -1.1572851 -0.50224721 0.96959186
-7.6302242 -1.0614941 -0.50224811 0.96959168
-7.654531 -0.86941403 -0.50224966 0.9695915
-7.6885643 -0.48373047 -0.50225163 0.96959144
-7.6940427 -0.38708007 -0.50225198 0.96959144
-7.6983008 -0.29035157 -0.50225216 0.96959144
-7.7031736 -0.096806638 -0.50225228 0.96959138
-7.3874903 0.092832029 -0.50222957 0.97081387
-7.3828416 0.27845702 -0.50222903 0.97081381
-7.3734665 0.46390623 -0.50222814 0.97081399
-7.3670406 0.55652344 -0.5022276 0.97081405
-7.3408298 0.83378905 -0.50222546 0.97081405
-7.3175292 1.0179882 -0.50222355 0.97081417
-7.2895899 1.2015527 -0.50222141 0.97081435
-7.2739062 1.2930566 -0.50222015 0.97081441
-7.2570701 1.3843457 -0.5022189 0.97081447
-7.2390819 1.4754297 -0.50221753 0.97081453
-7.2199411 1.5662891 -0.50221604 0.97081465
-7.1996679 1.656875 -0.50221449 0.9708147
-7.1782422 1.7472167 -0.50221288 0.97081488
-7.1557126 1.8372754 -0.50221115 0.97081488
-6.9968162 2.3710058 -0.50219923 0.9708156
-1.7920605 0.65791017 -0.12977089 0.99237555
-1.6127441 0.70994139 -0.1197826 0.99296027
-1.5087304 0.70994139 -0.11334812 0.99333721
-1.4608008 0.70994139 -0.11040821 0.99350947
-1.4152637 0.70995116 -0.10763393 0.99367207
-1.3307519 0.70994139 -0.10252967 0.99397117
-1.2913965 0.70994139 -0.10017807 0.99410909
-1.2178515 0.70995116 -0.095828019 0.9943642
-1.1834277 0.70994139 -0.093813248 0.99448234
-1.15042 0.70994139 -0.091895446 0.99459481
-1.0882226 0.70995116 -0.088326566 0.9948042
-1.058916 0.70994139 -0.086664163 0.99490178
-1.0266992 0.72639644 -0.085494615 0.99497038
-1.0265331 0.74582028 -0.086255759 0.99492574
-1.0263965 0.7655859 -0.087043911 0.99487942
-1.0262402 0.78575194 -0.087860681 0.99483144
-1.0260546 0.80624998 -0.088706851 0.99478191
-1.0257128 0.84852535 -0.0904916 0.99467713
-1.0255176 0.87029296 -0.091432795 0.99462199
-1.0251367 0.91525388 -0.093419418 0.99450541
-4.7559958 4.4661622 -0.44350901 0.97418183
-4.5197458 4.4632907 -0.43180522 0.97485453
-4.4062009 4.461904 -0.42628083 0.97517222
-4.2955275 4.4605565 -0.42096087 0.97547817
-4.0864258 4.4626856 -0.41133708 0.97603208
-3.8876953 4.4659863 -0.40250409 0.97654057
-3.7387011 4.5193067 -0.39871353 0.9767589
-3.6815722 4.5658789 -0.39870942 0.97675914
-3.6238573 4.6117282 -0.39870521 0.97675943
-3.5717773 4.6649122 -0.39939076 0.97671986
-3.506748 4.7012401 -0.39869675 0.97675991
-3.4473534 4.7448826 -0.39869246 0.97676021
-3.3874414 4.7877731 -0.39868817 0.97676039
-3.0799315 4.9907517 -0.39866599 0.9767617
-2.8895605 5.1031151 -0.39865226 0.97676247
-2.825166 5.1389551 -0.3986477 0.97676277
-2.429873 5.3367872 -0.39861923 0.97676438
-2.2269237 5.4243751 -0.39860466 0.97676522
-2.0208106 5.5042481 -0.39858985 0.97676611
-1.9514745 5.5291405 -0.3985849 0.97676635
-1.8818262 5.553154 -0.3985799 0.97676665
-1.8118457 5.5762792 -0.39857486 0.976767
-1.7416112 5.5985546 -0.39856982 0.97676724
-1.6711133 5.6199217 -0.39856476 0.97676754
-1.6003418 5.6404099 -0.39855972 0.97676784
-1.4580566 5.6787009 -0.3985495 0.97676837
-1.3865625 5.6964841 -0.39854437 0.97676873
-1.3148534 5.7133985 -0.39853927 0.97676897
-1.2429395 5.7293944 -0.39853409 0.97676927
-0.95343751 5.7842965 -0.39851338 0.97677052
-0.88067383 5.7957711 -0.39850819 0.97677076
-0.80775386 5.8062987 -0.39850295 0.97677106
-0.73473632 5.815908 -0.39849773 0.97677135
-0.66159177 5.8245797 -0.39849249 0.97677177
-0.58833009 5.8323827 -0.39848724 0.97677201
-0.51499021 5.8392282 -0.39848205 0.97677231
-0.44158202 5.8451657 -0.39847678 0.97677261
-0.36807618 5.8501658 -0.3984715 0.97677296
-0.22093749 5.8574314 -0.39846098 0.9767735
-0.073681638 5.8609862 -0.39845049 0.97677404
0.22090819 5.8569822 -0.39842948 0.97677523
0.29446289 5.853662 -0.39842427 0.97677559
0.44146484 5.8442578 -0.39841378 0.97677618
0.66139644 5.8232322 -0.39839807 0.97677714
0.73453122 5.8143749 -0.39839286 0.97677743
0.95310545 5.7823339 -0.3983773 0.97677833
1.0980859 5.7564063 -0.39836699 0.97677892
1.170332 5.7420897 -0.39836183 0.97677916
1.242373 5.7268553 -0.39835671 0.97677946
1.314209 5.7107129 -0.39835161 0.97677982
1.3858594 5.6936717 -0.39834651 0.97678012
1.4572656 5.6757321 -0.39834145 0.97678041
1.5994238 5.6371875 -0.39833131 0.97678095
1.7405175 5.5950685 -0.3983213 0.97678155
1.9500781 5.5252733 -0.39830643 0.97678244
2.0193458 5.5002832 -0.39830151 0.97678268
2.0882616 5.4743943 -0.39829662 0.97678298
2.225127 5.4200683 -0.39828688 0.97678351
2.3605762 5.3622947 -0.39827728 0.97678411
2.4277539 5.3321486 -0.39827251 0.97678435
2.4945116 5.3011618 -0.39826781 0.97678465
2.5609276 5.2693357 -0.3982631 0.97678488
2.6268945 5.23667 -0.39825842 0.97678518
2.7672753 5.1870313 -0.39964679 0.97670519
3.0450389 5.07583 -0.40237448 0.97654814
3.3961425 5.2057128 -0.42252395 0.97538829
4.263701 5.8684568 -0.49310252 0.97133654
4.4099021 5.9120407 -0.50138134 0.97086245
4.5569825 5.7992382 -0.50137097 0.97086304
4.6294432 5.7414551 -0.5013659 0.97086334
4.7011719 5.6827636 -0.50136083 0.97086364
4.7721972 5.6231833 -0.50135583 0.97086388
4.842412 5.5627146 -0.50135082 0.97086424
4.9805956 5.4391599 -0.5013411 0.97086471
5.0484958 5.3760939 -0.50133634 0.97086501
5.2473731 5.1818552 -0.50132233 0.97086585
5.3120313 5.1154685 -0.5013178 0.97086608
5.3758397 5.0482516 -0.50131333 0.97086638
5.4387989 4.9802637 -0.50130886 0.97086662
5.5009375 4.9115038 -0.50130457 0.97086674
5.6225195 4.7716308 -0.50129604 0.97086728
5.6819825 4.7005467 -0.50129181 0.97086757
5.7405567 4.6287208 -0.50128776 0.97086781
5.7982225 4.5561914 -0.50128371 0.97086805
1.2543554 0.93565428 -0.10637859 0.99374568
1.2545605 0.91148436 -0.105415 0.99380213
1.2547168 0.88773435 -0.10448505 0.99385673
1.2549121 0.86443359 -0.10358692 0.99390924
1.2550781 0.84148437 -0.10272034 0.99396008
1.2554101 0.79670894 -0.10107609 0.99405652
1.2555761 0.77484375 -0.1002964 0.99410218
1.2557324 0.7533105 -0.099544257 0.99414623
1.3719531 0.70994139 -0.10501137 0.99382585
1.4152637 0.70993161 -0.10763367 0.99367213
1.5592675 0.70994139 -0.11646728 0.99315459
1.7293066 0.70994139 -0.12707683 0.99253333
1.8611327 0.70995116 -0.13540836 0.99204564
1.9337401 0.70995116 -0.14003235 0.99177521
2.0237596 0.71426755 -0.1458897 0.99143267
2.0237987 0.65756834 -0.14465362 0.99150485
7.0670605 2.1014159 -0.50119573 0.97087306
7.1175876 1.9231445 -0.50119233 0.97087324
7.1636424 1.7436523 -0.50118923 0.97087336
7.1849508 1.6534863 -0.5011878 0.97087353
7.2588964 1.2903808 -0.50118291 0.97087371
7.2745113 1.1990625 -0.5011819 0.97087383
7.2890038 1.1075586 -0.50118101 0.97087383
7.3023338 1.0158789 -0.50118011 0.97087389
7.3354001 0.73993164 -0.50117803 0.97087401
7.344111 0.64768553 -0.50117755 0.97087407
7.3673534 0.27786133 -0.5011763 0.97087413
7.370244 0.18526366 -0.50117618 0.97087425
7.3720016 0.09264648 -0.50117612 0.97087419
7.3720117 -0.09264648 -0.5011763 0.97087413
7.3702536 -0.1852832 -0.50117654 0.97087419
7.3673534 -0.27789062 -0.50117683 0.97087413
7.3516793 -0.55536133 -0.50117826 0.97087401
7.3255563 -0.83206052 -0.50118047 0.97087389
7.3145118 -0.92403316 -0.5011813 0.97087395
7.3023434 -1.0158985 -0.50118226 0.97087383
7.27457 -1.1990722 -0.50118446 0.97087359
7.2589355 -1.2904102 -0.50118566 0.97087359
7.2421775 -1.3815136 -0.50118697 0.97087348
7.2242479 -1.4724219 -0.50118834 0.97087342
7.2051563 -1.5630859 -0.50118977 0.97087353
7.1636815 -1.7436913 -0.50119299 0.97087318
7.0929198 -2.0124609 -0.50119829 0.970873
7.0671482 -2.1014354 -0.50120026 0.9708727
7.040195 -2.1900878 -0.50120229 0.97087264
2.0237889 -0.65756834 -0.14465351 0.99150491
2.0237792 -0.68581051 -0.14525764 0.99146956
2.0237501 -0.71427733 -0.14589 0.99143267
1.8611034 -0.70995116 -0.13540767 0.99204576
1.7931151 -0.70996094 -0.13109963 0.99229783
1.7293164 -0.70995116 -0.12707634 0.99253327
1.6692871 -0.70994139 -0.12331177 0.99275368
1.612705 -0.70994139 -0.11978225 0.99296039
1.5087109 -0.70994139 -0.11334713 0.99333727
1.4607617 -0.70994139 -0.1104079 0.99350959
1.3307129 -0.70994139 -0.10252933 0.99397135
1.2559961 -0.71119142 -0.098118477 0.99422991
1.2558692 -0.73210937 -0.098818511 0.99418879
1.2557031 -0.75333005 -0.099544257 0.99414629
1.2555859 -0.77485353 -0.10029647 0.99410212
1.2552344 -0.81892574 -0.10188346 0.9940092
1.2548926 -0.86442381 -0.10358711 0.99390936
1.2547265 -0.88774413 -0.10448483 0.99385667
