# .PCD v0.7 - Point Cloud Data file format
VERSION 0.7
FIELDS x y z intensity
SIZE 4 4 4 4
TYPE F F F F
COUNT 1 1 1 1
WIDTH 1082
HEIGHT 1
VIEWPOINT 0 0 0 1 0 0 0
POINTS 1082
DATA ascii
-2.6404297 7.7918553 -0.39917228 0.9675898
-2.245039 7.9126754 -0.39907211 0.96759784
-1.9448436 7.9901462 -0.39899608 0.96760392
-1.6419727 8.0562201 -0.3989194 0.96761006
-1.5405273 8.0756931 -0.39889374 0.96761215
-1.4388477 8.0939159 -0.39886793 0.96761411
-1.3369141 8.1108398 -0.39884216 0.96761614
-1.2348144 8.1264448 -0.39881629 0.96761829
-1.0300586 8.1538382 -0.39876449 0.96762252
-0.92746091 8.1656342 -0.3987385 0.96762449
-0.8247363 8.1760836 -0.39871249 0.96762663
-0.51588863 8.1997852 -0.39863434 0.96763277
-0.41276366 8.2050486 -0.39860824 0.96763498
-0.30961913 8.2090626 -0.39858213 0.967637
-0.20641601 8.2117672 -0.39855605 0.96763909
0 8.2132711 -0.39850378 0.96764332
0.30951172 8.2058401 -0.39842552 0.96764952
0.41255859 8.2007513 -0.39839941 0.96765167
1.0287402 8.1432228 -0.39824364 0.96766394
1.1309081 8.1291208 -0.39821777 0.96766603
1.2329004 8.11374 -0.39819199 0.96766812
1.5375097 8.0599318 -0.39811501 0.96767431
1.6385839 8.0394821 -0.39808944 0.96767628
2.0399413 7.9449606 -0.39798796 0.96768439
2.1394629 7.9182029 -0.39796284 0.96768641
2.3374803 7.8609567 -0.39791283 0.96769041
2.4359276 7.8304586 -0.39788792 0.96769243
2.5339551 7.7987304 -0.39786315 0.96769446
2.728828 7.7316599 -0.39781395 0.96769828
2.9218946 7.6596775 -0.39776516 0.96770227
3.2189453 7.5686522 -0.39905825 0.96759892
4.1578612 9.4449415 -0.50070149 0.95951527
4.2759376 9.391367 -0.50067163 0.95951772
4.6260839 9.2219429 -0.50058323 0.95952451
4.7412987 9.162549 -0.50055414 0.9595269
4.8558202 9.101738 -0.50052524 0.95952904
5.0823927 8.9757814 -0.50046808 0.95953375
5.6344042 8.6365528 -0.50032872 0.95954472
5.7421679 8.5645895 -0.5003016 0.95954692
5.8490429 8.4913378 -0.5002746 0.95954889
6.1639161 8.2634954 -0.50019521 0.95955539
6.5699902 7.9417281 -0.5000928 0.95956349
6.7668161 7.7733493 -0.50004315 0.95956743
6.9593749 7.6001267 -0.49999464 0.95957112
7.1474509 7.4221287 -0.49994722 0.959575
7.3310642 7.2394919 -0.499901 0.95957857
7.5976954 6.957119 -0.49983382 0.95958388
7.6841698 6.8608007 -0.49981204 0.95958561
7.8534961 6.6649609 -0.49976942 0.95958894
8.0980854 6.3633981 -0.49970785 0.95959407
8.1770897 6.2608981 -0.499688 0.95959556
1.260498 0.91580075 -0.075595781 0.99377984
1.2607617 0.86844724 -0.074278638 0.99388784
1.2608984 0.84535152 -0.073654175 0.9939391
1.2610059 0.82265621 -0.073051453 0.99398857
1.2611035 0.80031246 -0.072469786 0.99403638
1.2612305 0.7783398 -0.071908571 0.99408233
1.4152637 0.70994139 -0.076823272 0.99367923
1.5592968 0.70995116 -0.083128355 0.99316216
1.6127343 0.70994139 -0.08549469 0.9929682
1.7293359 0.70995116 -0.090700872 0.99254155
1.9337597 0.70994139 -0.099948004 0.99178439
2.0232227 0.71406251 -0.10409935 0.99144459
2.0228906 0.6572656 -0.10320011 0.9915182
9.8257713 3.0566211 -0.49927428 0.95962822
9.8632221 2.9328613 -0.49926493 0.95962894
9.8991213 2.8086231 -0.49925599 0.95962971
9.9334669 2.683955 -0.49924743 0.95963037
9.9662495 2.5588965 -0.49923927 0.95963097
10.08164 2.0547948 -0.49921063 0.95963329
10.106503 1.9279199 -0.49920449 0.95963395
10.129795 1.8007324 -0.4991987 0.95963448
10.236191 1.0325292 -0.49917263 0.95963627
10.248301 0.90381837 -0.49916968 0.95963651
10.258769 0.77496094 -0.49916717 0.95963681
10.274951 0.51690429 -0.49916336 0.95963699
10.284638 0.25853515 -0.49916118 0.95963722
10.287881 -9.7656248e-06 -0.49916062 0.95963722
10.287061 -0.12927733 -0.49916098 0.95963728
10.280615 -0.3877539 -0.49916288 0.95963711
10.275 -0.51691407 -0.49916443 0.95963681
10.258808 -0.77498043 -0.49916881 0.95963663
10.24834 -0.90382808 -0.49917158 0.95963633
10.2225 -1.1610937 -0.49917841 0.95963591
10.190264 -1.4176464 -0.49918681 0.95963526
10.171758 -1.5456054 -0.49919164 0.95963478
10.081718 -2.0548241 -0.49921498 0.95963299
10.055243 -2.1813769 -0.4992218 0.9596324
9.9975586 -2.4334471 -0.49923667 0.9596312
9.8633394 -2.9329102 -0.49927115 0.95962846
2.0229003 -0.65728515 -0.1032 0.99151814
2.023037 -0.68556637 -0.10363933 0.99148226
1.9337401 -0.70995116 -0.099947281 0.99178445
1.6127148 -0.70996094 -0.085493922 0.99296826
1.5087206 -0.70996094 -0.080901414 0.99334472
1.460791 -0.70994139 -0.078803211 0.9935168
1.3719727 -0.70994139 -0.074951172 0.99383271
1.2913965 -0.70995116 -0.071501501 0.99411571
1.2614453 -0.73535156 -0.070844226 0.99416965
1.2612402 -0.77834958 -0.071908452 0.99408227
1.2611133 -0.80031246 -0.07246986 0.99403632
1.2610059 -0.82265621 -0.073051684 0.99398857
1.2607715 -0.86844724 -0.074278563 0.99388784
5.1202049 -3.9203613 -0.31288588 0.97450548
5.1137695 -4.0183496 -0.31555292 0.97429097
6.1733494 -5.3739743 -0.39711753 0.96775395
5.9672265 -5.6035838 -0.39716992 0.96774966
5.8965821 -5.678369 -0.39718783 0.96774828
5.7525582 -5.8252931 -0.39722446 0.96774536
3.6041405 -3.9359667 -0.2589381 0.97885436
5.2203221 -6.3102927 -0.39735961 0.96773458
5.0606251 -6.4401269 -0.39740017 0.96773136
4.9795508 -6.5035644 -0.39742076 0.96772969
4.8976855 -6.5659471 -0.39744151 0.96772808
4.8150392 -6.6273437 -0.39746249 0.96772635
4.6474805 -6.7469821 -0.39750502 0.96772289
4.476953 -6.8623729 -0.39754829 0.9677195
4.3906054 -6.918457 -0.39757019 0.96771783
4.3035741 -6.9734764 -0.39759228 0.96771598
4.2158298 -7.0274315 -0.39761451 0.96771413
4.0383396 -7.1319332 -0.39765951 0.96771067
3.9486229 -7.1825485 -0.39768231 0.96770877
3.8582909 -7.2319922 -0.3977052 0.96770704
3.767334 -7.2803416 -0.39772826 0.96770507
3.6757421 -7.3275194 -0.39775148 0.96770334
3.5836034 -7.3735743 -0.39777485 0.96770138
3.490869 -7.4184766 -0.39779839 0.96769947
3.3037207 -7.5047164 -0.3978458 0.96769583
3.1144824 -7.5863085 -0.39789376 0.9676919
2.9231932 -7.663115 -0.39794222 0.96768802
2.7192383 -8.024394 -0.41108409 0.96663886
2.6183496 -8.0584278 -0.4111096 0.96663684
2.5170214 -8.0912008 -0.41113526 0.96663481
2.3131933 -8.1529388 -0.4111869 0.96663064
2.2106934 -8.1818752 -0.41121286 0.96662855
2.1078613 -8.2094917 -0.41123894 0.96662658
2.0046387 -8.235898 -0.41126505 0.96662438
1.6931444 -8.3071871 -0.41134393 0.96661806
1.5887011 -8.3283396 -0.4113704 0.96661603
1.4840332 -8.3481836 -0.41139689 0.96661389
1.3791113 -8.366704 -0.41142347 0.9666118
1.1685547 -8.3998194 -0.41147673 0.96660751
1.0629883 -8.4143553 -0.41150352 0.96660548
0.74523437 -8.4501171 -0.41158393 0.96659899
0.63900387 -8.4593506 -0.41161081 0.9665969
0.42629883 -8.4738722 -0.41166463 0.96659249
0.21325195 -8.4829931 -0.41171855 0.96658832
0.10663085 -8.4855909 -0.41174555 0.96658605
9.7656248e-06 -8.4867916 -0.41177249 0.96658397
-0.43415037 -8.6298971 -0.41924304 0.96598798
-0.64864254 -8.5865669 -0.41779822 0.9661032
-0.96694332 -8.5130663 -0.41570094 0.96627045
-1.4968847 -8.4204979 -0.41496608 0.96632963
-1.708252 -8.3812599 -0.41501951 0.96632552
-1.918584 -8.3367825 -0.41507271 0.96632111
-2.1277635 -8.2870016 -0.41512558 0.96631688
-2.4423828 -8.2137108 -0.41577393 0.96626526
-2.5472558 -8.1883497 -0.4160763 0.966241
-2.6519628 -8.16185 -0.41639328 0.96621597
-2.8608203 -8.1056442 -0.4170613 0.96616256
-3.0688868 -8.045063 -0.41778037 0.96610516
-3.126826 -7.616416 -0.39947283 0.96756577
-3.506377 -7.4514842 -0.39956871 0.96755815
-3.5999706 -7.4072556 -0.39959231 0.9675563
-3.7854004 -7.3153024 -0.39963913 0.9675526
-3.8772752 -7.2675977 -0.39966232 0.96755064
-4.0591307 -7.1686816 -0.39970824 0.96754706
-4.1491404 -7.1175098 -0.39973095 0.96754521
-4.6750388 -6.7869921 -0.39986366 0.96753466
-4.7601953 -6.728076 -0.39988512 0.96753293
-4.9283204 -6.6070213 -0.39992756 0.96752954
-5.0933104 -6.4817576 -0.39996916 0.96752626
-5.1746287 -6.4175777 -0.39998966 0.96752459
-5.2551465 -6.3523827 -0.40000999 0.96752286
-5.3348145 -6.2861524 -0.40003005 0.96752131
-5.4916501 -6.1507225 -0.40006956 0.96751809
-5.7203612 -5.9402051 -0.4001272 0.96751368
-6.0127048 -5.6463084 -0.40020087 0.96750784
-1.0302148 -0.9433496 -0.067775227 0.99442154
-1.0312793 -0.76924801 -0.062423665 0.99486089
-1.0314844 -0.72981441 -0.061307296 0.99495256
-1.0882226 -0.70994139 -0.063042678 0.9948101
-1.1186719 -0.70994139 -0.064285927 0.99470812
-1.1503906 -0.70995116 -0.065589905 0.99460095
-1.1834179 -0.70995116 -0.066958539 0.9944886
-1.2913672 -0.70995116 -0.071501538 0.99411583
-1.3307226 -0.70994139 -0.073180124 0.99397808
-1.4152637 -0.70994139 -0.076823115 0.99367923
-1.5087304 -0.70995116 -0.080901563 0.99334472
-1.5592675 -0.70995116 -0.08312805 0.99316227
-1.612705 -0.70994139 -0.085494228 0.99296832
-1.7292968 -0.70995116 -0.090700798 0.99254173
-9.8002052 -3.4588866 -0.50424659 0.95923454
-9.8430758 -3.335537 -0.50425732 0.95923382
-9.8844337 -3.2116406 -0.50426763 0.95923293
-9.9242086 -3.0872459 -0.50427759 0.95923215
-10.034042 -2.7111621 -0.50430495 0.95923001
-10.099375 -2.4582422 -0.50432122 0.95922858
-10.185244 -2.0759277 -0.5043425 0.95922703
-10.210664 -1.9478027 -0.50434881 0.95922649
-10.277139 -1.5616113 -0.50436521 0.95922524
-10.313311 -1.3028905 -0.50437409 0.95922458
-10.342978 -1.0433007 -0.50438136 0.95922387
-10.355342 -0.91326171 -0.50438434 0.95922363
-10.382529 -0.52231443 -0.50439078 0.95922315
-10.392392 -0.26124999 -0.50439298 0.95922309
-9.8300972 -9.7656248e-06 -0.50425047 0.96139294
-9.8292971 0.12352539 -0.50425011 0.961393
-9.810586 0.61721677 -0.50424486 0.96139336
-9.8019924 0.74045897 -0.5042426 0.96139359
-9.7918358 0.86356443 -0.50423986 0.96139389
-9.7801952 0.98652339 -0.50423682 0.96139395
-9.7521486 1.2319824 -0.50422943 0.96139461
-9.7358198 1.3544238 -0.50422519 0.96139491
-9.7179394 1.4766308 -0.50422055 0.96139526
-9.698535 1.598623 -0.50421548 0.96139556
-9.6550684 1.8417969 -0.50420421 0.96139652
-9.6310444 1.9629687 -0.50419801 0.96139693
-9.5784273 2.2043164 -0.50418442 0.96139795
-9.5197268 2.444248 -0.50416934 0.96139902
-9.4880953 2.5636425 -0.50416124 0.96139967
-9.420351 2.8011718 -0.50414383 0.96140099
-9.3842478 2.9192772 -0.5041346 0.96140164
-9.307539 3.1540527 -0.50411493 0.96140319
-1.6692871 0.70995116 -0.093051985 0.99276084
-1.6127245 0.70995116 -0.090388641 0.99296725
-1.5592871 0.70994139 -0.087886728 0.99316126
-1.4152832 0.70995116 -0.081220813 0.99367827
-1.3719823 0.70996094 -0.07924217 0.99383181
-1.3307226 0.70995116 -0.077369228 0.99397725
-1.2913965 0.70995116 -0.075594746 0.99411494
-1.1834277 0.70995116 -0.070791587 0.99448782
-1.0309082 0.71012694 -0.064214364 0.99499869
-1.0306835 0.74883789 -0.065352209 0.9949103
-1.0303124 0.80960935 -0.067217059 0.99476546
-1.0299219 0.87403321 -0.069291458 0.99460429
-1.0295995 0.91928709 -0.070803642 0.99448687
-5.6835446 5.3371973 -0.39994478 0.96925479
-5.3360252 5.6822848 -0.39985648 0.96926147
-5.2639647 5.7486229 -0.39983821 0.96926284
-5.1173534 5.8785543 -0.39980099 0.96926564
-5.0428514 5.9421191 -0.39978206 0.96926707
-4.9675488 6.0047169 -0.39976296 0.96926856
-4.5795898 6.3032422 -0.39966446 0.96927589
-4.4997654 6.3599706 -0.39964423 0.9692775
-4.1737013 6.5766602 -0.39956149 0.9692837
-4.090488 6.6282325 -0.39954039 0.96928537
-4.00666 6.6787596 -0.39951912 0.96928698
-3.8371387 6.7766013 -0.39947617 0.96929026
-3.7514844 6.8239255 -0.39945441 0.96929187
-3.5784082 6.9152927 -0.39941055 0.96929514
-3.4910448 6.9593258 -0.39938837 0.96929681
-3.4031346 7.0022364 -0.39936605 0.96929854
-3.2257128 7.0847654 -0.39932114 0.96930194
-3.1362696 7.1243262 -0.39929843 0.96930367
-3.0463183 7.1627636 -0.39927566 0.9693054
-2.8650293 7.2362399 -0.39922968 0.96930879
-2.773711 7.2712498 -0.39920655 0.96931058
-2.6819627 7.3050876 -0.3991833 0.96931237
-2.5898144 7.3377929 -0.39915997 0.9693141
-2.4042969 7.3996873 -0.39911297 0.96931767
-2.1233203 7.4837108 -0.39904177 0.96932304
-2.0289843 7.509336 -0.3990179 0.96932495
-1.9343456 7.5338082 -0.39899391 0.96932667
-1.6487206 7.5999703 -0.39892158 0.96933222
-1.2644922 7.6713476 -0.3988243 0.96933949
-0.78005856 7.7332225 -0.39870167 0.96934885
-0.48794922 7.7556834 -0.39862773 0.96935445
-0.39041016 7.7607226 -0.39860305 0.9693563
-0.097607419 7.768486 -0.39852896 0.9693619
0.097607419 7.767529 -0.39847961 0.9693656
0.29274413 7.7616696 -0.39843026 0.96936929
0.48764646 7.7508984 -0.39838091 0.96937305
0.58498043 7.7436814 -0.39835632 0.9693749
0.6821875 7.7352538 -0.3983317 0.96937674
0.87624997 7.7146873 -0.39828265 0.96938056
1.1661816 7.6747656 -0.39820933 0.9693861
1.4543555 7.6239648 -0.39813647 0.96939164
1.5499609 7.6046286 -0.39811233 0.96939343
1.6453222 7.5841112 -0.39808822 0.96939516
1.8351367 7.539453 -0.39804024 0.96939886
2.3969922 7.3771677 -0.39789826 0.96940958
2.4893553 7.346025 -0.39787489 0.96941137
2.5813379 7.3137403 -0.39785171 0.9694131
2.6728907 7.2803321 -0.39782855 0.96941477
2.7639747 7.2457128 -0.39780554 0.96941668
2.8546386 7.21 -0.39778265 0.96941841
3.1932225 7.5081835 -0.41852993 0.9678492
3.9331932 8.9345999 -0.50075883 0.96165508
4.0449219 8.8839645 -0.50073063 0.96165723
4.1560154 8.8319435 -0.50070256 0.96165931
4.5935059 8.6100683 -0.50059217 0.9616676
5.1237106 8.3024511 -0.5004583 0.96167755
5.3301563 8.1702051 -0.50040621 0.9616816
5.5332422 8.0328712 -0.50035501 0.96168536
5.7327733 7.8904881 -0.50030464 0.96168917
6.4016309 7.3538475 -0.50013602 0.96170187
6.4932423 7.27249 -0.50011289 0.9617036
6.6733494 7.1063867 -0.50006753 0.96170694
6.761816 7.0216503 -0.50004524 0.96170866
6.8492379 6.9358397 -0.50002325 0.96171021
7.020752 6.7609277 -0.49998 0.96171355
7.1048632 6.6718845 -0.49995884 0.9617151
7.2696676 6.4907031 -0.49991733 0.9617182
7.4298925 6.305459 -0.49987698 0.96172124
7.5082421 6.2113671 -0.49985725 0.96172267
1.2594824 0.93948239 -0.080601804 0.99372637
1.2596289 0.91518551 -0.079868697 0.99378324
1.2597852 0.89131832 -0.079161108 0.99383807
1.2600487 0.84481442 -0.07781902 0.99394226
1.2601757 0.82212889 -0.077182844 0.99399167
1.2603027 0.79980469 -0.076568335 0.9940393
1.2605176 0.75619137 -0.075403936 0.99412978
1.2606446 0.73487306 -0.074852139 0.99417257
1.3719823 0.70996094 -0.079241976 0.99383181
1.4607812 0.70994139 -0.083314516 0.99351591
1.5593066 0.70994139 -0.087886505 0.9931612
1.7931542 0.70994139 -0.098928601 0.99230528
1.9337597 0.70994139 -0.10566898 0.99178326
2.0242188 0.71442384 -0.11011219 0.99143916
2.0242188 0.68593746 -0.10963497 0.99147618
9.4587688 2.3023047 -0.49936792 0.96175945
9.4867964 2.1832225 -0.49936098 0.96176004
9.5133591 2.0638182 -0.49935439 0.96176052
9.5384369 1.9440722 -0.49934816 0.96176094
9.5840626 1.7037207 -0.49933687 0.96176183
9.623662 1.4623144 -0.49932712 0.96176255
9.6411915 1.3412402 -0.4993228 0.96176291
9.6717091 1.0985254 -0.49931532 0.96176344
9.6961422 0.85511714 -0.49930942 0.96176386
9.7213478 0.48904297 -0.49930343 0.9617644
9.7328711 0.12230469 -0.4993009 0.9617644
9.7328615 -0.12232421 -0.49930117 0.96176445
9.7305861 -0.24460937 -0.49930191 0.96176434
9.7267284 -0.36686522 -0.49930295 0.9617644
9.7145405 -0.61118162 -0.49930632 0.96176398
9.7060938 -0.73321289 -0.49930862 0.96176398
9.6847162 -0.97691405 -0.49931425 0.96176356
9.6717672 -1.098545 -0.49931771 0.9617632
9.6572456 -1.22 -0.49932146 0.96176302
9.6412497 -1.3412695 -0.49932566 0.96176267
9.6237106 -1.4623241 -0.49933019 0.96176237
9.6046877 -1.583164 -0.49933517 0.96176189
9.5841208 -1.7037402 -0.4993405 0.96176159
9.5620699 -1.8240722 -0.4993462 0.96176112
9.3982811 -2.5393748 -0.49938837 0.96175802
9.3318357 -2.7748535 -0.49940547 0.96175665
2.0242188 -0.68596679 -0.10963523 0.99147612
1.9337401 -0.70995116 -0.10566841 0.99178332
1.8611034 -0.70995116 -0.10217903 0.99205357
1.7931249 -0.70995116 -0.098927878 0.9923054
1.7293066 -0.70996094 -0.095892176 0.99254066
1.6127245 -0.70996094 -0.090387799 0.99296725
1.5592968 -0.70994139 -0.087885737 0.99316126
1.5087206 -0.70996094 -0.085532226 0.99334383
1.460791 -0.70994139 -0.083313867 0.99351591
1.4152734 -0.70994139 -0.081220202 0.99367833
1.3719727 -0.70994139 -0.079241484 0.99383187
1.2606446 -0.73489255 -0.07485199 0.99417251
1.2605274 -0.75621092 -0.075403705 0.99412972
1.2601757 -0.82211912 -0.077182651 0.99399167
1.2599218 -0.86787105 -0.078478239 0.99389106
1.259795 -0.89131832 -0.079161145 0.99383807
1.2594922 -0.93949217 -0.080601916 0.99372631
5.1202049 -3.9203613 -0.33079544 0.97450197
5.1137891 -4.0183692 -0.33361632 0.97428733
5.9657617 -4.9353318 -0.39716956 0.96946478
5.9035349 -5.010088 -0.39718536 0.96946359
5.7112012 -5.2296872 -0.39723426 0.96945989
5.6452832 -5.3012791 -0.39725104 0.96945852
5.5784569 -5.3720212 -0.39726803 0.96945727
3.7231543 -3.8662305 -0.27533218 0.97873139
3.6041405 -3.9359667 -0.27375993 0.9788515
5.0865722 -5.8431735 -0.39739296 0.96944773
5.012959 -5.9068847 -0.39741164 0.96944642
4.6332812 -6.211494 -0.39750805 0.96943921
4.5550876 -6.2695508 -0.39752787 0.96943766
4.4761815 -6.326611 -0.3975479 0.96943611
4.3162107 -6.4377537 -0.39758849 0.96943307
4.2352147 -6.4918356 -0.39760906 0.96943146
4.1535349 -6.5448828 -0.39762977 0.96942985
4.0711427 -6.5969043 -0.39765066 0.96942836
3.9045019 -6.6978512 -0.39769295 0.96942508
3.7353613 -6.7945604 -0.3977358 0.96942192
3.4771874 -6.9316797 -0.39780128 0.96941692
3.3022656 -7.0176754 -0.39784566 0.96941346
3.1252246 -7.0992184 -0.39789054 0.96941018
3.0359278 -7.1383495 -0.39791316 0.96940839
2.9461424 -7.1763282 -0.39793593 0.96940678
2.8559082 -7.2131834 -0.39795879 0.96940506
2.7652049 -7.2489548 -0.39798179 0.96940321
2.6740332 -7.283535 -0.39800486 0.96940154
2.5824511 -7.3169918 -0.39802811 0.96939975
2.4904394 -7.3493161 -0.39805138 0.96939796
2.3980565 -7.3804488 -0.39807478 0.96939623
2.3052635 -7.4104099 -0.39809829 0.96939451
2.21208 -7.4392481 -0.39812189 0.96939272
2.1185644 -7.4669137 -0.39814559 0.96939087
1.8359375 -7.5428123 -0.39821714 0.96938545
1.741123 -7.5657616 -0.39824119 0.96938354
1.6460351 -7.5874996 -0.3982653 0.96938175
1.5506543 -7.6080074 -0.39828941 0.96938002
1.3591113 -7.6455173 -0.39833793 0.96937633
1.2630078 -7.6624899 -0.39836228 0.96937442
1.0054687 -7.9590621 -0.41151756 0.96837926
0.90541989 -7.9715428 -0.41154289 0.96837741
0.80524415 -7.9828124 -0.41156825 0.96837538
0.50387692 -8.0089741 -0.41164452 0.9683696
0.40322265 -8.0151758 -0.41167 0.96836764
0.30249023 -8.0200977 -0.41169548 0.96836579
0.20171875 -8.0237494 -0.41172096 0.96836388
9.7656248e-06 -8.2670603 -0.42406932 0.96743047
-0.1037207 -8.2539692 -0.42343152 0.96747869
-0.31020507 -8.2247267 -0.42219952 0.96757185
-0.41296875 -8.2086182 -0.42160049 0.96761674
-0.82049805 -8.1340332 -0.41936466 0.96778607
-1.0220996 -8.0908003 -0.41832674 0.96786439
-1.1223534 -8.0677395 -0.41782963 0.96790189
-1.3244042 -8.0348244 -0.41772476 0.96791035
-1.3614843 -7.65874 -0.39902624 0.96932417
-1.4576855 -7.6414647 -0.39905059 0.96932244
-1.5537012 -7.6230369 -0.39907485 0.96932054
-1.935205 -7.537158 -0.39917129 0.96931326
-2.0298924 -7.5126758 -0.39919519 0.96931154
-2.5909472 -7.3410349 -0.39933699 0.96930075
-2.6831641 -7.3083301 -0.39936027 0.96929896
-2.7749512 -7.2744627 -0.39938346 0.96929717
-2.9572167 -7.2032714 -0.3994295 0.96929365
-3.2271581 -7.0879002 -0.39949766 0.96928853
-3.5800097 -6.9183493 -0.3995868 0.96928179
-3.6668651 -6.8731833 -0.39960867 0.96928012
-3.7531543 -6.8269529 -0.39963046 0.96927845
-3.8388183 -6.7795997 -0.39965209 0.96927691
-3.9239354 -6.7312012 -0.39967358 0.96927524
-4.1755271 -6.5795603 -0.39973703 0.96927041
-4.4212208 -6.4185157 -0.39979902 0.9692657
-4.6606641 -6.2482419 -0.39985946 0.96926129
-4.969707 -6.0073633 -0.39993739 0.96925527
-5.0450487 -5.9447165 -0.39995635 0.96925384
-5.1195898 -5.8811231 -0.39997515 0.96925247
-3.7011523 -4.0419431 -0.2811316 0.97828835
-3.7329004 -3.9751561 -0.27972752 0.97839564
-5.4096093 -5.6174803 -0.40004826 0.96924692
-5.5495605 -5.4802537 -0.40008354 0.96924424
-1.0294434 -0.94265622 -0.071601711 0.99442494
-1.0295898 -0.91928709 -0.070803605 0.99448693
-1.0297754 -0.89642578 -0.07003399 0.99454659
-1.0305566 -0.76872069 -0.065951839 0.99486375
-1.0308007 -0.72930664 -0.064773217 0.9949553
-1.0588866 -0.70994139 -0.065396652 0.9949069
-1.1186913 -0.70995116 -0.067965694 0.99470729
-1.2178613 -0.70996094 -0.072311588 0.99436975
-1.3307226 -0.70994139 -0.077368662 0.99397725
-1.4152637 -0.70994139 -0.081220321 0.99367833
-1.5087304 -0.70994139 -0.085532226 0.99334383
-1.5592675 -0.70995116 -0.087886274 0.99316132
-1.6126952 -0.70995116 -0.090387873 0.99296737
-1.6692675 -0.70996094 -0.093051717 0.9927609
-1.7292968 -0.70995116 -0.09589237 0.99254072
-1.7870312 -0.70753902 -0.098591842 0.99233145
-9.3076849 -3.1541016 -0.50412166 0.9614026
-9.3467379 -3.036953 -0.50413144 0.961402
-9.4204884 -2.8012109 -0.50414985 0.96140045
-9.4550686 -2.6826563 -0.50415844 0.96139991
-9.4882126 -2.5636816 -0.50416672 0.9613992
-9.5198431 -2.4442773 -0.50417459 0.9613986
-9.5785055 -2.2043262 -0.50418919 0.96139759
-9.6311522 -1.9629883 -0.50420225 0.96139652
-9.6776361 -1.720371 -0.50421375 0.96139574
-9.7358789 -1.3544335 -0.50422806 0.96139467
-9.7522068 -1.2320019 -0.50423211 0.96139437
-9.7669916 -1.1093554 -0.50423568 0.96139407
-9.7802248 -0.98654294 -0.5042389 0.96139383
-9.7919331 -0.86356443 -0.50424176 0.96139354
-9.810605 -0.61723632 -0.50424618 0.9613933
-9.8176174 -0.49390623 -0.50424784 0.96139318
-9.8230467 -0.37050781 -0.5042491 0.96139318
-9.8292971 -0.12352539 -0.50425041 0.961393
-9.3219528 0.11714844 -0.50412178 0.9633435
-9.3197365 0.23427734 -0.50412107 0.9633435
-9.3160152 0.35136718 -0.50412005 0.96334368
-9.3108492 0.46839842 -0.50411862 0.96334374
-9.2960644 0.70222652 -0.50411457 0.96334404
-9.2753611 0.93560547 -0.50410914 0.96334451
-9.2628317 1.0520898 -0.50410581 0.96334463
-9.2333107 1.2845117 -0.50409812 0.96334529
-9.1339941 1.8616503 -0.50407237 0.96334702
-9.0840816 2.0905468 -0.50405949 0.96334797
-9.0284081 2.3181152 -0.50404519 0.96334904
-8.9984369 2.4313476 -0.50403744 0.96334952
-8.9341993 2.6566112 -0.50402099 0.96335077
-8.8999996 2.7686424 -0.50401223 0.96335119
-8.864336 2.8801854 -0.50400305 0.96335191
-8.7887983 3.1019237 -0.50398374 0.96335334
-1.7877344 0.65633786 -0.10297997 0.99240029
-1.7877929 0.6819824 -0.10347015 0.99236429
-1.7878808 0.7078613 -0.10398163 0.99232674
-1.7293261 0.70996094 -0.10108585 0.99253947
-1.6127245 0.70995116 -0.095283732 0.99296623
-1.3719823 0.70996094 -0.083533555 0.99383092
-1.3307226 0.70995116 -0.081559367 0.99397635
-1.2913965 0.70995116 -0.079688683 0.99411404
-1.2537988 0.70995116 -0.077914007 0.99424481
-1.2178613 0.70994139 -0.076228216 0.99436897
-1.1834277 0.70995116 -0.074625589 0.99448699
-1.1503906 0.70995116 -0.073100127 0.99459946
-1.0306739 0.70995116 -0.067675628 0.99499911
-1.0297363 0.78842771 -0.070130579 0.99481827
-1.0295995 0.80905271 -0.07080818 0.99476832
-1.0294628 0.83007812 -0.071510427 0.99471658
-1.0293164 0.8515234 -0.072238043 0.99466294
-1.0289941 0.89577144 -0.073773384 0.99454987
-5.3263083 5.129209 -0.39985466 0.97081327
-5.2612009 5.1955075 -0.39983809 0.97081453
-5.1952929 5.2610059 -0.39982134 0.97081566
-5.1285644 5.3256445 -0.39980438 0.97081685
-5.0610156 5.3894334 -0.39978725 0.9708181
-4.9235449 5.5144434 -0.39975235 0.97082061
-4.8536425 5.5756054 -0.39973456 0.97082198
-4.7116013 5.6953516 -0.39969853 0.97082436
-4.5665526 5.8113866 -0.39966169 0.97082716
-4.4929395 5.8680468 -0.399643 0.97082847
-4.4186425 5.9237399 -0.39962417 0.9708299
-4.3436427 5.9785352 -0.39960513 0.97083122
-4.2679491 6.0323339 -0.39958593 0.97083271
-4.1916404 6.0852051 -0.39956656 0.97083402
-4.1146483 6.1370897 -0.39954704 0.97083539
-4.0370116 6.1880274 -0.39952734 0.97083676
-3.9587207 6.2379394 -0.39950746 0.97083825
-3.8798339 6.2868943 -0.39948744 0.97083962
-3.7202246 6.3817477 -0.39944696 0.9708426
-3.4765234 6.5164256 -0.39938518 0.97084701
-3.3113086 6.6010351 -0.39934328 0.97085011
-3.144043 6.6814647 -0.39930087 0.97085309
-3.0596776 6.720078 -0.39927951 0.97085464
-2.9748242 6.757617 -0.39925799 0.97085625
-2.8037791 6.8295312 -0.39921463 0.97085923
-2.5439551 6.9292088 -0.39914879 0.970864
-2.4565332 6.9602246 -0.39912665 0.97086567
-2.3687694 6.9901657 -0.39910442 0.97086722
-2.2806151 7.0189843 -0.39908206 0.97086883
-2.1920898 7.046699 -0.39905962 0.97087044
-2.1032617 7.0732713 -0.39903715 0.9708721
-1.9246191 7.123086 -0.39899191 0.97087538
-1.6544921 7.1893163 -0.39892349 0.97088033
-1.5639355 7.2091503 -0.39890057 0.97088188
-1.4731445 7.2278223 -0.39887756 0.97088349
-1.3821094 7.2453222 -0.39885452 0.97088528
-1.1994629 7.2769527 -0.39880827 0.9708885
-1.1078613 7.2910252 -0.39878508 0.97089016
-0.83211911 7.3263183 -0.39871529 0.97089517
-0.64767575 7.3440428 -0.39866859 0.97089857
-0.55529296 7.3512011 -0.39864519 0.97090012
-0.46287107 7.3571386 -0.39862183 0.97090191
-0.37035155 7.3619332 -0.3985984 0.97090364
-0.27781248 7.3655758 -0.39857498 0.9709053
-0.18521483 7.3680758 -0.39855155 0.97090691
0 7.3695312 -0.3985047 0.97091031
0.092617184 7.3685055 -0.39848128 0.97091204
0.18518554 7.3663473 -0.39845785 0.97091365
0.27770507 7.362988 -0.39843443 0.97091538
0.3701953 7.3584762 -0.39841107 0.97091711
0.55492187 7.3459959 -0.39836434 0.97092044
0.64715821 7.338027 -0.39834097 0.97092205
1.1976659 7.2658787 -0.39820182 0.97093213
1.2888086 7.2498531 -0.39817873 0.97093368
1.379707 7.232656 -0.39815578 0.9709354
1.4704101 7.2143455 -0.39813286 0.97093701
1.5608495 7.1948829 -0.39810997 0.97093868
1.6510546 7.1742673 -0.39808717 0.97094035
1.7409766 7.1525779 -0.39806449 0.9709419
2.2740331 6.9987206 -0.39792976 0.97095168
2.4489062 6.9385934 -0.39788559 0.9709549
2.5357616 6.9068942 -0.39786366 0.97095644
2.7082422 6.8402538 -0.39782006 0.97095954
2.9127049 7.094902 -0.41472679 0.96974427
3.1681738 7.4492774 -0.43773472 0.9680928
3.7315135 8.4764748 -0.50081033 0.96357977
3.9429295 8.3791409 -0.50075698 0.96358353
4.0476856 8.3284664 -0.50073051 0.96358556
4.3580275 8.1687202 -0.50065219 0.9635911
4.762002 7.9378219 -0.50055021 0.96359837
5.0570312 7.7515426 -0.50047576 0.96360373
5.1537986 7.6870313 -0.50045133 0.96360534
5.3448339 7.5543551 -0.50040317 0.9636088
5.4390721 7.4862204 -0.50037938 0.96361059
5.5324607 7.4169431 -0.50035584 0.9636122
5.7165818 7.2749119 -0.50030941 0.96361548
5.8072653 7.202158 -0.50028652 0.96361715
6.0737596 6.9772067 -0.50021935 0.96362209
6.2466602 6.8217869 -0.50017577 0.96362507
6.3316112 6.7424707 -0.50015438 0.96362662
6.4985056 6.5806832 -0.50011235 0.9636296
6.5804195 6.4982224 -0.50009167 0.96363109
6.6612692 6.4147458 -0.50007135 0.96363258
6.7410741 6.3302927 -0.5000512 0.96363401
6.8198242 6.2448339 -0.50003141 0.96363544
6.8975196 6.1584082 -0.5000118 0.9636367
7.1971288 5.8031836 -0.4999364 0.96364218
7.2692089 5.7120895 -0.49991828 0.96364349
7.3401465 5.6200681 -0.49990043 0.9636448
1.2587793 0.9145605 -0.084137455 0.99378651
1.2589356 0.89071286 -0.083392672 0.99384135
1.2590917 0.86727536 -0.082673684 0.99389428
1.2593652 0.82159179 -0.081309624 0.99399465
1.2596191 0.77733397 -0.080039136 0.99408823
1.2598535 0.73442382 -0.07885582 0.99417537
1.3719823 0.70996094 -0.083533511 0.99383092
1.460791 0.70993161 -0.087826535 0.99351496
1.6127343 0.70994139 -0.095283426 0.99296623
1.7293359 0.70995116 -0.10108623 0.99253947
1.7931151 0.70993161 -0.10428619 0.99230433
1.9337597 0.70994139 -0.11139163 0.99178207
2.0241308 0.71439451 -0.11607154 0.99143833
2.0241406 0.6859082 -0.11556838 0.99147528
2.0241504 0.65768552 -0.11508785 0.99151051
8.8544626 2.63291 -0.49952048 0.9636718
8.8866796 2.5213768 -0.49951243 0.96367252
8.9470119 2.2971971 -0.49949744 0.96367341
9.0268555 1.9582714 -0.49947757 0.9636749
9.0506544 1.8446581 -0.49947169 0.96367526
9.0939455 1.6166015 -0.49946097 0.9636761
9.1315432 1.3875293 -0.4994517 0.96367669
9.1633787 1.1575977 -0.49944389 0.96367729
9.1894331 0.92694336 -0.49943754 0.96367782
9.2097263 0.69570309 -0.49943265 0.96367824
9.2293549 0.34809569 -0.49942806 0.96367842
9.2329683 0.23208983 -0.49942726 0.96367854
9.2351561 0.11606445 -0.49942684 0.96367854
9.2358885 -1.953125e-05 -0.49942678 0.96367854
9.2351656 -0.11606445 -0.49942711 0.96367848
9.209775 -0.69572264 -0.49943411 0.963678
9.1771679 -1.0423633 -0.49944273 0.96367741
9.1634178 -1.1576074 -0.49944633 0.96367711
9.1316013 -1.3875488 -0.49945465 0.96367645
9.1134958 -1.5021973 -0.49945933 0.96367627
9.0939846 -1.616621 -0.49946439 0.96367592
9.0730562 -1.7307812 -0.49946982 0.9636755
8.947051 -2.2972167 -0.49950227 0.96367323
8.8867769 -2.5214159 -0.49951777 0.9636721
2.0241406 -0.68592775 -0.11556858 0.99147522
2.0241406 -0.71440428 -0.1160714 0.99143827
1.8611034 -0.70995116 -0.10771263 0.99205244
1.7293066 -0.70996094 -0.10108528 0.99253958
1.5087304 -0.70996094 -0.090164334 0.99334282
1.4152539 -0.70994139 -0.085619085 0.99367744
1.3719727 -0.70994139 -0.083533019 0.99383098
1.3307421 -0.70995116 -0.081558913 0.99397629
1.2913965 -0.70995116 -0.079688147 0.99411404
1.2597265 -0.75572264 -0.079437025 0.99413258
1.2594824 -0.79929686 -0.080663033 0.99404228
1.2592285 -0.84425777 -0.081979677 0.9939453
1.2589356 -0.89073241 -0.083392598 0.99384129
1.2587988 -0.9145605 -0.08413738 0.99378645
5.1202049 -3.9203515 -0.34871161 0.97449833
5.7185936 -4.6110058 -0.39723173 0.97100186
5.5413475 -4.8238282 -0.39727682 0.97099859
5.4187989 -4.9619431 -0.39730796 0.97099638
5.3562498 -5.0298533 -0.39732388 0.97099519
3.7231543 -3.8662305 -0.290243 0.97872829
3.6424901 -3.8788574 -0.28773203 0.97891039
4.7561913 -5.6043262 -0.39747626 0.97098434
4.6856055 -5.6639352 -0.39749423 0.97098297
4.6142673 -5.7226267 -0.39751232 0.97098166
4.4694238 -5.8373141 -0.39754912 0.97097898
4.3217087 -5.9483495 -0.39758658 0.97097635
4.2468262 -6.0024705 -0.39760557 0.97097498
4.0950584 -6.1078806 -0.3976441 0.97097218
4.0181737 -6.1591601 -0.39766359 0.97097081
3.8625195 -6.2588282 -0.39770308 0.97096789
3.7043943 -6.3545313 -0.39774323 0.97096509
3.5438867 -6.446279 -0.39778388 0.97096217
3.4627733 -6.4906445 -0.39780447 0.97096068
3.3811133 -6.5340037 -0.39782515 0.97095913
3.2988865 -6.5763083 -0.39784601 0.9709577
3.1329393 -6.6578317 -0.39788809 0.97095466
2.9649413 -6.7351856 -0.39793068 0.97095162
2.880244 -6.7722654 -0.39795214 0.97095007
2.7094531 -6.8432617 -0.39799544 0.97094691
2.623369 -6.8771482 -0.39801726 0.97094536
2.536875 -6.9099317 -0.39803916 0.97094387
2.275039 -7.0018163 -0.39810553 0.97093904
2.1870019 -7.0302539 -0.39812782 0.97093737
2.0985839 -7.0575681 -0.39815024 0.97093582
2.0098534 -7.0837889 -0.39817268 0.97093415
1.9208105 -7.1088767 -0.39819527 0.97093254
1.741709 -7.1557126 -0.39824063 0.97092938
1.6517675 -7.1774511 -0.39826339 0.97092766
1.5615526 -7.1980567 -0.39828625 0.97092599
1.3803222 -7.2358789 -0.39833212 0.97092265
1.289336 -7.2530565 -0.39835516 0.97092104
1.1981738 -7.2691112 -0.39837825 0.97091937
0.92351562 -7.3103805 -0.39844778 0.97091436
0.83163083 -7.3218164 -0.39847106 0.97091275
0.73959959 -7.3321285 -0.39849433 0.97091109
0.64745116 -7.341279 -0.39851764 0.97090936
0.46280274 -7.3560839 -0.39856437 0.97090602
0.37036133 -7.3617673 -0.39858779 0.97090429
0.18524414 -7.3696189 -0.39863464 0.97090089
0.092636719 -7.3717871 -0.39865807 0.97089928
-0.09264648 -7.3726463 -0.39870495 0.97089595
-0.18530273 -7.3713379 -0.39872837 0.97089422
-0.27793944 -7.3688574 -0.39875183 0.97089255
-0.55557615 -7.3544431 -0.39882201 0.97088748
-0.92459959 -7.3189549 -0.39891535 0.97088075
-1.1999902 -7.2801757 -0.39898497 0.9708758
-1.2914746 -7.2649512 -0.39900813 0.97087407
-1.3827343 -7.2485352 -0.39903116 0.97087252
-1.6552441 -7.1925192 -0.39910007 0.97086751
-1.7455957 -7.1715722 -0.39912292 0.97086585
-1.8356543 -7.1494627 -0.39914569 0.9708643
-1.9254785 -7.1262403 -0.3991684 0.97086263
-2.0149901 -7.1018848 -0.39919102 0.97086102
-2.1041894 -7.076416 -0.39921355 0.97085935
-2.1930664 -7.0498047 -0.39923599 0.97085774
-2.4576268 -6.9633102 -0.39930287 0.97085291
-2.5450683 -6.9322653 -0.39932495 0.97085136
-2.632129 -6.9000974 -0.39934692 0.97084981
-2.8050096 -6.8325391 -0.39939061 0.97084659
-2.8908007 -6.7971191 -0.39941227 0.97084504
-3.8020215 -6.3376169 -0.39964232 0.97082841
-4.0387692 -6.1907325 -0.39970207 0.97082418
-4.269834 -6.0349708 -0.39976037 0.97082013
-4.3455372 -5.9811425 -0.39977944 0.9708187
-4.4949021 -5.870615 -0.39981711 0.9708159
-4.5685449 -5.8139257 -0.39983565 0.97081459
-4.6414256 -5.7562985 -0.39985403 0.97081339
-4.713613 -5.6978025 -0.39987227 0.97081202
-3.7011328 -4.0419335 -0.29635558 0.97828531
-5.1308007 -5.3279591 -0.39997742 0.97080433
-5.1975584 -5.2632909 -0.39999422 0.97080314
-1.0286816 -0.9419629 -0.07542377 0.99442822
-1.0291504 -0.87341797 -0.072991945 0.99460745
-1.0294628 -0.8300879 -0.071510196 0.99471653
-1.0296093 -0.80905271 -0.070808142 0.99476826
-1.0297461 -0.78844726 -0.070130497 0.99481815
-1.0298632 -0.76819336 -0.069476202 0.99486649
-1.0299902 -0.74834961 -0.068844944 0.99491292
-1.0301074 -0.72881836 -0.068235397 0.99495792
-1.0306543 -0.70995116 -0.067675434 0.99499917
-1.0589062 -0.70994139 -0.068938442 0.99490607
-1.0882226 -0.70995116 -0.070260927 0.99480861
-1.1503906 -0.70995116 -0.073099665 0.99459946
-1.2178613 -0.70996094 -0.076227762 0.99436891
-1.2537891 -0.70994139 -0.07791359 0.99424487
-1.5087206 -0.70995116 -0.090164565 0.99334288
-1.5592675 -0.70996094 -0.0926461 0.99316031
-1.6126952 -0.70996094 -0.095283128 0.99296635
-1.7292968 -0.70995116 -0.10108577 0.99253958
-1.7878808 -0.70788085 -0.1039814 0.99232668
-1.7878125 -0.6819824 -0.10347023 0.99236423
-1.7877148 -0.65634763 -0.10298023 0.99240035
-8.9000683 -2.7686522 -0.50401813 0.96335089
-8.9671383 -2.544209 -0.50403488 0.9633497
-8.9985151 -2.4313574 -0.50404269 0.96334922
-9.0570602 -2.2045312 -0.50405723 0.96334809
-9.0841599 -2.0905664 -0.50406396 0.96334767
-9.1340332 -1.8616797 -0.50407636 0.96334684
-9.1568165 -1.7467577 -0.50408202 0.96334642
-9.1781349 -1.6315722 -0.50408727 0.96334606
-9.1980171 -1.5161328 -0.50409216 0.96334565
-9.2164154 -1.4004296 -0.50409669 0.96334535
-9.2333889 -1.2845215 -0.50410086 0.96334493
-9.248867 -1.1684082 -0.50410467 0.96334469
-9.2628708 -1.0520996 -0.50410807 0.96334451
-9.2864943 -0.8189941 -0.50411385 0.9633441
-9.2960835 -0.70224607 -0.50411612 0.96334398
-9.3042479 -0.58538085 -0.50411808 0.96334368
-9.3108492 -0.4684082 -0.50411958 0.96334374
-9.3160353 -0.35136718 -0.50412077 0.96334362
-9.3197365 -0.23427734 -0.5041216 0.9633435
-9.3219528 -0.11714844 -0.50412202 0.9633435
-8.8642673 0.11138672 -0.50400597 0.96510619
-8.8621578 0.22277343 -0.50400537 0.96510625
-8.8396482 0.66775388 -0.50399917 0.96510673
-8.8305664 0.77877927 -0.50399679 0.96510667
-8.8199997 0.8896777 -0.50399399 0.96510702
-8.7947359 1.1110253 -0.50398731 0.9651075
-8.7072458 1.6609863 -0.5039646 0.96510893
-8.6855764 1.7702637 -0.50395906 0.96510935
-8.5852346 2.2043164 -0.50393319 0.96511108
-8.5567188 2.3119922 -0.50392586 0.96511161
-8.4631348 2.6327245 -0.50390184 0.9651131
-8.3939743 2.8444726 -0.50388414 0.96511447
-8.3574123 2.9496582 -0.50387472 0.96511513
-1.7886816 0.68230468 -0.10884017 0.9923594
-1.7293261 0.70996094 -0.10628063 0.99253833
-1.6692871 0.70995116 -0.1031324 0.99275869
-1.6127245 0.70995116 -0.10018028 0.99296516
-1.5592773 0.70993161 -0.097407609 0.99315929
-1.5087206 0.70995116 -0.09479858 0.99334186
-1.4152734 0.70995116 -0.090019494 0.99367642
-1.3719823 0.70996094 -0.087826386 0.99382997
-1.3307226 0.70995116 -0.085750729 0.99397546
-1.2913965 0.70995116 -0.083783984 0.99411315
-1.2537988 0.70995116 -0.081918143 0.99424392
-1.2178613 0.70994139 -0.080145679 0.99436808
-1.1834277 0.70995116 -0.078460574 0.99448615
-1.1503906 0.70995116 -0.076856688 0.99459863
-1.1187011 0.70995116 -0.075328708 0.99470568
-1.0882324 0.70994139 -0.073871799 0.99480778
-1.0588964 0.70995116 -0.072481498 0.99490529
-1.0294141 0.72833985 -0.071694143 0.99496049
-1.0291699 0.76768553 -0.072997279 0.99486911
-1.0288965 0.80848628 -0.074395292 0.99477112
-1.0287597 0.82949215 -0.075132594 0.99471939
-1.0285742 0.85092771 -0.075896449 0.99466592
-1.0284375 0.87279296 -0.07668823 0.99461037
-1.0281055 0.91793942 -0.078359261 0.99449325
-5.1262207 4.8138571 -0.39980438 0.97221911
-5.0651269 4.8776855 -0.3997888 0.97222024
-4.9405761 5.003037 -0.39975718 0.97222233
-4.8771091 5.0645313 -0.39974105 0.97222346
-4.74791 5.1850681 -0.39970824 0.97222567
-4.6157322 5.3022947 -0.39967468 0.97222799
-4.2727342 5.5804491 -0.39958763 0.97223395
-4.1307907 5.6855369 -0.39955157 0.97223645
-3.9130273 5.8363867 -0.39949635 0.97224021
-3.8391991 5.8848243 -0.3994776 0.97224146
-3.5380077 6.0691404 -0.39940119 0.97224665
-3.3840332 6.1555271 -0.39936215 0.97224933
-3.3062303 6.1972461 -0.39934242 0.97225076
-3.2279296 6.237998 -0.39932257 0.97225213
-3.1491406 6.2777734 -0.3993026 0.97225344
-2.9098437 6.3910351 -0.39924192 0.97225755
-2.82916 6.4267673 -0.39922148 0.97225899
-2.6664941 6.4951463 -0.39918026 0.97226185
-2.5845313 6.5278125 -0.39915946 0.97226322
-2.1689746 6.6754489 -0.39905417 0.97227049
-2.0848143 6.7018261 -0.39903289 0.97227192
-1.7450781 6.7966404 -0.39894682 0.97227782
-1.659453 6.817656 -0.39892513 0.97227931
-1.4874219 6.8564744 -0.39888155 0.97228223
-1.3145117 6.8909082 -0.3988378 0.97228533
-1.2277637 6.9065232 -0.39881584 0.97228676
-1.0536816 6.9344234 -0.39877173 0.9722898
-0.44025388 6.9974508 -0.39861646 0.97230041
-0.17616211 7.0078907 -0.39854965 0.97230506
-0.088085935 7.00915 -0.39852735 0.97230661
1.953125e-05 7.009336 -0.39850509 0.97230804
0.17612304 7.0063281 -0.39846054 0.97231114
0.35211912 6.9988961 -0.39841601 0.97231424
0.6155566 6.9795117 -0.39834937 0.97231865
0.79066402 6.9610448 -0.39830512 0.97232181
1.0522851 6.9251561 -0.39823893 0.97232628
1.1391504 6.9110055 -0.39821696 0.97232783
1.2258496 6.8957715 -0.39819506 0.97232926
1.3986034 6.8620214 -0.3981514 0.9723323
1.5704395 6.8239646 -0.39810798 0.97233528
1.655957 6.8033299 -0.39808634 0.97233677
1.9952734 6.7100778 -0.3980006 0.97234267
2.0793066 6.6841211 -0.39797935 0.9723441
2.4942675 6.538662 -0.3978745 0.97235125
2.6639843 6.7283983 -0.41142491 0.97142321
2.8917089 7.0436816 -0.43289185 0.96995479
3.1552148 7.4188085 -0.45834705 0.96821642
3.5494432 8.0628805 -0.50085682 0.96532041
3.6503026 8.0172749 -0.50083143 0.96532202
3.8502343 7.9222069 -0.50078088 0.96532542
3.9492674 7.8727832 -0.50075591 0.96532726
4.2425876 7.7172165 -0.50068188 0.96533221
4.7176657 7.4338083 -0.50056195 0.96534032
4.8104687 7.3735838 -0.50053853 0.96534199
5.0842576 7.1860447 -0.50046951 0.96534669
5.1739259 7.1212792 -0.50044686 0.96534818
5.2627635 7.0553708 -0.50042444 0.96534973
5.3507519 6.9883785 -0.50040227 0.96535128
5.4379296 6.9202929 -0.50038028 0.96535271
5.5242186 6.8511229 -0.50035852 0.96535414
5.6096191 6.780859 -0.500337 0.96535569
5.6941309 6.7095313 -0.50031567 0.96535724
5.7777734 6.6371875 -0.50029463 0.96535856
6.0230856 6.4139256 -0.50023282 0.96536273
6.1029491 6.337461 -0.50021267 0.96536416
6.2597852 6.1816015 -0.50017315 0.96536684
6.4126658 6.0218945 -0.50013465 0.9653694
6.5614648 5.8583789 -0.50009716 0.96537209
6.634336 5.7752829 -0.5000788 0.96537322
6.8465624 5.5205173 -0.50002539 0.96537685
6.9151559 5.4338574 -0.50000817 0.96537805
6.982666 5.3463573 -0.49999115 0.96537918
1.2577734 0.93819332 -0.089211956 0.99373305
1.257959 0.91393554 -0.088401757 0.99378967
1.2582617 0.86670899 -0.086864658 0.99389732
1.2585449 0.82103515 -0.085432582 0.99399769
1.2589356 0.75523436 -0.083466068 0.99413538
1.2913965 0.70995116 -0.083783798 0.99411315
1.3719823 0.70995116 -0.087826192 0.99382997
1.5593066 0.70994139 -0.097407147 0.99315917
1.7931151 0.70993161 -0.10964561 0.99230313
1.861123 0.70994139 -0.11324897 0.99205118
1.9337597 0.70994139 -0.11711582 0.99178082
2.0240428 0.71435547 -0.12203231 0.99143738
2.0240722 0.68588865 -0.12150295 0.99147421
8.3914843 2.6104393 -0.49963763 0.96540332
8.4235058 2.5047557 -0.49962965 0.9654038
8.5115814 2.1854002 -0.49960768 0.96540517
8.5382423 2.0782323 -0.4996011 0.9654057
8.5875587 1.8629785 -0.49958885 0.96540654
8.669961 1.429082 -0.49956843 0.96540791
8.6871481 1.3200195 -0.4995642 0.96540827
8.7174606 1.1012695 -0.49955675 0.96540868
8.7422657 0.88183594 -0.49955073 0.96540916
8.7526264 0.77190429 -0.49954823 0.96540928
8.7691889 0.551709 -0.49954429 0.96540958
8.7802439 0.3311621 -0.4995417 0.9654097
8.7836714 0.22080077 -0.49954095 0.96540987
8.7857323 0.11040039 -0.49954054 0.96540993
8.7864552 9.7656248e-06 -0.49954048 0.96540982
8.7857618 -0.11041992 -0.49954078 0.96540982
8.7802534 -0.33118165 -0.49954242 0.96540964
8.7526369 -0.77192384 -0.49954987 0.96540922
8.7422848 -0.88184571 -0.49955261 0.9654091
8.7174807 -1.1012695 -0.49955907 0.96540862
8.7030373 -1.2107617 -0.49956289 0.96540827
8.6700001 -1.4291016 -0.49957147 0.96540773
8.511611 -2.1854198 -0.49961233 0.96540505
8.483633 -2.2922461 -0.49961954 0.96540439
8.391592 -2.6104882 -0.49964318 0.96540284
2.0240722 -0.68591797 -0.12150349 0.99147421
1.8611034 -0.70995116 -0.11324814 0.99205124
1.7931249 -0.70995116 -0.10964481 0.99230307
1.7293066 -0.70995116 -0.10628017 0.99253845
1.6692871 -0.70996094 -0.10313156 0.99275869
1.5087304 -0.70996094 -0.094798125 0.9933418
1.4608008 -0.70995116 -0.092339285 0.99351388
1.3719823 -0.70995116 -0.087825544 0.99382997
1.3307421 -0.70995116 -0.085750349 0.99397534
1.2591602 -0.71297848 -0.082267493 0.99421942
1.2587988 -0.77684569 -0.084098391 0.99409115
1.2585449 -0.82106441 -0.085432433 0.99399763
1.258418 -0.84369141 -0.086135939 0.99394834
1.2581054 -0.89014649 -0.087619551 0.99384439
5.1137986 -4.0183787 -0.36975864 0.9742797
5.3284864 -4.5220604 -0.39733034 0.97238845
5.2714157 -4.5888281 -0.39734486 0.97238749
5.1548047 -4.7202048 -0.39737448 0.97238553
4.9119139 -4.9740038 -0.3974362 0.97238129
3.7231543 -3.8662305 -0.30515847 0.97872508
3.604121 -3.9359667 -0.3034167 0.97884524
4.6565428 -5.2153807 -0.39750111 0.97237682
4.5908298 -5.2737012 -0.39751777 0.97237569
4.4572167 -5.3878613 -0.39755172 0.97237343
4.3893652 -5.4436817 -0.39756897 0.97237217
4.251543 -5.5527539 -0.3976039 0.97236979
4.1816306 -5.6059961 -0.39762169 0.97236854
4.1110449 -5.6583591 -0.39763957 0.97236729
3.9679101 -5.7604098 -0.39767593 0.97236484
3.7485058 -5.9066892 -0.39773154 0.97236103
3.523711 -6.0446386 -0.39778858 0.97235715
3.2938769 -6.1740723 -0.39784685 0.9723531
3.2161815 -6.2152829 -0.39786655 0.97235173
3.1380076 -6.2554979 -0.3978864 0.97235042
3.0592871 -6.2947559 -0.39790633 0.97234905
2.6586719 -6.4760838 -0.39800787 0.97234213
2.4131055 -6.5727148 -0.39807013 0.97233784
2.33041 -6.6028709 -0.39809108 0.97233641
2.1639843 -6.6600389 -0.39813322 0.97233355
2.0802343 -6.6870604 -0.39815447 0.97233212
1.9961425 -6.713037 -0.39817578 0.97233063
1.656709 -6.8063378 -0.39826176 0.97232467
1.4852734 -6.8465524 -0.39830515 0.97232181
1.3992089 -6.8650584 -0.39832693 0.97232026
1.3129003 -6.8824801 -0.39834881 0.97231877
1.2263867 -6.8987985 -0.39837074 0.97231728
1.139668 -6.914072 -0.39839268 0.97231567
1.0527539 -6.9282227 -0.39841467 0.97231418
0.70346677 -6.9739161 -0.39850309 0.97230816
0.26424804 -7.006289 -0.39861426 0.97230047
0.08811523 -7.0114746 -0.39865881 0.97229755
-1.953125e-05 -7.0124121 -0.3986811 0.97229606
-0.17624024 -7.0109863 -0.39872569 0.97229296
-0.44043943 -7.0005565 -0.39879254 0.97228831
-0.61629879 -6.9880371 -0.398837 0.97228533
-0.79177731 -6.9711227 -0.39888138 0.97228229
-0.87937498 -6.9610157 -0.39890358 0.97228074
-0.96682614 -6.9497852 -0.39892566 0.97227931
-1.4016894 -6.8772755 -0.3990356 0.97227168
-1.5742577 -6.8406348 -0.3990792 0.97226864
-1.6601758 -6.8206539 -0.39910093 0.97226727
-2.085752 -6.7047653 -0.39920849 0.97225988
-2.5032713 -6.5623145 -0.39931396 0.97225261
-2.7492578 -6.4642968 -0.39937609 0.97224844
-2.8304198 -6.4295797 -0.39939657 0.97224694
-2.9913867 -6.3570604 -0.39943725 0.97224426
-3.0712011 -6.3192773 -0.3994574 0.97224289
-3.1505175 -6.2805076 -0.39947742 0.97224152
-3.2293553 -6.2407422 -0.39949733 0.97224009
-3.3076952 -6.1999803 -0.39951709 0.97223872
-3.385498 -6.1582322 -0.39953673 0.97223735
-3.6913671 -5.9814744 -0.39961395 0.97223216
-3.9147363 -5.8389454 -0.39967027 0.97222823
-3.9879882 -5.7895603 -0.39968875 0.97222692
-4.0605955 -5.7392478 -0.39970711 0.97222573
-4.2746091 -5.5828805 -0.39976105 0.97222203
-4.4139552 -5.4741797 -0.39979622 0.97221959
-4.4825683 -5.4185057 -0.39981353 0.97221845
-4.550498 -5.3619823 -0.39983061 0.97221732
-4.6177344 -5.3046093 -0.39984757 0.97221607
-3.7011328 -4.0419431 -0.31158537 0.97828197
-3.7329395 -3.9751756 -0.31003085 0.97838908
-4.9427147 -5.0052147 -0.39992949 0.97221047
-5.0054002 -4.9429002 -0.39994529 0.97220945
-5.1284375 -4.815918 -0.39997625 0.97220731
-1.0280957 -0.91793942 -0.078359142 0.99449331
-1.0284277 -0.87278318 -0.076688036 0.99461043
-1.0286034 -0.85092771 -0.075896487 0.99466586
-1.0287402 -0.8295117 -0.075132594 0.99471939
-1.0288965 -0.80851561 -0.074395448 0.994771
-1.029043 -0.78790039 -0.073684044 0.99482095
-1.0291797 -0.76768553 -0.072997093 0.99486905
-1.0293164 -0.74784178 -0.072334021 0.99491554
-1.1186913 -0.70995116 -0.075328365 0.99470568
-1.1834179 -0.70995116 -0.078460008 0.99448621
-1.2178613 -0.70996094 -0.080145068 0.99436808
-1.2537891 -0.70994139 -0.081917569 0.99424398
-1.460791 -0.70996094 -0.092339478 0.99351394
-1.5087206 -0.70995116 -0.094798125 0.99334186
-1.5592675 -0.70996094 -0.097407147 0.99315929
-1.7887597 -0.7082324 -0.10937824 0.99232173
-1.7885742 -0.65665036 -0.10832432 0.99239552
-8.4292774 -2.7388475 -0.50389898 0.96511352
-8.4632025 -2.6327538 -0.50390744 0.96511286
-8.4957514 -2.5262499 -0.50391561 0.96511227
-8.5269728 -2.4193163 -0.50392336 0.96511173
-8.6382132 -1.9879394 -0.50395107 0.96510988
-8.6625977 -1.8792578 -0.50395709 0.96510959
-8.7275581 -1.5514648 -0.50397319 0.96510845
-8.7639456 -1.3316895 -0.50398213 0.96510786
-8.794795 -1.1110449 -0.50398976 0.96510726
-8.808115 -1.0004394 -0.50399297 0.96510702
-8.8305759 -0.77878904 -0.50399846 0.96510667
-8.8474312 -0.55663085 -0.50400245 0.96510637
-8.8537397 -0.44541013 -0.50400394 0.96510631
-8.8586721 -0.33413085 -0.50400507 0.96510619
-8.8621578 -0.22278319 -0.50400585 0.96510625
-8.449316 0.10618164 -0.503901 0.96670687
-8.4472952 0.21235351 -0.50390041 0.96670693
-8.4439449 0.31847656 -0.50389946 0.96670699
-8.4332228 0.53057617 -0.50389653 0.96670717
-8.4258595 0.63650388 -0.50389451 0.96670729
-8.4171486 0.74232417 -0.50389218 0.96670747
-8.3830471 1.0590234 -0.50388324 0.96670806
-8.3690233 1.1642773 -0.50387955 0.96670824
-8.353652 1.2693359 -0.50387555 0.9667086
-8.2790232 1.6874022 -0.50385624 0.96670973
-8.2570801 1.791289 -0.50385058 0.96671009
-8.2338181 1.894873 -0.50384462 0.96671051
-8.0979977 2.4079688 -0.50380969 0.96671289
-8.0346975 2.610625 -0.50379348 0.96671385
-8.0011034 2.7113476 -0.50378484 0.96671444
-1.7894434 0.65697265 -0.1136755 0.99239063
-1.7895215 0.68264645 -0.11421715 0.99235457
-1.7896289 0.70855469 -0.1147818 0.99231684
-1.7293066 0.70994139 -0.1114772 0.99253726
-1.5087206 0.70995116 -0.099433593 0.99334079
-1.460791 0.70995116 -0.096854702 0.99351287
-1.4152734 0.70995116 -0.094420813 0.99367541
-1.3719823 0.70996094 -0.092120439 0.99382895
-1.3307323 0.70994139 -0.089943618 0.99397445
-1.2913965 0.70995116 -0.087880515 0.99411219
-1.2178613 0.70994139 -0.084064141 0.99436718
-1.1503906 0.70995116 -0.08061447 0.99459773
-1.1187011 0.70995116 -0.079011954 0.99470478
-1.0588964 0.70995116 -0.076025426 0.99490452
-1.0287402 0.72785157 -0.075149417 0.99496305
-1.0285938 0.74733394 -0.075819664 0.99491823
-1.0284668 0.76714844 -0.076514125 0.9948718
-1.0283399 0.78735352 -0.077233583 0.99482363
-1.0278614 0.85033202 -0.079551123 0.99466878
-1.027539 0.89447266 -0.081239775 0.99455589
-1.0273731 0.91726559 -0.082130581 0.99449635
-4.7693262 4.7097654 -0.39971414 0.9734984
-4.6490917 4.827754 -0.39968359 0.97350049
-4.5878806 4.8856153 -0.39966807 0.97350144
-4.5259767 4.9426951 -0.39965236 0.9735024
-4.3999705 5.0544629 -0.39962035 0.97350454
-4.3359275 5.1091208 -0.39960411 0.97350568
-4.2712011 5.1629977 -0.39958766 0.97350675
-4.0730467 5.3196583 -0.39953735 0.97351003
-3.9377539 5.4198632 -0.39950302 0.97351223
-3.8691602 5.4686813 -0.39948562 0.97351342
