# .PCD v0.7 - Point Cloud Data file format
VERSION 0.7
FIELDS x y z intensity
SIZE 4 4 4 4
TYPE F F F F
COUNT 1 1 1 1
WIDTH 1095
HEIGHT 1
VIEWPOINT 0 0 0 1 0 0 0
POINTS 1095
DATA ascii
-0.7495898 8.4995022 0.53254646 0.96638173
-0.6454199 8.5441799 0.5347957 0.96624219
1.3395996 0.9477734 0.10241847 0.99344492
1.338955 0.92229491 0.10147613 0.99350506
1.3383594 0.89730465 0.10056774 0.993563
1.3371972 0.84861326 0.098847084 0.99367279
1.3366601 0.82488281 0.098032951 0.99372476
1.3361425 0.80155271 0.097247809 0.99377483
1.335166 0.75599605 0.095762216 0.99386954
1.3342481 0.7118066 0.09438286 0.99395758
1.5087304 0.70996094 0.10407005 0.9933396
1.6127441 0.70996094 0.10997829 0.99296278
1.6693262 0.70996094 0.11321918 0.99275613
1.7293261 0.70995116 0.1166756 0.99253589
1.7931445 0.70993161 0.12036945 0.99230051
1.9066113 0.69997066 0.12676403 0.99189305
1.9070801 0.67307615 0.12622403 0.9919275
20.684805 4.4873338 1.321053 0.91866982
1.9070898 -0.6730957 0.12622394 0.99192744
1.8611327 -0.70996094 0.12432446 0.9920485
1.6693066 -0.70994139 0.11321827 0.99275625
1.5087402 -0.70994139 0.1040694 0.9933396
1.460791 -0.70994139 0.10137077 0.9935118
1.4152734 -0.70994139 0.098823279 0.99367434
1.3720019 -0.70994139 0.096415401 0.99382788
1.3346679 -0.73373044 0.095059663 0.99391448
1.3356347 -0.77858394 0.096491277 0.99382311
1.3361425 -0.80155271 0.097247772 0.99377483
1.3383594 -0.89730465 0.10056747 0.993563
1.3395996 -0.94776362 0.10241836 0.99344492
11.662373 -8.6992188 0.90808988 0.94335634
11.558223 -8.8497267 0.90857041 0.94332743
4.5241404 -8.2293997 0.58612978 0.96306241
4.2565818 -8.2258348 0.57807195 0.96356076
4.1255078 -8.2240963 0.57426083 0.96379662
3.9873242 -8.2042723 0.56933248 0.96410161
3.8632617 -8.4849949 0.58189046 0.96332455
3.8681445 -8.7868843 0.59921265 0.96225363
3.8310156 -9.0078125 0.61094624 0.96152884
-11.319004 -20.589209 1.466444 0.91013294
-11.313311 -19.979897 1.433061 0.91208607
-11.32082 -18.870859 1.3734909 0.91558152
-11.332402 -18.363031 1.3467894 0.9171527
-11.226816 -17.208775 1.282426 0.92095113
-13.051132 -19.466133 1.4627529 0.91034847
-12.95166 -18.802538 1.4249848 0.91255766
-14.504961 -18.944277 1.4891758 0.90880561
-15.659374 -18.928936 1.5333046 0.90623391
-4.022666 -3.9724607 0.35285962 0.9775967
-1.0981152 -0.88544917 0.088044852 0.99436247
-1.0975 -0.86242187 0.087119214 0.99442154
-1.0968945 -0.83989257 0.086227261 0.99447846
-1.0963086 -0.81779295 0.085367657 0.99453342
-1.0957714 -0.79614258 0.084538609 0.99458635
-1.0947363 -0.7540918 0.082969055 0.99468654
-1.09375 -0.71358395 0.081510164 0.99477971
-1.1186817 -0.70995116 0.082695842 0.99470401
-1.1503906 -0.70996094 0.08437328 0.99459684
-1.2178124 -0.70994139 0.087983817 0.99436641
-1.2537891 -0.70994139 0.089929499 0.99424207
-1.2913574 -0.70994139 0.09197773 0.99411136
-1.3719434 -0.70995116 0.096415669 0.99382812
-1.6978809 -0.72212887 0.11515865 0.99263263
-1.6989062 -0.67264646 0.11404369 0.99270362
-1.6993651 -0.64827144 0.11351971 0.99273705
-1.7036523 0.64990234 0.10873669 0.99272007
-1.7027344 0.69906247 0.10976444 0.99265146
-1.6126952 0.70995116 0.10507877 0.99296415
-1.5087109 0.70997071 0.099433593 0.99334079
-1.3307226 0.70995116 0.089943461 0.99397445
-1.2913672 0.70995116 0.087880403 0.99411231
-1.2178417 0.70994139 0.084064253 0.99436724
-1.1503906 0.70995116 0.080614701 0.99459773
-1.0916699 0.73192382 0.078378603 0.99474722
-1.0921386 0.7522949 0.079084888 0.99470001
-1.0947851 0.86027342 0.083030812 0.99443626
-1.0953516 0.88323241 0.083910599 0.99437749
-1.0959766 0.90666991 0.084823452 0.99431652
-12.445136 11.686777 1.0180736 0.93387717
-12.24956 11.796249 1.0141231 0.93412524
-11.862763 12.012763 1.006781 0.93458611
-10.917753 12.541738 0.99158812 0.93554091
-10.731943 12.645752 0.98906845 0.93569922
-10.54708 12.749248 0.98672026 0.93584698
-10.363066 12.852256 0.98453563 0.93598431
-10.179794 12.954823 0.98251414 0.93611145
-9.8154297 13.158809 0.97896194 0.93633485
-9.63414 13.260273 0.97742611 0.93643159
-9.2731638 13.462343 0.97482967 0.93659496
-8.9138861 13.663457 0.97286206 0.93671894
-8.55583 13.863896 0.97151154 0.93680382
-8.3771095 13.963925 0.97106642 0.93683177
-8.1985159 14.063896 0.97077668 0.93685001
-7.8415232 14.26373 0.97065902 0.93685758
-7.6630173 14.363662 0.97082669 0.93684685
-6.9474802 14.764199 0.97304517 0.9367072
-6.5880175 14.96541 0.97508347 0.93657893
-6.4076953 15.066357 0.97633851 0.93650001
-6.2268357 15.167587 0.97775006 0.9364112
-6.0454493 15.269121 0.9793188 0.93631238
-5.8634567 15.371005 0.98105192 0.93620348
-5.6807618 15.473271 0.98294246 0.93608445
-5.4973536 15.575937 0.98499858 0.93595517
-5.3131442 15.679043 0.98721981 0.93581551
-5.1280761 15.782646 0.98960614 0.93566543
-4.9420896 15.886758 0.99216139 0.93550473
-4.7550974 15.991435 0.99488902 0.93533337
-4.2748046 16.649296 1.0250562 0.9334392
-4.259131 17.49832 1.0739474 0.9303776
-4.167695 19.211395 1.1722851 0.92424995
-2.6545312 16.104599 0.97333324 0.93668932
-2.4504395 16.12664 0.97272551 0.93672746
-1.8328613 16.137197 0.96850294 0.93699324
-0.85878903 8.5137691 0.51028007 0.9662925
-0.74958009 8.4995022 0.50882143 0.96638727
-0.64544922 8.5443163 0.51097882 0.96624726
-1.2656348 20.116709 1.2019987 0.92240661
1.335791 0.92010742 0.096725345 0.99352151
1.3341211 0.84663081 0.094225116 0.99368846
1.3330957 0.79972655 0.092703968 0.99379003
1.3321387 0.75430661 0.091291048 0.99388438
1.3312988 0.71023434 0.089978978 0.99397188
1.4153028 0.70996094 0.094420962 0.99367529
1.5087304 0.70996094 0.099433817 0.99334073
1.6127245 0.70996094 0.10507843 0.99296403
1.6693262 0.70996094 0.10817485 0.99275738
1.7293457 0.70996094 0.11147746 0.99253708
1.8611327 0.70994139 0.11878635 0.99204987
1.9113574 0.70170897 0.12141819 0.99187434
1.9118164 0.6747461 0.12089908 0.99190891
1.9117968 -0.67476559 0.12089893 0.99190897
1.9113379 -0.70171875 0.12141781 0.9918744
1.7931347 -0.70995116 0.11500598 0.99230182
1.6693066 -0.70993161 0.10817417 0.9927575
1.5593066 -0.70994139 0.10216945 0.99315804
1.5087402 -0.70994139 0.09943302 0.99334073
1.3316991 -0.73210937 0.090622477 0.99392903
1.3321387 -0.75430661 0.091290817 0.99388438
1.3326172 -0.77683592 0.091984555 0.99383807
1.3331054 -0.79972655 0.092704199 0.99378997
1.3346484 -0.8707031 0.095028229 0.99363482
1.3358008 -0.92011714 0.096725538 0.99352145
11.662207 -8.6990814 0.86762053 0.94336647
4.6505275 -8.2130804 0.56283915 0.96288586
4.5241599 -8.2293797 0.56001461 0.96306854
4.3894529 -8.2275829 0.55609548 0.96332222
4.2566013 -8.2258301 0.55231816 0.96356684
4.1255078 -8.2240915 0.54867572 0.96380264
3.8632812 -8.4849901 0.55596596 0.96333063
3.9653709 -22.306562 1.3510666 0.91321301
-11.319365 -21.874662 1.4687841 0.90601957
-11.315663 -21.210199 1.4335785 0.90816391
-11.319004 -20.589224 1.4011121 0.91014737
-11.3133 -19.979906 1.3692137 0.9121002
-11.32084 -18.870853 1.3122979 0.91559517
-11.291005 -18.29598 1.2820877 0.91745579
-13.066074 -20.588799 1.4541482 0.90690947
-13.051113 -19.466093 1.3975838 0.91036308
-12.935703 -18.283272 1.3355882 0.91416353
-13.770898 -18.954037 1.3971162 0.91039169
-14.13458 -18.949194 1.4097434 0.90961969
-14.882324 -18.939266 1.4363853 0.90799278
-4.0227051 -3.9724607 0.33713907 0.97760034
-1.0965918 -0.93067378 0.085770912 0.99425322
-1.0959766 -0.90666991 0.084823377 0.99431652
-1.0941992 -0.83781248 0.082182847 0.99449295
-1.0936718 -0.81580079 0.081365317 0.99454755
-1.0926465 -0.7730664 0.079817392 0.99465096
-1.0921582 -0.75230467 0.079084888 0.9946999
-1.0916699 -0.73192382 0.078378409 0.99474722
-1.1186817 -0.70995116 0.079011537 0.9947049
-1.2178515 -0.70994139 0.084063873 0.99436724
-1.2537891 -0.70994139 0.085923076 0.99424309
-1.4152441 -0.70994139 0.094420508 0.99367553
-1.4607519 -0.70995116 0.096854359 0.99351305
-1.5086914 -0.70994139 0.099432983 0.99334091
-1.7027246 -0.6990332 0.10976437 0.99265152
-1.7036523 -0.64987302 0.1087366 0.99272007
-1.707998 0.65154296 0.10393108 0.99270272
-1.7070898 0.70083004 0.10491607 0.99263394
-1.7066308 0.72583985 0.10543937 0.99259728
-1.5592577 0.70996094 0.097407527 0.99315929
-1.5087109 0.70996094 0.094798505 0.99334186
-1.3307226 0.70995116 0.085750885 0.99397546
-1.2178417 0.70994139 0.080145568 0.99436814
-1.1833886 0.70995116 0.078460462 0.99448627
-1.1503906 0.70995116 0.076856919 0.99459863
-1.1186913 0.70994139 0.075328976 0.99470574
-1.0886816 0.71024412 0.073903576 0.99480563
-1.0891016 0.73019528 0.074549824 0.99476039
-1.0900195 0.77122068 0.07591518 0.99466461
-1.0909863 0.81380856 0.077383921 0.99456173
-1.0915332 0.83574218 0.078159519 0.99450731
-1.0920508 0.85814452 0.078963809 0.99445099
-1.0938085 0.92828125 0.081562996 0.99426877
-14.030654 12.527275 1.0693792 0.92741054
-12.642256 11.576406 0.97457123 0.93362749
-12.249531 11.79624 0.966851 0.93413562
-12.055449 11.904892 0.96326309 0.93437177
-11.292324 12.33207 0.95065933 0.93520212
-10.731943 12.645732 0.94296473 0.93570936
-10.54708 12.749228 0.94072354 0.93585706
-10.363037 12.852256 0.93864101 0.93599439
-10.179785 12.954834 0.93671352 0.9361214
-9.9972658 13.057012 0.93494427 0.93623817
-9.8154097 13.158798 0.93332899 0.93634486
-9.4534178 13.361425 0.93055171 0.93652815
-9.2731733 13.462334 0.92938966 0.93660486
-9.0933495 13.562988 0.92837733 0.93667173
-8.9138861 13.663447 0.92751175 0.93672884
-8.734726 13.76373 0.92679381 0.93677616
-8.198535 14.063887 0.92552364 0.93685991
-8.02001 14.163798 0.92539394 0.93686855
-7.8415427 14.263711 0.92541122 0.93686748
-7.4844236 14.463623 0.92588085 0.93683636
-7.305654 14.563682 0.92633587 0.93680638
-7.126709 14.663867 0.92693818 0.93676656
-6.9474707 14.764189 0.92768812 0.93671715
-6.7679586 14.864687 0.92858624 0.93665791
-6.5880466 14.96539 0.92962921 0.93658888
-5.8634567 15.371005 0.93531919 0.93621343
-5.4973631 15.575917 0.93908477 0.93596518
-5.3131347 15.679043 0.94119841 0.93582559
-4.7550879 15.991435 0.94851148 0.93534344
-4.5670314 16.09668 0.95127547 0.93516135
-2.6545508 16.104589 0.92796844 0.93669921
-2.038955 16.139921 0.92490661 0.93690079
-1.8328906 16.137177 0.92335629 0.93700314
-0.74958009 8.4995117 0.4851037 0.96639258
-0.64542967 8.5444727 0.48716763 0.96625197
1.3332129 0.94325191 0.092848621 0.99347824
1.3326465 0.91793942 0.091998555 0.99353772
1.3320898 0.8930859 0.091178626 0.99359518
1.3315723 0.86869138 0.090388142 0.99365044
1.3310547 0.84469724 0.089625813 0.9937039
1.3300781 0.79791993 0.088182673 0.99380499
1.3287694 0.73048824 0.08620701 0.99394333
1.3307617 0.70996094 0.085750885 0.99397528
1.3719921 0.70995116 0.087826461 0.99382997
1.4608203 0.70995116 0.092340201 0.99351382
1.5087402 0.70995116 0.09479858 0.99334174
1.6127245 0.70996094 0.10018028 0.99296516
1.6693066 0.70996094 0.10313252 0.99275857
1.7931445 0.70995116 0.10964603 0.99230301
1.916123 0.70346677 0.11604687 0.99185544
1.9165429 0.67640626 0.11554958 0.99189031
20.684824 4.4873338 1.2033594 0.91869545
1.9165527 -0.67643553 0.11554958 0.99189025
1.8611327 -0.70995116 0.11324818 0.99205112
1.5593066 -0.70994139 0.097406805 0.99315917
1.5087402 -0.70994139 0.094797783 0.9933418
1.460791 -0.70995116 0.092339627 0.99351394
1.3720019 -0.70994139 0.087825999 0.99382997
1.3287694 -0.73049802 0.086207084 0.99394327
1.3291894 -0.75261718 0.086841315 0.99389893
1.3310449 -0.84468746 0.089625776 0.99370396
1.3315625 -0.86868161 0.090388298 0.9936505
1.3326465 -0.91792965 0.091998518 0.99353778
4.650537 -8.2130756 0.53660244 0.96289176
4.3894529 -8.2275972 0.53017414 0.963328
4.2565818 -8.2258301 0.52657169 0.96357262
4.1255078 -8.2240915 0.52310002 0.96380836
3.859834 -8.2025776 0.51539654 0.96433169
3.8632617 -8.4850197 0.53005093 0.96333635
3.8595116 -8.7672558 0.5446111 0.96234852
-11.31332 -19.979893 1.3053901 0.91211379
-11.320829 -18.870844 1.2511272 0.91560823
-11.249961 -18.229443 1.2178771 0.91775596
-13.066074 -20.588789 1.3863652 0.90692377
-11.226796 -17.208725 1.1681722 0.92097634
-13.051104 -19.466064 1.3324326 0.91037697
-14.13457 -18.9492 1.3440309 0.90963358
-15.659365 -18.92894 1.3967031 0.90626341
-1.093789 -0.92828125 0.081562996 0.99426883
-1.0931933 -0.90438473 0.080664515 0.99433178
-1.0920508 -0.85814452 0.078964002 0.99445099
-1.0910156 -0.81381834 0.077383876 0.99456161
-1.0900097 -0.77122068 0.075915217 0.99466467
-1.0886914 -0.71025389 0.073903352 0.99480557
-1.1186817 -0.70995116 0.075328447 0.99470574
-1.1503906 -0.70996094 0.076856494 0.99459857
-1.2178515 -0.70994139 0.080145106 0.99436814
-1.3307031 -0.70995116 0.085750617 0.99397552
-1.3719629 -0.70995116 0.087826043 0.99383008
-1.4607519 -0.70995116 0.092339516 0.99351406
-1.5086817 -0.70995116 0.0947982 0.99334198
-1.559248 -0.70995116 0.097406961 0.99315935
-1.6127148 -0.70995116 0.1001799 0.99296522
-1.7123437 0.65319335 0.099102706 0.99268538
-1.7119043 0.67781246 0.099563599 0.99265152
-1.7110351 0.72770506 0.10054459 0.9925794
-1.4607812 0.70995116 0.087826803 0.99351496
-1.4152441 0.70996094 0.085619546 0.99367744
-1.2913672 0.70995116 0.079688795 0.99411416
-1.2537988 0.70995116 0.077914201 0.99424481
-1.2178417 0.70994139 0.07622841 0.99436903
-1.0882031 0.70995116 0.07026127 0.99480867
-1.0865625 0.72850585 0.070740357 0.99477333
-1.0883691 0.81183594 0.073422886 0.99457562
-1.0893457 0.8560254 0.074918367 0.99446553
-1.0898731 0.87880856 0.075708352 0.99440736
-1.0904297 0.90208006 0.076527633 0.99434698
-1.0909863 0.92590821 0.077378117 0.99428433
-14.030674 12.527275 1.0171108 0.92742121
-12.642246 11.576406 0.92693448 0.93363738
-12.445107 11.686757 0.92317653 0.93389738
-11.862734 12.012753 0.91293651 0.93460613
-11.292324 12.33207 0.90419173 0.93521178
-10.917734 12.541738 0.8991577 0.93556058
-10.731962 12.645741 0.89687318 0.93571883
-10.547071 12.749228 0.89474118 0.93586659
-10.363037 12.852245 0.8927629 0.93600392
-10.179794 12.954814 0.89092952 0.93613094
-9.8154001 13.158798 0.88770825 0.93635434
-9.63414 13.260263 0.88631588 0.93645096
-9.4533882 13.361425 0.88506895 0.93653762
-9.2731543 13.462324 0.88396144 0.93661433
-8.913867 13.663437 0.88217545 0.93673831
-8.734726 13.76373 0.88149333 0.93678558
-8.55583 13.863867 0.88095272 0.93682319
-8.3771095 13.963916 0.88054883 0.93685108
-7.8415332 14.263711 0.88017559 0.93687689
-7.3056445 14.563671 0.88105756 0.9368158
-6.0454493 15.269121 0.88803357 0.93633181
-5.8634567 15.371005 0.88960338 0.93622291
-5.4973435 15.575917 0.89318252 0.93597472
-5.1280956 15.782626 0.89736247 0.93568504
-4.7550879 15.991426 0.90215135 0.9353531
-4.5670505 16.09668 0.90477979 0.93517095
-4.377861 16.202587 0.90757078 0.93497777
-4.2747755 16.649229 0.92950225 0.9334597
-4.2591405 17.498222 0.97383589 0.93039906
-4.1917186 19.322226 1.0691413 0.9238531
-4.1233106 21.615244 1.1899126 0.9156248
-1.8328906 16.137197 0.87822342 0.93701243
-0.8587988 8.5139942 0.46272844 0.96630204
-0.64547849 8.5446091 0.46336329 0.96625656
-1.2656152 20.116718 1.0899601 0.92243004
1.3294922 0.9157812 0.087295495 0.99355394
1.3284765 0.86666989 0.08577095 0.99366617
1.3275195 0.81924802 0.084353328 0.99377054
1.3270898 0.79611325 0.083682857 0.99381989
1.3266602 0.77334958 0.083036043 0.99386746
1.3258398 0.72887695 0.081812248 0.99395758
1.3307617 0.70996094 0.081559449 0.99397618
1.3719921 0.70995116 0.083533555 0.99383092
1.4152832 0.70995116 0.085619621 0.99367732
1.4608203 0.70995116 0.087826572 0.99351484
1.6127343 0.70995116 0.095283657 0.99296623
1.7931445 0.70995116 0.10428661 0.99230421
1.8611523 0.70995116 0.10771358 0.99205226
1.9209082 0.70523435 0.11065044 0.99183643
1.921748 0.65123045 0.10972027 0.99190474
1.9217285 -0.6512109 0.10972065 0.9919048
1.9208984 -0.70522457 0.11065059 0.99183649
1.7931542 -0.70993161 0.10428569 0.99230421
1.7293359 -0.70993161 0.10108554 0.99253953
1.6693164 -0.70994139 0.098090895 0.9927597
1.6127343 -0.70994139 0.095282935 0.99296623
1.5087402 -0.70994139 0.090164676 0.99334282
1.460791 -0.70995116 0.087826081 0.99351496
1.4152734 -0.70995116 0.085618936 0.99367738
1.3720019 -0.70994139 0.083533324 0.99383086
1.3307421 -0.70995116 0.081559144 0.99397629
1.3266406 -0.77335936 0.083036192 0.99386752
1.3270605 -0.79612303 0.083682708 0.99381995
1.3275391 -0.81924802 0.084353484 0.99377048
1.3279883 -0.84275389 0.085049324 0.99371928
1.3289746 -0.89100581 0.086519316 0.99361104
1.3294824 -0.9157812 0.08729545 0.99355394
1.3300488 -0.94099605 0.088100165 0.99349469
11.661875 -8.6988182 0.78672272 0.94338542
11.557246 -8.8489943 0.78710723 0.94335866
4.650537 -8.2130756 0.51037502 0.96289736
4.3894334 -8.2275972 0.50425953 0.96333355
4.2565818 -8.2258205 0.50083339 0.96357816
3.8632812 -8.4850292 0.50414413 0.96334183
3.8310351 -9.0078564 0.52932155 0.9615469
-11.315663 -21.21019 1.2999488 0.90819144
-11.319014 -20.589218 1.2705091 0.91017437
-11.313311 -19.979893 1.2415839 0.91212666
-11.32084 -18.87084 1.1899735 0.91562063
-13.066035 -20.588749 1.3185978 0.9069376
-11.226777 -17.208696 1.1110733 0.92098814
-13.051104 -19.466055 1.2673032 0.91039014
-12.951601 -18.80249 1.2346603 0.91259831
-12.917734 -18.257866 1.2094083 0.91430336
-13.770908 -18.954042 1.2668866 0.91041857
-14.13458 -18.949209 1.2783345 0.90964675
-15.267012 -18.934155 1.3152318 0.90716392
-4.022666 -3.9724607 0.3057133 0.97760743
-1.0915917 -0.9502539 0.078260913 0.9942193
-1.0910058 -0.92590821 0.077378042 0.99428427
-1.0898731 -0.87879878 0.075708158 0.99440736
-1.0883496 -0.81184566 0.073422886 0.99457568
-1.0878808 -0.79041016 0.072715335 0.99462777
-1.0874413 -0.76938474 0.072032966 0.99467802
-1.1186817 -0.70995116 0.071646653 0.99470651
-1.1833886 -0.70995116 0.074625202 0.99448711
-1.3307031 -0.70995116 0.081559025 0.99397641
-1.5086817 -0.70995116 0.090164565 0.993343
-1.612705 -0.70995116 0.095283426 0.99296629
-1.7110254 -0.72769529 0.10054432 0.99257946
-1.7114941 -0.70262694 0.10004421 0.99261618
-1.7123241 -0.65319335 0.0991024 0.99268544
-1.7166991 0.65485352 0.094250828 0.99266791
-1.7162793 0.67952144 0.09469074 0.99263394
-1.6692675 0.70995116 0.093051948 0.9927609
-1.612705 0.70994139 0.090388604 0.99296737
-1.5592577 0.70996094 0.087886728 0.99316138
-1.5087109 0.70996094 0.085533142 0.99334383
-1.4607812 0.70995116 0.083314702 0.99351591
-1.2913672 0.70995116 0.075594783 0.994115
-1.2178417 0.70994139 0.072312236 0.99436986
-1.1833886 0.70995116 0.070791855 0.99448794
-1.0882031 0.70995116 0.066651493 0.99480945
-1.0840234 0.72680664 0.066949613 0.99478626
-1.0844531 0.74699217 0.067548677 0.99473965
-1.0852734 0.78849608 0.068814203 0.99464148
-1.0862012 0.83166015 0.070175283 0.99453568
-1.0882226 0.92352539 0.073215753 0.99429971
-1.0887793 0.94780272 0.07404869 0.99423498
-14.030674 12.527266 0.96485591 0.92743146
-11.671367 12.119883 0.86311293 0.9348284
-11.292304 12.33206 0.85773784 0.93522102
-11.104511 12.437187 0.85527676 0.93540072
-10.917744 12.541738 0.85296494 0.93556964
-10.547071 12.749228 0.84877712 0.93587565
-10.363037 12.852256 0.84689438 0.93601292
-10.179794 12.954823 0.84515744 0.93613994
-9.8154001 13.158809 0.84210354 0.93636334
-9.63414 13.260273 0.84078217 0.9364599
-9.4534082 13.361425 0.83959591 0.93654656
-9.2731733 13.462324 0.83854735 0.93662328
-9.0933294 13.562978 0.83763182 0.93669015
-8.9138575 13.663437 0.83685273 0.93674725
-8.55581 13.863867 0.83569336 0.93683213
-8.3771095 13.963906 0.83531201 0.93686002
-8.0200291 14.163798 0.83494413 0.93688685
-7.305654 14.563671 0.8357957 0.93682474
-7.126699 14.663847 0.83633739 0.93678498
-6.9474607 14.76417 0.83701229 0.93673557
-6.7679391 14.864668 0.83782226 0.93667632
-6.588027 14.96539 0.83876556 0.9366073
-6.2268457 15.167568 0.84105927 0.93643963
-5.8634372 15.370976 0.84389907 0.93623203
-5.4973435 15.575928 0.8472966 0.93598372
-5.1280761 15.782626 0.85125989 0.93569416
-4.2591209 17.498163 0.92380184 0.93040907
-4.1706738 20.462988 1.0712746 0.91975808
-4.1233201 21.615156 1.1287751 0.91563684
-2.0389452 16.139921 0.83450514 0.93691909
-0.74956053 8.4995308 0.43768978 0.96640241
-0.645459 8.5447655 0.43956646 0.96626079
-1.2656054 20.116709 1.0339669 0.92244095
1.3263671 0.91362303 0.082615852 0.99356997
1.3258495 0.88892579 0.081883125 0.99362695
1.3254101 0.86467773 0.081176564 0.99368161
1.3249609 0.84083009 0.080495067 0.99373448
1.3240722 0.79431641 0.079204522 0.99383473
1.3236816 0.77162105 0.078593746 0.99388206
1.3307617 0.70996094 0.077369384 0.99397707
1.4608203 0.70995116 0.083314627 0.99351579
1.5087402 0.70995116 0.085532837 0.99334377
1.6127343 0.70995116 0.09038841 0.99296725
1.6693164 0.70995116 0.093051948 0.99276072
1.7293457 0.70995116 0.095893055 0.99254054
1.9257226 0.70700192 0.10522884 0.99181724
1.926123 0.67981446 0.10477558 0.99185234
20.684862 4.4873438 1.0857432 0.91871864
1.9256933 -0.70700192 0.10522884 0.99181736
1.8611327 -0.70995116 0.10217937 0.99205351
1.7931347 -0.70994139 0.098928258 0.99230534
1.6693164 -0.70994139 0.093051374 0.99276078
1.5087206 -0.70994139 0.085532226 0.99334383
1.460791 -0.70995116 0.08331421 0.99351585
1.4152734 -0.70995116 0.081220433 0.99367827
1.3720019 -0.70994139 0.079241715 0.99383175
1.3228906 -0.72727537 0.077438086 0.99397182
1.3240722 -0.79431641 0.079204522 0.99383473
1.3245019 -0.81738281 0.079837911 0.99378556
1.3249512 -0.84083009 0.080495186 0.99373454
1.3258593 -0.88890624 0.081883051 0.99362695
1.3263574 -0.91362303 0.082616039 0.99357003
1.326875 -0.93876952 0.083375812 0.99351102
11.452373 -8.3206396 0.72614884 0.94487929
11.661689 -8.6986961 0.74629331 0.94339424
4.5241599 -8.229394 0.48172534 0.96308517
4.3894529 -8.2275972 0.47835284 0.96333879
4.2566013 -8.2258301 0.47510394 0.96358329
4.1255274 -8.2240915 0.4719716 0.96381897
3.9873047 -8.2042723 0.46791995 0.96412385
3.8598437 -8.2025728 0.46502087 0.96434218
3.8310351 -9.0078707 0.50212818 0.96155238
3.9649022 -22.303764 1.1620446 0.91326159
-11.319023 -20.589214 1.2052358 0.91018689
-13.065996 -20.58872 1.2508557 0.90695065
-13.051084 -19.46603 1.2021993 0.91040277
-12.951582 -18.802446 1.1712344 0.91261065
-14.13457 -18.949203 1.2126631 0.90965939
-14.882314 -18.939266 1.2355756 0.90803325
-16.059746 -18.923618 1.2731674 0.9053719
-4.022666 -3.9724607 0.29000735 0.97761065
-1.0866797 -0.85390621 0.070894122 0.99447989
-1.0857323 -0.80988282 0.069482341 0.99458951
-1.0840234 -0.72679687 0.066949539 0.99478626
-1.0882226 -0.70994139 0.066651151 0.99480939
-1.1186817 -0.70995116 0.067965776 0.99470729
-1.1503906 -0.70996094 0.069344364 0.99460018
-1.1833886 -0.70995116 0.070791356 0.99448794
-1.2537891 -0.70994139 0.073911056 0.99424571
-1.2913769 -0.70994139 0.075594746 0.994115
-1.4152637 -0.70995116 0.081220739 0.99367833
-1.4607519 -0.70995116 0.083314016 0.99351603
-1.6692773 -0.70995116 0.093051642 0.9927609
-1.7158886 -0.70445311 0.09514866 0.9925983
-1.7162793 -0.67953122 0.094690591 0.99263394
-1.7166797 -0.65485352 0.094250903 0.99266797
-1.7210644 0.65653318 0.089375801 0.99265033
-1.7206933 0.6812793 0.089793853 0.99261606
-1.7202929 0.70625973 0.090229489 0.99258041
-1.4607812 0.70995116 0.078803673 0.9935168
-1.4152637 0.70995116 0.076823764 0.99367923
-1.3719629 0.70996094 0.074952088 0.99383271
-1.3307226 0.70995116 0.073180467 0.99397808
-1.2913672 0.70995116 0.071502075 0.99411583
-1.1833886 0.70995116 0.066958919 0.99448872
-1.1503906 0.70995116 0.06559021 0.99460095
-1.1186913 0.70994139 0.0642865 0.994708
-1.0882031 0.70995116 0.06304317 0.99481016
-1.0815039 0.72511715 0.063177757 0.99479908
-1.0844629 0.87444335 0.067592621 0.99443662
-1.0849316 0.89755857 0.068320274 0.9943769
-1.0854394 0.92120117 0.069075696 0.99431491
-14.030663 12.527266 0.9126184 0.92744118
-12.24954 11.79623 0.82511795 0.93416351
-11.862715 12.012744 0.81914628 0.9346242
-11.104502 12.437187 0.80896986 0.93540937
-10.179794 12.954814 0.79940045 0.93614852
-9.8153906 13.158789 0.79650939 0.93637192
-9.6341209 13.260254 0.7952618 0.93646848
-9.4534178 13.361425 0.79413968 0.93655503
-9.2731733 13.462324 0.79314786 0.93663174
-8.55581 13.863876 0.79044646 0.93684053
-8.02001 14.163798 0.78973812 0.93689531
-7.8415136 14.263711 0.78975278 0.93689424
-7.6630077 14.363623 0.78989059 0.93688363
-7.1266894 14.663847 0.79105574 0.93679345
-6.9474802 14.764179 0.79169601 0.93674397
-6.4076757 15.066328 0.79437363 0.93653697
-5.4973631 15.575908 0.80142361 0.93599236
-4.274756 16.64912 0.83400542 0.93347842
-4.2106051 18.296494 0.91093624 0.92756975
-4.1706834 20.46291 1.0132579 0.91976899
-4.1470995 21.739912 1.0738287 0.91518241
-2.6545312 16.104609 0.7919296 0.93672597
-2.4504297 16.1266 0.79143339 0.9367643
-2.2457421 16.142666 0.7907759 0.9368152
-0.85881835 8.5142479 0.41520137 0.9663105
-0.74958009 8.4995508 0.4139924 0.96640688
-0.64548826 8.5449018 0.41577542 0.96626484
-1.2656054 20.116718 0.97798473 0.9224512
1.3237402 0.93654293 0.078675196 0.99352723
1.3228027 0.88684571 0.077269934 0.99364251
1.3214941 0.81551754 0.075344309 0.99380052
1.3210937 0.79251951 0.074747697 0.99384946
1.3207324 0.76990235 0.074172631 0.99389648
1.3307617 0.70996094 0.073180541 0.9939779
1.4152832 0.70994139 0.076823384 0.99367917
1.4608203 0.70995116 0.078804053 0.99351668
1.5592968 0.70994139 0.083128624 0.99316221
1.6693164 0.70995116 0.088014103 0.99276173
1.8611523 0.70994139 0.096647754 0.99205452
1.9312793 0.6544531 0.098938636 0.99186707
20.684862 4.4873533 1.0269587 0.91872942
1.9312987 -0.65444332 0.098938517 0.99186701
1.9309374 -0.68149412 0.099350698 0.99183321
1.9305469 -0.70877928 0.099781491 0.99179798
1.7293457 -0.70994139 0.090700418 0.99254155
1.6693164 -0.70994139 0.08801353 0.99276173
1.5593066 -0.70994139 0.083127856 0.99316216
1.460791 -0.70995116 0.078803405 0.99351674
1.3199804 -0.72566402 0.073084451 0.99398589
1.3207324 -0.76989257 0.074172817 0.99389654
1.3211035 -0.79251951 0.074747846 0.9938494
1.3227735 -0.88685542 0.07726974 0.99364257
1.3237402 -0.9365527 0.078675151 0.99352723
11.408213 -8.288579 0.68418789 0.94509321
11.556641 -8.848525 0.70620602 0.9433772
11.50498 -9.0405025 0.70993406 0.94308692
11.356435 -9.1569433 0.70781434 0.94325197
4.6505275 -8.2130709 0.45794094 0.96290773
4.2565818 -8.2258396 0.44938168 0.96358824
4.1255274 -8.224082 0.44641781 0.96382391
3.8598437 -8.2025728 0.43984461 0.964347
3.8632812 -8.4850531 0.45235103 0.96335196
3.8595312 -8.767314 0.46477693 0.96236449
-11.284726 -21.152225 1.1632121 0.90845531
-11.27623 -20.511353 1.1356738 0.91052264
-11.320829 -18.870844 1.0677246 0.91564357
-11.226758 -17.208672 0.99692577 0.92100978
-12.951562 -18.802446 1.1077957 0.91262227
-13.770898 -18.954023 1.1367351 0.91044289
-14.134589 -18.9492 1.1470088 0.90967125
-14.882324 -18.939262 1.1686817 0.90804529
-15.267001 -18.934151 1.1801105 0.90718907
-15.659374 -18.928925 1.1919582 0.90630245
-16.059746 -18.923613 1.2042404 0.90538442
-4.0226855 -3.9724607 0.27430615 0.97761363
-1.0859765 -0.94538087 0.069859736 0.99425054
-1.085459 -0.92120117 0.069075584 0.99431485
-1.0849414 -0.89754879 0.068320423 0.9943769
-1.0844531 -0.87443358 0.06759239 0.99443668
-1.0839844 -0.85179687 0.066890679 0.99449426
-1.0835449 -0.82963866 0.066214256 0.99454975
-1.2178515 -0.70994139 0.068396837 0.99437058
-1.3307031 -0.70995116 0.073180124 0.99397814
-1.4152637 -0.70995116 0.076823235 0.99367923
-1.4607519 -0.70995116 0.078803673 0.99351692
-1.612705 -0.70995116 0.085494228 0.99296832
-1.7206933 -0.6812793 0.089793734 0.99261606
-1.7210644 -0.65653318 0.089375608 0.99265033
-1.7254785 0.6582129 0.084477119 0.99263251
-1.7251269 0.6830371 0.084873043 0.99259806
-1.7247363 0.70808589 0.085285835 0.99256229
-1.6692871 0.70995116 0.082977407 0.9927628
-1.5592773 0.70996094 0.078371502 0.99316311
-1.3719629 0.70996094 0.070662767 0.99383354
-1.3307226 0.70995116 0.068992689 0.99397886
-1.2913672 0.70995116 0.06741035 0.9941166
-1.2178417 0.70994139 0.064483106 0.99437135
-1.1833886 0.70995116 0.063127138 0.99448943
-1.0882031 0.70995116 0.059435461 0.99481082
-1.0790039 0.72343749 0.059424132 0.99481177
-1.0793555 0.74349606 0.059953421 0.9947657
-1.0797266 0.76392579 0.060502317 0.9947179
-1.0801171 0.78475583 0.061071508 0.9946683
-1.080918 0.82761717 0.062273331 0.99456364
-1.0813282 0.84971678 0.06290821 0.99450845
-1.0817871 0.87226558 0.063566282 0.99445105
-1.0826952 0.91884762 0.064957581 0.99433005
-1.0832031 0.94294918 0.065692864 0.99426597
-12.445117 11.686748 0.7809338 0.9339239
-12.249531 11.79623 0.77790111 0.9341718
-11.862734 12.012734 0.77226728 0.93463242
-11.671338 12.119863 0.76966625 0.93484551
-11.48125 12.226289 0.76720107 0.93504715
-11.292304 12.332041 0.76487166 0.93523788
-11.104492 12.437178 0.76267701 0.93541759
-10.917744 12.541728 0.76061338 0.93558645
-10.54706 12.749208 0.75687927 0.9358924
-10.363037 12.852236 0.75520402 0.93602961
-9.6341114 13.260254 0.74975216 0.93647653
-9.4534082 13.361425 0.74869382 0.93656307
-9.0933399 13.562978 0.74694443 0.9367066
-8.7347069 13.763721 0.74567211 0.93681103
-8.55581 13.863857 0.74521363 0.93684858
-8.1985159 14.063867 0.74465162 0.93689471
-8.02001 14.163798 0.74454588 0.9369033
-7.6630077 14.363632 0.74468994 0.93689156
-7.3056641 14.563682 0.74530381 0.93684113
-7.1266894 14.663847 0.7457884 0.93680143
-6.4076657 15.066328 0.74891645 0.93654501
-6.2268457 15.167559 0.74999905 0.9364562
-6.0454392 15.269101 0.75120342 0.93635744
-5.6807518 15.473242 0.75398177 0.93612963
-5.4973536 15.575889 0.75555891 0.93600053
-5.3131442 15.679023 0.75726104 0.93586087
-5.1280565 15.782617 0.75909513 0.93571091
-4.94207 15.886738 0.76105499 0.93555033
-4.7550778 15.991405 0.76314574 0.93537909
-4.2590919 17.498075 0.82378066 0.93042749
-4.2105956 18.296406 0.85880202 0.92757916
-4.1706443 20.462851 0.95527023 0.9197793
-4.1470995 21.739815 1.0123694 0.91519338
-2.6545215 16.104609 0.74661255 0.93673402
-2.4504199 16.126591 0.74614424 0.93677229
-2.0389354 16.13994 0.74415296 0.93693542
-1.8328711 16.137197 0.74290723 0.93703771
-0.85882813 8.5143747 0.39144871 0.96631432
-0.74959958 8.4995413 0.39030254 0.96641123
-0.64548826 8.5450583 0.39198893 0.9662686
1.3206054 0.93433589 0.07399784 0.99354333
1.3185059 0.8136816 0.07087227 0.99381524
1.3181348 0.79076171 0.070312232 0.99386394
1.3174413 0.74597657 0.069252469 0.99395609
1.3170898 0.72407228 0.06875091 0.99399978
1.3307617 0.70996094 0.068992995 0.99397868
1.3719727 0.70995116 0.07066261 0.99383354
1.5087402 0.70995116 0.076272428 0.99334556
1.6127343 0.70995116 0.080602489 0.9929691
1.6693164 0.70995116 0.082977332 0.99276268
1.7293457 0.70995116 0.085510828 0.99254251
1.7931445 0.70995116 0.088218346 0.99230736
1.936123 0.65609372 0.093509518 0.99184781
1.9361132 -0.65609372 0.093509212 0.99184781
1.7293261 -0.70994139 0.085510291 0.99254262
1.6693164 -0.70994139 0.082977064 0.99276268
1.6127343 -0.70994139 0.080601618 0.99296916
1.5087206 -0.70994139 0.076271743 0.99334562
1.460791 -0.70995116 0.074294053 0.99351764
1.4152734 -0.70994139 0.072426721 0.99368
1.3720019 -0.70994139 0.070662379 0.99383342
1.3181446 -0.79076171 0.070312537 0.99386388
1.3185155 -0.81369138 0.070872076 0.99381518
1.3188964 -0.83698243 0.07145267 0.99376476
1.3201562 -0.90934569 0.073326491 0.99360174
1.3206152 -0.93432617 0.073997766 0.99354333
3.3526366 -3.9505076 0.23701015 0.97946656
4.6505275 -8.2130709 0.43173563 0.96291244
4.5241599 -8.2293892 0.42957079 0.96309495
4.3894529 -8.2275925 0.42656246 0.96334845
4.1255078 -8.2240868 0.42087215 0.96382856
3.863291 -8.4850779 0.426467 0.96335655
3.8310645 -9.0078859 0.44776011 0.9615624
3.9645703 -22.301933 1.0361466 0.91329068
-11.276191 -20.511312 1.0706841 0.91053396
-11.318222 -19.988583 1.0507387 0.91212499
-11.32084 -18.870859 1.0066253 0.91565406
-11.302011 -18.313789 0.98440659 0.91743654
-13.051044 -19.465971 1.0720412 0.91042596
-12.951562 -18.802402 1.0444229 0.91263324
-13.413613 -18.958775 1.0623381 0.91119927
-13.770908 -18.954023 1.0716842 0.91045403
-14.882304 -18.939266 1.1018007 0.9080568
-15.267012 -18.934151 1.1125774 0.90720057
-16.059736 -18.923613 1.1353238 0.90539616
-4.0226855 -3.9724705 0.25860888 0.97761649
-1.0827246 -0.91886717 0.064957619 0.99432993
-1.0804882 -0.80597657 0.061661489 0.99461699
-1.0797364 -0.76393551 0.060502317 0.99471784
-1.0790039 -0.72342771 0.059424207 0.99481177
-1.1186817 -0.70995116 0.060607299 0.99470872
-1.1503906 -0.70996094 0.061836738 0.99460167
-1.1833886 -0.70995116 0.063126795 0.99448943
-1.3307031 -0.70994139 0.068992458 0.99397892
-1.3719629 -0.70995116 0.070662424 0.99383354
-1.4152637 -0.70995116 0.072427101 0.99368
-1.4607519 -0.70995116 0.074294016 0.99351776
-1.612705 -0.70995116 0.080602184 0.99296921
-1.6692773 -0.70995116 0.082977176 0.9927628
-1.7251269 -0.68302733 0.084873125 0.99259806
-1.72958 0.6847949 0.079928204 0.99257994
-1.7292383 0.70991212 0.080317952 0.99254388
-1.5592773 0.70996094 0.073615722 0.99316394
-1.5087109 0.70996094 0.07164406 0.99334645
-1.4152637 0.70995116 0.068032108 0.99368078
-1.3719629 0.70996094 0.06637466 0.99383432
-1.3307226 0.70996094 0.064806134 0.99397957
-1.2178417 0.70994139 0.060570143 0.99437201
-1.1833886 0.70995116 0.059296492 0.99449009
-1.1186913 0.70994139 0.056929853 0.99470937
-1.0765234 0.72175777 0.055688933 0.99482429
-1.0768456 0.74175781 0.056183927 0.99477845
-1.0771778 0.76213866 0.056696966 0.99473095
-1.0783007 0.82560545 0.058352698 0.99457747
-1.0790918 0.87011719 0.059561308 0.99446547
-12.642256 11.576377 0.73652893 0.93367189
-12.445107 11.686748 0.73354274 0.93393177
-12.249521 11.79623 0.73069459 0.93417966
-12.055439 11.904882 0.72798294 0.9344157
-11.671338 12.119863 0.72296172 0.93485326
-11.48125 12.226289 0.72064376 0.9350549
-11.292315 12.332041 0.71845794 0.93524557
-10.917744 12.541728 0.71445769 0.93559408
-10.54705 12.749208 0.71095061 0.93590009
-10.179766 12.954795 0.70791978 0.93616426
-8.7347164 13.763711 0.70042145 0.93681854
-8.37708 13.963896 0.69967103 0.93688405
-8.0199995 14.163789 0.69936508 0.93691081
-7.6630173 14.363632 0.69950074 0.93689901
-7.4844236 14.463593 0.69973344 0.93687874
-7.1266894 14.663828 0.70053035 0.936809
-6.9474607 14.76416 0.70109773 0.93675959
-6.0454588 15.269092 0.70561904 0.93636501
-5.8634472 15.370967 0.70686448 0.93625623
-5.6807518 15.473223 0.70823026 0.93613732
-5.3131347 15.679013 0.71131086 0.93586856
-4.2590818 17.498028 0.77378845 0.9304359
-4.2105861 18.296356 0.8066873 0.92758793
-4.1916699 19.321962 0.84951138 0.92389339
-4.1706443 20.462753 0.89730161 0.91978908
-4.1470704 21.739775 0.95093745 0.91520351
-4.151123 23.351494 1.0190737 0.90941125
-2.6545606 16.104589 0.70130628 0.93674159
-2.4504199 16.126581 0.70086455 0.93677986
-2.2457225 16.142675 0.70028335 0.9368307
1.3174902 0.93212891 0.069343835 0.9935593
1.3166699 0.88275391 0.068110958 0.99367344
1.3158984 0.8350879 0.066964187 0.9937796
1.3145117 0.74430662 0.064906575 0.99397027
1.314209 0.72248048 0.064437561 0.99401361
1.3307617 0.70996094 0.064806134 0.99397945
1.3719727 0.70995116 0.06637466 0.99383426
1.4608203 0.70995116 0.069785804 0.99351829
1.5087402 0.70995116 0.071643904 0.99334633
1.7293261 0.70995116 0.080321804 0.99254352
1.7931445 0.70995116 0.082864724 0.99230832
1.9406347 0.68491209 0.088423081 0.99179447
1.9402832 -0.71235353 0.088808365 0.99175882
1.8611425 -0.70995116 0.085587196 0.99205655
1.7293261 -0.70994139 0.080321237 0.99254352
1.6127343 -0.70994139 0.075710565 0.99296999
1.3720019 -0.70994139 0.066374354 0.9938342
1.3141992 -0.72248048 0.064437598 0.99401367
1.3145214 -0.7443164 0.0649065 0.99397022
1.3158984 -0.83509761 0.066963993 0.9937796
1.3162597 -0.85870117 0.067527123 0.99372756
1.3166602 -0.88275391 0.068110883 0.99367344
1.3170702 -0.90722656 0.068716086 0.99361742
11.358788 -8.4727488 0.60887039 0.94484425
4.6505275 -8.2130709 0.40553606 0.96291691
4.5241599 -8.2293892 0.40350178 0.96309942
4.3894334 -8.227602 0.40067881 0.96335292
3.8633008 -8.4850826 0.40058857 0.96336091
3.8595703 -8.7673388 0.41159213 0.96237367
3.8310645 -9.007905 0.42059427 0.96156693
3.9644139 -22.30101 0.97323132 0.91330427
-11.293633 -21.824961 1.0558652 0.90629882
-11.244443 -20.453588 1.0028795 0.91078466
-11.236347 -19.844013 0.9798364 0.91274226
-11.228613 -19.261709 0.95797867 0.91460335
-11.320829 -18.870853 0.94553936 0.91566402
-11.302002 -18.313784 0.92467088 0.91744632
-11.226719 -17.208603 0.88283932 0.92102927
-12.728271 -18.984575 0.9820773 0.91255158
-13.413652 -18.958775 0.99787289 0.91120958
-12.990088 -17.879326 0.94957227 0.91531974
-14.134589 -18.949194 1.0157504 0.90969306
-15.267001 -18.93416 1.0450636 0.90721142
-15.659355 -18.928936 1.0555526 0.90632504
-4.0226855 -3.9724705 0.24291591 0.97761923
-1.079541 -0.89306641 0.060199544 0.99440628
-1.0786914 -0.8476367 0.05894592 0.99452245
-1.0775293 -0.78289062 0.057228889 0.99468166
-1.0768261 -0.74175781 0.056183815 0.99477851
-1.0764941 -0.72175777 0.055688933 0.99482441
-1.0882226 -0.70994139 0.0558284 0.99481142
-1.1503906 -0.70996094 0.058084372 0.99460232
-1.1833886 -0.70995116 0.05929615 0.99449009
-1.2178515 -0.70994139 0.060569685 0.99437201
-1.2913574 -0.70994139 0.063319206 0.99411738
-1.3719629 -0.70995116 0.066374317 0.99383432
-1.4152637 -0.70995116 0.06803219 0.99368078
-1.5087011 -0.70995116 0.071643755 0.99334651
-1.5592675 -0.70995116 0.073615298 0.993164
-1.612705 -0.70995116 0.075710908 0.99297011
-1.7295703 -0.6847949 0.079928204 0.99258
-1.7299218 -0.65990233 0.079554133 0.99261451
-21.925528 -7.7384081 0.99902707 0.91111147
-1.7337109 0.71175778 0.075325541 0.99252552
-1.6692871 0.70995116 0.072907902 0.99276447
-1.612705 0.70994139 0.070821188 0.99297094
-1.5087109 0.70996094 0.067016751 0.99334723
-1.4152637 0.70995116 0.063638262 0.99368155
-1.3719629 0.70996094 0.062087782 0.99383497
-1.3307226 0.70996094 0.06062042 0.99398023
-1.2913672 0.70995116 0.059229888 0.99411798
-1.2178417 0.70994139 0.056658018 0.99437267
-1.1503906 0.70995116 0.05433296 0.99460298
-1.1186913 0.70994139 0.053252637 0.99470997
-1.0882031 0.70995116 0.052222785 0.99481207
-1.0740136 0.72008789 0.051971968 0.99483693
-1.0743555 0.74002928 0.052432898 0.99479115
-1.075332 0.80210936 0.053919181 0.99464393
-1.0764453 0.86796874 0.055576667 0.99447966
-1.0772363 0.91421872 0.056787375 0.99435985
-14.030644 12.527236 0.75598359 0.92746705
-12.249512 11.79623 0.68350083 0.934187
-11.862734 12.012734 0.67855251 0.93464744
-11.104511 12.437178 0.6701231 0.93543237
-10.917725 12.541718 0.66831112 0.93560135
-10.731934 12.645722 0.66661483 0.93575954
-10.547021 12.749208 0.66502821 0.9359073
-10.363028 12.852217 0.66355836 0.93604445
-10.179766 12.954795 0.66219527 0.93617141
-9.9972363 13.056973 0.66094667 0.93628812
-9.8154001 13.158779 0.65980119 0.93639463
-9.4533787 13.361406 0.65783995 0.9365778
-9.2731447 13.462295 0.65701628 0.93665451
-8.9138575 13.663427 0.65568864 0.93677831
-8.7347164 13.763711 0.65518308 0.93682557
-8.5557909 13.863848 0.65478027 0.93686324
-7.126699 14.663837 0.6552853 0.93681604
-6.9474607 14.76415 0.65581346 0.93676668
-6.7679391 14.864657 0.65644878 0.93670744
-6.4076657 15.066318 0.65803158 0.93655968
-6.2268357 15.167559 0.65898496 0.93647087
-6.0454392 15.269082 0.66004151 0.93637216
-5.6807518 15.473223 0.66248411 0.93614441
-5.4973435 15.575908 0.66386974 0.93601519
-4.7550683 15.991405 0.67053604 0.93539399
-4.5670505 16.096661 0.67249161 0.93521196
-4.2105861 18.296347 0.75458157 0.92759597
-4.1706152 20.462704 0.83934444 0.91979814
-2.6545117 16.104618 0.65601653 0.9367485
-2.4504297 16.126581 0.65559536 0.93678689
-2.2457225 16.142675 0.65505248 0.93683773
-2.0389256 16.139931 0.65385067 0.93694997
-0.85885739 8.5146093 0.34395388 0.96632129
-0.74958009 8.4995508 0.34293917 0.9664191
-0.6455273 8.545351 0.34443119 0.96627533
-1.265625 20.116699 0.81012797 0.92247868
1.3143945 0.92995113 0.064712562 0.9935751
1.3129003 0.83318359 0.062496908 0.99379444
1.3119335 0.76478511 0.061033856 0.99393922
1.3113476 0.72090816 0.060144156 0.99402732
1.3719727 0.70995116 0.062087629 0.99383497
1.6127343 0.70995116 0.070821226 0.99297076
1.6692969 0.70994139 0.072907902 0.99276447
1.7931445 0.70995116 0.077512547 0.99230921
1.9451758 0.71413082 0.083282471 0.99173915
1.9455078 0.68663085 0.082920186 0.99177486
1.9458008 -0.65937501 0.082573734 0.99180913
1.9455078 -0.68663085 0.082920417 0.99177486
1.9451855 -0.71415037 0.083282545 0.99173909
1.7931347 -0.70995116 0.077512167 0.99230921
1.7293261 -0.70994139 0.075133473 0.99254435
1.6127343 -0.70994139 0.070820503 0.99297082
1.5087206 -0.70994139 0.06701614 0.99334723
1.460791 -0.70995116 0.06527824 0.99351913
1.4152734 -0.70994139 0.063637808 0.99368149
1.3719823 -0.70994139 0.062087171 0.99383497
1.3307421 -0.70995116 0.060620114 0.99398023
1.3113476 -0.72091794 0.060144078 0.99402726
1.3122559 -0.78721678 0.061503906 0.99389273
1.3125781 -0.81002927 0.061991498 0.99384445
1.3129296 -0.83319336 0.062496945 0.99379432
1.3132714 -0.85674804 0.063021235 0.99374253
1.3136327 -0.88071287 0.063564792 0.9936887
1.3140038 -0.90510738 0.064128451 0.99363297
11.414219 -8.2929201 0.56705564 0.94508481
11.358788 -8.4727488 0.56954885 0.94485039
11.380878 -8.7139349 0.57609963 0.94423389
11.349775 -9.1515627 0.58599001 0.94330466
3.3828516 -3.8860447 0.20707546 0.97958589
3.3517089 -3.9493651 0.20818911 0.97947717
4.6505175 -8.2130756 0.37934276 0.96292114
4.5241699 -8.2293892 0.37744066 0.96310353
4.3894434 -8.2276125 0.37479922 0.96335697
4.2565918 -8.2258444 0.37225285 0.96360135
3.8598535 -8.2025681 0.36435345 0.96435994
-11.261875 -21.763506 0.98489177 0.90656012
-11.236328 -19.843969 0.9165504 0.91275203
-11.32084 -18.870853 0.88446712 0.91567326
-11.302031 -18.313793 0.86494476 0.91745532
-11.323887 -17.843554 0.84939331 0.91887784
-11.226699 -17.208609 0.82581753 0.92103803
-12.728281 -18.98457 0.91864848 0.91256124
-12.951523 -18.802353 0.91770858 0.91265339
-13.413642 -18.958778 0.93342358 0.91121936
-12.941474 -17.812431 0.88491863 0.91563213
-14.134561 -18.949209 0.95014369 0.90970302
-14.504961 -18.944283 0.95896012 0.90890437
-14.882304 -18.939253 0.96809888 0.90807766
-15.659385 -18.928936 0.98737925 0.90633529
-3.9555175 -4.0055466 0.22625721 0.97771615
-4.0226855 -3.9724705 0.22722621 0.97762179
-1.0772461 -0.91423827 0.05678726 0.99435979
-1.0760449 -0.84554684 0.055003926 0.99453652
-1.0756836 -0.823623 0.054451827 0.99459118
-1.0746484 -0.76033199 0.052910462 0.99474388
-1.0743359 -0.74003905 0.052432936 0.99479121
-1.0740136 -0.72008789 0.051971968 0.99483693
-1.1186817 -0.70994139 0.053252485 0.99471003
-1.1503906 -0.70995116 0.054332539 0.99460298
-1.2537891 -0.70994139 0.057910688 0.99424863
-1.2913769 -0.70994139 0.059229545 0.99411798
-1.3307031 -0.70994139 0.060620114 0.99398035
-1.3719629 -0.70995116 0.062087439 0.99383503
-1.4152637 -0.70995116 0.063638039 0.99368155
-1.5087011 -0.70995116 0.067015991 0.99334729
-1.5592675 -0.70995116 0.068860739 0.99316478
-1.7337109 -0.71176755 0.075325772 0.99252552
-1.7340527 -0.68657225 0.074959144 0.9925617
-21.928984 -8.0509129 0.93888652 0.91072333
-21.925497 -7.7384081 0.93450224 0.91112131
-1.7382128 0.7136035 0.070308261 0.99250698
-1.6692871 0.70995116 0.067875095 0.99276525
-1.612705 0.70994139 0.065932423 0.99297166
-1.5592773 0.70996094 0.064107284 0.99316549
-1.5087109 0.70996094 0.062390365 0.99334794
-1.4152637 0.70995116 0.059244957 0.99368221
-1.2537988 0.70995116 0.053912885 0.99424917
-1.1833886 0.70995116 0.05163765 0.99449128
-1.1186913 0.70994139 0.049576569 0.99471056
-1.0882031 0.70995116 0.048617668 0.99481261
-1.0718457 0.73832029 0.048699874 0.99480379
-1.0727637 0.80019528 0.050077323 0.99465722
-1.0730761 0.82163084 0.050570793 0.99460483
-1.0734375 0.84349608 0.051082343 0.99455029
-1.0741405 0.88864255 0.052163314 0.99443531
-12.445087 11.686738 0.63879669 0.93394607
-11.671338 12.119863 0.62958229 0.93486726
-11.48123 12.226279 0.62756556 0.93506896
-11.292295 12.332031 0.62565839 0.93525958
-11.104502 12.437178 0.62386513 0.93543911
-10.54706 12.749208 0.61912286 0.93591386
-10.179766 12.954804 0.61648327 0.93617803
-9.6341209 13.260234 0.61329043 0.93649781
-9.2731733 13.462304 0.61166155 0.93666095
-9.0933294 13.562959 0.61099571 0.93672788
-8.913867 13.663408 0.61042565 0.93678492
-8.0199804 14.163779 0.60903347 0.93692452
-7.8415136 14.263681 0.60904348 0.93692344
-7.6629882 14.363613 0.60915154 0.93691272
-7.4843946 14.463584 0.60935265 0.93689239
-7.305625 14.563652 0.60965401 0.93686241
-6.5880075 14.965361 0.61181909 0.93664509
-6.4076757 15.066318 0.612607 0.93656623
-6.2268357 15.167559 0.61349279 0.93647748
-6.0454392 15.269092 0.61447793 0.93637872
-5.8634472 15.370967 0.61556405 0.93626994
-5.6807714 15.473212 0.61675167 0.93615109
-5.4973435 15.575889 0.61804211 0.93602192
-4.5670409 16.096649 0.62606913 0.93521869
-4.2746973 16.648964 0.64316463 0.93350959
-4.2105565 18.296278 0.70249188 0.92760372
-4.1916404 19.321865 0.73978817 0.92391008
-4.1470313 21.739609 0.82810438 0.91522217
-2.0389354 16.139921 0.60871285 0.93695658
-1.8328906 16.137188 0.60769206 0.93705881
-0.85885739 8.5146389 0.32020825 0.96632475
-1.2656152 20.116718 0.75420314 0.92248666
1.3109375 0.90299803 0.059562758 0.99364841
1.3106054 0.8786816 0.059040565 0.9937039
1.3102734 0.85479492 0.058536947 0.99375743
1.3090527 0.76309568 0.056694943 0.99395317
1.3087695 0.74105465 0.056275174 0.99399787
1.4608203 0.70995116 0.060772207 0.99351972
1.6127343 0.70994139 0.065932155 0.99297154
1.7293261 0.70995116 0.069947049 0.99254513
1.9504101 0.68838865 0.077390857 0.99175507
20.684921 4.4873438 0.79197782 0.91876626
1.9504101 -0.68838865 0.07739082 0.99175507
1.9501171 -0.71596676 0.077729605 0.99171907
1.8611425 -0.70995116 0.074532583 0.99205834
1.6692969 -0.70995116 0.067874528 0.99276525
1.460791 -0.70995116 0.060771942 0.99351984
1.4152734 -0.70994139 0.059244651 0.99368221
1.3719823 -0.70994139 0.057801284 0.99383563
1.3307421 -0.70995116 0.056435242 0.99398082
1.3084668 -0.71933591 0.055870321 0.99404103
1.3096484 -0.8082031 0.057582472 0.99385881
1.3099316 -0.83131832 0.058051184 0.9938091
1.3106152 -0.8786816 0.05904045 0.99370384
1.3109375 -0.90300781 0.059562836 0.99364841
1.3113086 -0.92776364 0.060104176 0.99359083
1.3116796 -0.95298827 0.060665395 0.99353117
11.358809 -8.4727488 0.5302335 0.94485611
11.380888 -8.7139301 0.53632975 0.94423968
4.9413767 -3.8828807 0.23514584 0.97515845
4.8656931 -3.9233203 0.23387271 0.97529131
3.3828611 -3.8860545 0.19278018 0.97958797
4.6505175 -8.2130661 0.3531563 0.96292508
4.5241308 -8.2293997 0.35138568 0.96310747
4.3894434 -8.227602 0.34892535 0.96336091
4.2565918 -8.2258348 0.34655482 0.96360523
3.8598535 -8.2025681 0.339201 0.96436369
3.8310547 -9.0079393 0.36626789 0.96157521
-11.261836 -21.763485 0.91689771 0.90656984
-11.302011 -18.31378 0.80523908 0.9174639
-11.22668 -17.208593 0.7688089 0.92104626
-12.728281 -18.98457 0.85523057 0.91257018
-14.13457 -18.9492 0.88455182 0.90971226
-14.504941 -18.944277 0.89276195 0.90891379
-15.266992 -18.934155 0.91008174 0.90723115
-3.955498 -4.005527 0.21063839 0.97771859
-1.074541 -0.91192383 0.052734181 0.99437457
-1.0741503 -0.888623 0.052163236 0.99443531
-1.0734375 -0.84350586 0.05108238 0.99455029
-1.0731055 -0.82163084 0.050570868 0.99460471
-1.0727637 -0.80020505 0.050077286 0.99465722
-1.0724413 -0.77917969 0.049601477 0.99470788
-1.0715625 -0.71844727 0.048272856 0.99484921
-1.0882226 -0.70994139 0.048617437 0.99481255
-1.1186817 -0.70994139 0.049576338 0.99471056
-1.2178515 -0.70994139 0.052746277 0.99437326
-1.2913769 -0.70994139 0.055140875 0.99411863
-1.3719629 -0.70995116 0.057801474 0.99383569
-1.4152637 -0.70995116 0.059244726 0.99368221
-1.4607519 -0.70994139 0.060772054 0.99352002
-1.5592675 -0.70995116 0.064106867 0.99316555
-1.612705 -0.70995116 0.0659317 0.99297166
-1.7388378 -0.66330075 0.069636188 0.99257827
-21.928946 -8.0509129 0.87407362 0.91073263
-1.7430663 0.69012696 0.064946324 0.99252474
-1.6692871 0.70995116 0.062843055 0.99276596
-1.6127245 0.70994139 0.061044347 0.99297231
-1.5592773 0.70996094 0.059354629 0.99316615
-1.5087109 0.70996094 0.057765272 0.9933486
-1.4607812 0.70996094 0.056266822 0.9935205
-1.3719629 0.70996094 0.053516541 0.99383628
-1.3307226 0.70996094 0.052251816 0.99398148
-1.2913867 0.70994139 0.051053159 0.99411917
