# .PCD v0.7 - Point Cloud Data file format
VERSION 0.7
FIELDS x y z intensity
SIZE 4 4 4 4
TYPE F F F F
COUNT 1 1 1 1
WIDTH 1101
HEIGHT 1
VIEWPOINT 0 0 0 1 0 0 0
POINTS 1101
DATA ascii
-5.6120701 15.900868 1.146262 0.93463016
-5.4240232 16.006142 1.1488473 0.9344877
-5.2350879 16.111904 1.1516244 0.93433464
-4.9124899 16.520683 1.171646 0.93323201
-3.3032227 16.206797 1.1243761 0.93583822
-3.0797656 16.144531 1.1172698 0.93622977
-1.5111133 8.5003901 0.58690113 0.96597791
-1.400957 8.4991302 0.58555359 0.96605474
-2.2376854 16.084805 1.1039491 0.93696553
-2.032295 16.087109 1.1022691 0.93705851
2.7414258 12.636865 0.87901425 0.94947833
11.626269 10.917812 1.0842057 0.93805844
1.3460253 0.9523437 0.11208759 0.99341112
1.3453418 0.92670894 0.11105137 0.9934718
1.3446581 0.90154296 0.11005253 0.99353039
1.342793 0.82869136 0.10726582 0.99369371
1.3416601 0.78213865 0.10557132 0.99379301
1.3406249 0.73703122 0.10399795 0.99388516
1.4152734 0.70995116 0.10763408 0.99367207
1.460791 0.70996094 0.11040844 0.99350947
1.5592871 0.70995116 0.11646755 0.99315453
1.6127245 0.70996094 0.11978298 0.99296033
1.6692969 0.70997071 0.12331264 0.99275362
1.7293066 0.70997071 0.12707713 0.99253327
1.861123 0.70996094 0.13540912 0.99204564
1.8971484 0.69654298 0.13738376 0.99193019
1.8976855 -0.66976559 0.13680072 0.99196422
1.7930957 -0.70993161 0.13109997 0.99229795
1.612705 -0.70995116 0.11978222 0.99296039
1.5592577 -0.70994139 0.11646694 0.99315464
1.5087109 -0.70995116 0.11334751 0.99333727
1.4607812 -0.70994139 0.11040775 0.99350953
1.4152441 -0.70994139 0.10763336 0.99367219
1.3401269 -0.71496093 0.10325432 0.99392879
1.3406347 -0.73702145 0.1039981 0.99388516
1.3411425 -0.75938475 0.10477012 0.99383998
1.3440235 -0.87683594 0.10908939 0.99358684
1.3446679 -0.90155274 0.11005253 0.99353033
11.004063 -8.6469336 0.95135421 0.94543606
10.903067 -8.7913866 0.95209789 0.94539458
3.9918065 -8.2135592 0.62079144 0.96404904
3.8641698 -8.2118597 0.6169436 0.96426785
3.6314452 -8.2492476 0.61270213 0.96450919
3.506084 -8.243906 0.6089828 0.96472067
3.3822753 -8.2387009 0.60541224 0.96492392
3.2480371 -8.2036667 0.59979075 0.96524388
3.1459668 -8.2471676 0.60003346 0.96523005
-12.002587 -20.589369 1.6200846 0.9088732
-13.7604 -20.523964 1.6797416 0.90568119
-13.752958 -19.965839 1.6480774 0.90737414
-13.745811 -19.428242 1.6178352 0.90899414
-13.660361 -18.801826 1.5798427 0.91103315
-14.141436 -18.95833 1.6077964 0.90953231
-14.889522 -18.948399 1.6381779 0.90790403
-15.274384 -18.943281 1.6542013 0.9070465
-15.666943 -18.938066 1.6708069 0.90615857
-4.651289 -4.0489745 0.41920412 0.97557926
-1.1051562 -0.93789059 0.098533437 0.99420553
-1.1023828 -0.84404296 0.094380759 0.99444902
-1.1187304 -0.70995116 0.090068586 0.99470192
-1.2178711 -0.70994139 0.095827751 0.99436414
-1.3307617 -0.70995116 0.10252975 0.99397111
-1.3719727 -0.70994139 0.10501137 0.99382579
-1.4152734 -0.70995116 0.10763367 0.99367207
-1.4608105 -0.70995116 0.11040828 0.99350941
-1.5087402 -0.70994139 0.11334797 0.99333721
-1.6892577 -0.71841794 0.12478534 0.99266738
-1.6941016 0.6954785 0.11939251 0.99268609
-1.6935546 0.72027344 0.1199834 0.99265009
-1.5593066 0.70996094 0.11170033 0.99315566
-1.5087402 0.70996094 0.10870838 0.99333841
-1.2914063 0.70996094 0.096077614 0.99411011
-1.2178808 0.70995116 0.091905631 0.99436516
-1.1834472 0.70996094 0.089973107 0.99448329
-1.0968456 0.73538083 0.086093523 0.99472058
-1.1002831 0.86458981 0.091229439 0.99440646
-1.1016113 0.91131836 0.093208998 0.99428546
-1.1023047 0.93547851 0.094255596 0.99422151
-12.704775 11.930576 1.1362576 0.93252277
-12.306963 12.153242 1.1276468 0.93301672
-11.914873 12.372734 1.1198632 0.93346316
-11.527929 12.589316 1.1128882 0.93386364
-10.767148 13.015204 1.1012591 0.93453151
-10.205859 13.329394 1.0944951 0.93492025
-9.6506443 13.640185 1.0893519 0.93521601
-9.46665 13.743183 1.0879914 0.93529427
-8.7343264 14.153115 1.0842875 0.9355073
-8.1873436 14.459307 1.0833163 0.93556315
-8.0051661 14.561298 1.0833328 0.93556201
-7.8229098 14.66331 1.083524 0.93555117
-7.6405859 14.765361 1.0838832 0.93553042
-7.2754102 14.969775 1.0851213 0.93545926
-7.0924511 15.072197 1.0860009 0.93540877
-6.7255173 15.277597 1.0882745 0.93527794
-6.5413961 15.380654 1.0896732 0.93519753
-6.1716113 15.587666 1.0930034 0.93500608
-5.7993259 15.796064 1.097047 0.93477362
-5.4240036 16.006132 1.1018186 0.93449944
-5.0452051 16.218184 1.1073353 0.93418252
-3.3032227 16.206797 1.078366 0.93584967
-1.5111231 8.5004005 0.56287652 0.96598399
-1.4009472 8.4991503 0.5615831 0.96606082
-1.3075879 8.6052341 0.56746382 0.96571165
-2.2376757 16.084805 1.0587569 0.93697679
2.741416 12.636885 0.84303421 0.94948733
11.626143 10.917676 1.0397847 0.93807024
1.3421191 0.92450196 0.1062516 0.99348855
1.3402734 0.85058594 0.10349254 0.99365711
1.3719629 0.70996094 0.10071308 0.99382693
1.460791 0.70996094 0.10588898 0.99351066
1.6692969 0.70996094 0.11826496 0.992755
1.7293164 0.70996094 0.12187549 0.99253464
1.7931249 0.70996094 0.12573399 0.9922992
1.8611034 0.70996094 0.12986591 0.99204719
1.9018555 0.69826168 0.13208607 0.99191171
15.621435 -4.2208495 1.0549693 0.937195
1.7292968 -0.70995116 0.12187458 0.9925347
1.6692871 -0.70995116 0.11826427 0.992755
1.612705 -0.70995116 0.11487896 0.9929617
1.5592577 -0.70994139 0.11169918 0.9931559
1.3381348 -0.75769532 0.10025528 0.99385488
1.3386133 -0.78035152 0.10102039 0.99380821
1.3391699 -0.80337888 0.10181423 0.99375963
1.3403027 -0.85057616 0.10349254 0.99365705
3.8641796 -8.2118549 0.59168977 0.96427435
3.7463574 -8.2282715 0.58943504 0.96440804
3.3759668 -8.2233591 0.57954866 0.96499443
3.2480469 -8.2036619 0.57523888 0.96525019
3.1459863 -8.2471771 0.57547426 0.96523631
-12.009951 -21.210199 1.5891056 0.9069168
-11.989433 -19.985268 1.5194386 0.91081011
-12.041103 -18.45685 1.4367365 0.91545284
-13.660371 -18.80183 1.5151711 0.91104877
-14.512002 -18.953407 1.5562956 0.90874827
-14.889522 -18.948399 1.5711218 0.90792018
-4.651279 -4.0489841 0.40204379 0.97558367
-1.0996581 -0.84194332 0.090293117 0.9944638
-1.098457 -0.7980566 0.08852043 0.99457222
-1.0973828 -0.75588864 0.086873166 0.99467283
-1.0968554 -0.73538083 0.086093478 0.99472052
-1.1187304 -0.70995116 0.086381532 0.99470288
-1.2538378 -0.70994139 0.093937412 0.99424088
-1.2913965 -0.70993161 0.096077271 0.99411023
-1.3307617 -0.70995116 0.098332673 0.99397224
-1.3719727 -0.70994139 0.10071274 0.99382693
-1.4152734 -0.70995116 0.10322784 0.99367321
-1.4608105 -0.70995116 0.10588855 0.9935106
-1.5087402 -0.70994139 0.10870799 0.99333841
-1.5592871 -0.70994139 0.11169963 0.99315578
-1.6127245 -0.70995116 0.11487927 0.99296165
-1.6989062 0.67265624 0.11404369 0.99270362
-1.5593066 0.70996094 0.10693462 0.99315691
-1.5087402 0.70996094 0.10407043 0.99333954
-1.2178808 0.70995116 0.087984271 0.99436617
-1.0952832 0.77492183 0.083739623 0.99463719
-1.0958008 0.7961328 0.084538609 0.99458623
-1.0963477 0.81779295 0.085367352 0.9945333
-1.0969532 0.83988279 0.086227149 0.99447829
-1.0994531 0.93305659 0.090001293 0.99423742
-13.313671 11.589717 1.1017005 0.93170094
-13.108994 11.704316 1.096845 0.93199128
-12.704785 11.930576 1.0877764 0.93253428
-12.505127 12.042334 1.0835533 0.93278724
-12.306963 12.153252 1.0795337 0.93302816
-12.110244 12.263379 1.0757104 0.9332571
-11.914883 12.372734 1.0720832 0.93347448
-11.720791 12.481367 1.0686522 0.93368036
-11.527929 12.589326 1.0654062 0.93387491
-11.336191 12.69666 1.0623473 0.93405825
-11.145527 12.803369 1.0594757 0.93423063
-10.767138 13.015204 1.0542734 0.93454272
-10.579258 13.120371 1.05194 0.93468279
-10.392168 13.225078 1.0497825 0.93481237
-10.205839 13.329385 1.0477961 0.93493146
-9.8351269 13.536904 1.0443454 0.93513876
-9.0998726 13.948486 1.0394654 0.93543172
-8.9169922 14.050869 1.0386621 0.93547994
-8.3695698 14.357285 1.0372415 0.93556547
-8.1873436 14.459307 1.0370941 0.93557417
-8.005146 14.561289 1.0371116 0.9355731
-7.8229003 14.66331 1.0372952 0.93556219
-7.6405759 14.765361 1.0376388 0.93554145
-7.2754002 14.969775 1.0388237 0.93547028
-6.7254977 15.277607 1.0418404 0.93528903
-6.3567677 15.484004 1.0446904 0.93511802
-6.1715918 15.587656 1.0463657 0.93501723
-5.6120505 15.900868 1.0524354 0.93465304
-5.4239941 16.006132 1.0548062 0.93451065
-4.9525099 16.655273 1.0845064 0.9327302
-4.8987303 17.265644 1.1201514 0.93059766
-3.3032227 16.206797 1.0323737 0.93586057
-1.5111231 8.5004005 0.53886163 0.96598989
-1.4009374 8.4991407 0.53762347 0.96606672
-2.0293164 20.117636 1.2619973 0.92216021
2.741416 12.636894 0.80706376 0.94949597
1.3395703 0.94778317 0.10241878 0.99344498
1.3389257 0.92229491 0.10147674 0.99350518
1.3377441 0.87275386 0.099691808 0.99361897
1.336123 0.80156249 0.097248189 0.99377489
1.3356152 0.77860349 0.096491545 0.99382317
1.3346581 0.73374021 0.095059924 0.99391454
1.3341894 0.71181637 0.094383121 0.99395776
1.3719629 0.70996094 0.096416131 0.993828
1.4152734 0.70995116 0.09882389 0.99367434
1.6127245 0.70995116 0.10997821 0.99296284
15.621172 -4.2207618 1.0099412 0.9372068
1.906582 -0.69997066 0.12676449 0.99189317
1.7931055 -0.70994139 0.12036884 0.99230063
1.6692871 -0.70995116 0.11321849 0.99275631
1.612705 -0.70995116 0.10997753 0.99296296
1.4607812 -0.70994139 0.10137058 0.99351186
1.3719434 -0.70993161 0.096415706 0.99382812
1.3346581 -0.73373044 0.095059775 0.99391454
1.3356054 -0.77860349 0.096491389 0.99382317
1.336123 -0.80154294 0.097248226 0.99377489
1.3371778 -0.84860349 0.098847501 0.99367291
1.3389257 -0.92228514 0.10147671 0.99350518
11.00374 -8.6466742 0.87345624 0.9454568
3.7463379 -8.228281 0.56428552 0.96441424
3.6214745 -8.2266111 0.56100589 0.96461737
-12.009971 -21.210199 1.5213063 0.90693241
-11.989404 -19.985258 1.4546008 0.91082519
-13.74579 -19.428213 1.4854063 0.90902555
-13.660341 -18.80183 1.4505231 0.91106385
-13.711728 -18.382271 1.4313388 0.91218704
-14.511992 -18.953403 1.4898924 0.90876365
-14.88955 -18.948402 1.5040869 0.90793562
-15.274394 -18.943285 1.5187979 0.90707844
-16.06753 -18.932734 1.549844 0.90527171
-4.6512694 -4.0489745 0.38488939 0.97558802
-1.0994629 -0.93305659 0.090001181 0.99423736
-1.0981445 -0.88544917 0.088044472 0.99436235
-1.0975293 -0.86243165 0.087118983 0.99442142
-1.0963769 -0.81778318 0.085367389 0.99453324
-1.1834277 -0.70993161 0.086133763 0.99448436
-1.2914063 -0.70994139 0.091977991 0.99411118
-1.3307617 -0.70995116 0.094137415 0.99397331
-1.4608105 -0.70995116 0.10137073 0.99351174
-1.5592871 -0.70994139 0.10693367 0.99315697
-1.6979101 -0.72211915 0.11515834 0.99263257
-1.6984179 -0.69725585 0.11458973 0.99266881
-1.7036816 0.64990234 0.10873653 0.99271995
-1.7022852 0.72398436 0.11031086 0.99261487
-1.6127441 0.70996094 0.10507858 0.99296397
-1.5593066 0.70996094 0.10217037 0.99315804
-1.5087402 0.70996094 0.099434048 0.99334067
-1.4608105 0.70995116 0.096855007 0.99351281
-1.415293 0.70996094 0.094420962 0.99367529
-1.3307617 0.70995116 0.089943655 0.99397433
-1.2914063 0.70996094 0.08788044 0.99411213
-1.2538476 0.70994139 0.0859235 0.99424285
-1.1504394 0.70995116 0.080614738 0.99459755
-1.1187304 0.70996094 0.079011954 0.99470466
-1.0926465 0.7730664 0.079817235 0.99465096
-1.0931543 0.79421872 0.080576971 0.99460018
-1.0936913 0.81578124 0.081365123 0.99454755
-1.0947949 0.86027342 0.083030663 0.9944362
-1.095996 0.90668941 0.08482296 0.9943164
-1.0966406 0.93067378 0.085770532 0.99425304
-12.505116 12.042334 1.0352774 0.93279821
-12.306963 12.153252 1.0314364 0.93303907
-11.914883 12.372725 1.0243183 0.93348539
-11.527929 12.589335 1.0179385 0.93388569
-11.336201 12.696651 1.0150186 0.93406904
-10.767129 13.015195 1.0073037 0.93455344
-10.579247 13.120361 1.0050724 0.93469352
-10.205839 13.329385 1.0011146 0.93494213
-10.020185 13.433311 0.99938536 0.93505085
-9.835146 13.536894 0.99781567 0.93514937
-9.46665 13.743164 0.99516445 0.93531597
-9.0998535 13.948476 0.99315566 0.93544239
-8.1873531 14.459287 0.9908905 0.93558472
-8.005146 14.561279 0.99090683 0.93558365
-7.6405859 14.765351 0.9914102 0.935552
-7.458076 14.86751 0.99189585 0.93552136
-7.2753906 14.969766 0.99254256 0.93548089
-6.9091601 15.174775 0.99430537 0.93537003
-6.7254882 15.277597 0.99542511 0.93529963
-6.5413766 15.380654 0.99670237 0.93521923
-6.3567677 15.483994 0.99814743 0.93512863
-6.1716208 15.587636 0.9997493 0.9350279
-5.7992969 15.796035 1.0034465 0.93479556
-5.2350779 16.111876 1.0102493 0.93436837
-4.9524999 16.655273 1.0361865 0.93274122
-4.9549513 17.46377 1.0825293 0.92984128
-4.8837986 18.07497 1.116524 0.92771971
-4.8675194 18.957645 1.1671779 0.9245674
-3.3032129 16.206806 0.98637313 0.93587106
-1.307627 8.6054392 0.51906115 0.9657225
-2.0323241 16.087109 0.9669528 0.93709075
-2.0293067 20.117626 1.2057701 0.9221729
2.741416 12.636914 0.77110839 0.9495042
1.3357519 0.92011714 0.096725732 0.99352157
1.3352051 0.89519531 0.095861658 0.99357915
1.3340722 0.84665036 0.094225459 0.99368858
1.3335742 0.82300782 0.093451001 0.9937402
1.3330761 0.79973632 0.092704237 0.99379003
1.3325976 0.77685547 0.091984972 0.99383807
1.3321289 0.75430661 0.091291271 0.99388444
1.3719629 0.70996094 0.092120394 0.99382907
1.6127245 0.70995116 0.10507835 0.99296403
1.7293164 0.70996094 0.11147724 0.9925372
1.7931347 0.70995116 0.11500667 0.99230182
1.8611034 0.70995116 0.11878597 0.99204993
1.9113379 0.70172852 0.12141842 0.9918744
1.9113281 -0.70170897 0.12141834 0.99187446
1.7292968 -0.70995116 0.11147656 0.99253726
1.612705 -0.70995116 0.10507786 0.99296409
1.5592577 -0.70993161 0.10216949 0.99315828
1.4607812 -0.70994139 0.09685421 0.99351293
1.4152441 -0.70994139 0.094420545 0.99367553
1.3326074 -0.77683592 0.091984935 0.99383807
1.3330663 -0.79972655 0.092704348 0.99379009
1.3335644 -0.82299805 0.093450926 0.99374026
1.3351855 -0.89517576 0.09586174 0.99357927
3.7463574 -8.2282906 0.53914368 0.96442008
3.6214941 -8.2266302 0.53601205 0.96462315
3.4980567 -8.2249899 0.53299916 0.96481848
3.3759863 -8.2233591 0.53010178 0.96500629
3.1459863 -8.2472219 0.52637607 0.96524793
3.1662598 -8.6242771 0.5478586 0.96385556
-12.009971 -21.210205 1.4535277 0.90694737
-11.989404 -19.985214 1.3897481 0.91083974
-11.979726 -18.876966 1.3333383 0.9143073
-13.760351 -20.523867 1.4735303 0.90572917
-13.658398 -18.310791 1.3622504 0.91252726
-15.274384 -18.943285 1.4511293 0.90709341
-15.666953 -18.938061 1.465698 0.90620589
-16.067518 -18.932749 1.4807974 0.90528697
-1.0966406 -0.93065429 0.085770339 0.9942531
-1.0954003 -0.88322264 0.083910294 0.99437737
-1.0947949 -0.86026365 0.083030358 0.99443626
-1.0942285 -0.83780271 0.082182616 0.99449289
-1.0936913 -0.81579101 0.081365012 0.99454749
-1.0931543 -0.79419923 0.080576777 0.99460024
-1.092666 -0.77304685 0.079817124 0.99465096
-1.0912499 -0.71189451 0.077696875 0.99479264
-1.1187304 -0.70995116 0.079011761 0.99470472
-1.1834277 -0.70993161 0.082296409 0.99448532
-1.2178711 -0.70994139 0.08406391 0.99436712
-1.2914063 -0.70994139 0.087880246 0.99411219
-1.4608105 -0.70995116 0.096854739 0.99351281
-1.5087402 -0.70994139 0.099433288 0.99334073
-1.5592871 -0.70994139 0.10216957 0.99315816
-1.7022461 -0.72396481 0.11031047 0.99261504
-1.7027441 -0.6990332 0.10976459 0.99265146
-1.7032226 -0.67434567 0.10924 0.99268639
-1.7036718 -0.64989257 0.10873653 0.99272001
-1.7080078 0.65154296 0.103931 0.99270272
-1.7066504 0.72583008 0.1054391 0.99259722
-1.6127441 0.70996094 0.10018066 0.9929651
-1.5593066 0.70996094 0.09740787 0.99315912
-1.3719921 0.70995116 0.087826498 0.99382997
-1.2538476 0.70994139 0.081918143 0.9942438
-1.2178808 0.70995116 0.080145679 0.99436802
-1.1187304 0.70996094 0.075329095 0.99470556
-1.0887109 0.71025389 0.07390327 0.99480551
-1.0891309 0.73020506 0.07454937 0.99476027
-1.0895898 0.75052732 0.075219877 0.99471325
-1.0910351 0.81382811 0.077383652 0.99456155
-1.0920606 0.8581543 0.078963503 0.99445093
-1.0932324 0.90438473 0.080664255 0.99433166
-1.0938085 0.92827147 0.081562653 0.99426877
-1.0944433 0.9527148 0.082495533 0.99420339
-13.108965 11.704297 0.9991287 0.93201309
-12.906015 11.81791 0.99490386 0.93229073
-12.704756 11.930556 0.99086696 0.93255591
-12.505116 12.042324 0.9870221 0.9328087
-12.306963 12.153242 0.98335785 0.9330495
-11.914873 12.372725 0.9765712 0.93349576
-11.720781 12.481367 0.97344387 0.93370157
-11.52791 12.589316 0.97048885 0.93389606
-11.336201 12.696651 0.96770537 0.93407929
-11.145536 12.803369 0.96508682 0.93425161
-10.955859 12.909541 0.96263564 0.93441302
-10.767118 13.015195 0.96034741 0.9345637
-10.579247 13.120371 0.95821989 0.93470365
-10.392168 13.225078 0.95625591 0.93483323
-10.205839 13.329385 0.95444745 0.93495226
-10.020185 13.433311 0.95279646 0.93506098
-9.8351173 13.536904 0.95130414 0.9351595
-9.6506443 13.640156 0.94996214 0.93524784
-9.4666595 13.743164 0.94877636 0.93532598
-9.0998535 13.948476 0.94685942 0.93545246
-8.7343359 14.153095 0.94554591 0.93553901
-8.5518646 14.255224 0.94511318 0.9355675
-8.3695898 14.357265 0.94483119 0.93558604
-7.6405759 14.765361 0.94519532 0.93556201
-7.2753806 14.969775 0.94627517 0.93549091
-7.0924215 15.072197 0.94704068 0.93544048
-6.7254977 15.277588 0.94902283 0.93530977
-6.5413671 15.380664 0.95024425 0.9352293
-6.3567576 15.483984 0.95161635 0.93513882
-6.1716113 15.587636 0.95314723 0.93503803
-5.9858103 15.69166 0.95483214 0.93492699
-5.2350974 16.111876 0.96315551 0.93437856
-5.0452342 16.218153 0.96564376 0.93421483
-4.9525194 16.655273 0.98788834 0.93275166
-4.9549122 17.463739 1.0320674 0.92985237
-4.9082322 18.16539 1.0697997 0.92738289
-4.8675098 18.957577 1.1127663 0.92457938
-4.849658 19.924286 1.1658401 0.9211278
-3.3032031 16.206806 0.94038862 0.93588108
-1.3076367 8.6055365 0.49487185 0.96572757
-2.2376854 16.084814 0.92328519 0.93700773
-2.0322754 16.087109 0.92187834 0.93710065
-2.0292969 20.117636 1.1495646 0.92218494
11.625673 10.917255 0.9067921 0.93810296
1.3331738 0.94326168 0.092849001 0.9934783
1.3315234 0.86868161 0.090388522 0.99365067
1.3305175 0.82113278 0.088891409 0.99375546
1.3300586 0.79792964 0.088182829 0.99380505
1.3295801 0.77509767 0.087499842 0.99385297
1.3291601 0.75262696 0.086841546 0.99389899
1.3287207 0.73048824 0.086207315 0.99394351
1.4152734 0.70995116 0.090019718 0.99367642
1.5592871 0.70995116 0.097407721 0.99315923
1.6127245 0.70995116 0.10018028 0.99296516
1.7293164 0.70996094 0.10628098 0.99253839
1.8611034 0.70995116 0.11324901 0.99205124
1.9165429 0.67642576 0.11555004 0.99189031
1.9169433 0.64960939 0.11507389 0.99192363
15.620605 -4.2206249 0.91993648 0.93722904
1.612705 -0.70994139 0.10017963 0.99296528
1.5592577 -0.70993161 0.097406842 0.99315935
1.5087109 -0.70995116 0.09479782 0.99334186
1.4607812 -0.70994139 0.092339516 0.993514
1.4152441 -0.70994139 0.090018921 0.99367654
1.3719434 -0.70993161 0.087825924 0.99383014
1.3307031 -0.70994139 0.0857502 0.99397552
1.3295898 -0.77509767 0.08749973 0.99385297
1.3310156 -0.84469724 0.089626156 0.99370402
1.3315136 -0.86868161 0.090388641 0.99365067
1.3320508 -0.8930859 0.091178775 0.9935953
1.333164 -0.94324219 0.092849307 0.99347842
10.902392 -8.790864 0.79623806 0.94543451
3.7463379 -8.2282906 0.51401341 0.96442574
3.4980567 -8.2249899 0.50815332 0.96482408
3.2480371 -8.2036667 0.50163394 0.96526748
3.1459668 -8.2472267 0.50184 0.96525347
3.155664 -8.9410744 0.53906387 0.9627248
-12.002578 -20.589365 1.3549578 0.90893328
-13.752919 -19.965733 1.3783618 0.90743554
-13.660371 -18.801826 1.3212968 0.91109186
-14.511992 -18.953417 1.3571559 0.90879238
-14.889541 -18.948389 1.3700883 0.90796465
-1.0932128 -0.90436524 0.080663949 0.99433178
-1.0926465 -0.88099605 0.07979805 0.9943924
-1.0920898 -0.85812497 0.078963503 0.99445087
-1.0915527 -0.83575195 0.078159139 0.99450719
-1.0910351 -0.81379879 0.07738369 0.99456161
-1.0905371 -0.79230469 0.076635815 0.99461401
-1.0900683 -0.77121091 0.075915068 0.99466449
-1.0895898 -0.75050777 0.075219877 0.99471325
-1.0891309 -0.73020506 0.074549519 0.99476027
-1.1187304 -0.70995116 0.07532867 0.99470556
-1.1834277 -0.70993161 0.078460269 0.99448621
-1.2178711 -0.70994139 0.080145456 0.99436808
-1.2914063 -0.70994139 0.083784029 0.99411315
-1.3307617 -0.70995116 0.085750505 0.99397528
-1.4608105 -0.70995116 0.092339665 0.99351388
-1.5593066 -0.70994139 0.097407222 0.99315917
-1.6127441 -0.70995116 0.10018001 0.9929651
-1.7075585 -0.67606443 0.10441326 0.99266905
-1.707998 -0.65152341 0.10393097 0.99270278
-1.7123437 0.65319335 0.099102207 0.99268538
-1.7119433 0.67780274 0.099563561 0.9926514
-1.5087402 0.70996094 0.09016525 0.99334276
-1.4608105 0.70995116 0.08782661 0.99351484
-1.3719921 0.70995116 0.083533973 0.99383092
-1.2538476 0.70994139 0.077913933 0.99424464
-1.1834472 0.70996094 0.074625894 0.99448693
-1.1504394 0.70995116 0.073100165 0.99459928
-1.1187304 0.70996094 0.071647219 0.99470633
-1.0870117 0.74875975 0.071374319 0.99472648
-1.0874609 0.76939452 0.072032586 0.99467796
-1.08792 0.79040039 0.072715037 0.99462771
-1.0883789 0.81183594 0.073422655 0.99457562
-1.0888867 0.83370113 0.074156724 0.99452144
-1.0899218 0.87880856 0.07570789 0.99440718
-1.0904492 0.90209961 0.076527439 0.99434686
-13.108954 11.704297 0.95029205 0.93202323
-12.906015 11.81789 0.94627178 0.93230087
-12.704765 11.930547 0.94243592 0.93256593
-11.336191 12.696651 0.92040402 0.93408912
-11.145527 12.803369 0.91791439 0.93426138
-10.767118 13.015204 0.91340846 0.93457335
-10.205859 13.329385 0.90779692 0.93496186
-10.020185 13.4333 0.90622848 0.93507069
-9.835146 13.536904 0.90480697 0.9351691
-9.6506443 13.640156 0.90352887 0.93525749
-9.46665 13.743164 0.90240079 0.93533564
-9.0998535 13.948486 0.90057933 0.935462
-8.1873436 14.459277 0.89852291 0.93560439
-8.005146 14.561269 0.89853984 0.93560332
-7.8229098 14.66328 0.8986969 0.93559241
-7.6405859 14.765342 0.89899659 0.93557167
-7.2753906 14.969775 0.90002131 0.9355005
-7.0924411 15.072187 0.90075195 0.93545008
-6.7255077 15.277588 0.902637 0.93531936
-6.5413766 15.380654 0.90379727 0.93523896
-6.1715918 15.587656 0.90655774 0.93504763
-5.7993064 15.796035 0.90991282 0.93481541
-5.4240136 16.006132 0.91387051 0.93454129
-5.2350879 16.111876 0.91608155 0.93438834
-5.0452051 16.218174 0.91844589 0.93422455
-4.9549122 17.463682 0.98161042 0.92986292
-4.9082127 18.165361 1.0175138 0.92739373
-3.3032129 16.206787 0.89439285 0.93589067
-1.5110937 8.5004196 0.46686327 0.96600604
-1.4009472 8.4991693 0.46579036 0.96608275
-2.2376952 16.084795 0.8781575 0.93701714
-2.0323045 16.087099 0.87681621 0.93711001
-2.0293067 20.117626 1.093376 0.92219645
11.625507 10.917109 0.86252868 0.93811303
1.3294531 0.91577148 0.087295838 0.99355406
1.3289453 0.8909961 0.086519659 0.99361116
1.3284472 0.86666989 0.085771181 0.99366623
1.3279589 0.84276366 0.08504951 0.9937194
1.3274902 0.81924802 0.084353596 0.9937706
1.327041 0.79612303 0.083682977 0.99382001
1.3261817 0.75095701 0.082413137 0.99391353
1.3257812 0.72886717 0.081812553 0.99395776
1.3719434 0.70995116 0.083533287 0.9938311
1.5086914 0.70996094 0.090165019 0.99334294
1.6127245 0.70995116 0.095283732 0.99296623
1.7931347 0.70995116 0.10428646 0.99230421
1.8611034 0.70995116 0.10771366 0.99205244
1.9208691 0.70523435 0.11065067 0.99183661
15.620351 -4.2205467 0.87495649 0.93723941
1.9208691 -0.70522457 0.1106509 0.99183661
1.7931055 -0.70994139 0.10428555 0.99230438
1.7292968 -0.70995116 0.10108543 0.99253958
1.6692871 -0.70994139 0.098090664 0.99275982
1.5592577 -0.70993161 0.092645869 0.99316043
1.5087109 -0.70994139 0.090164334 0.99334294
1.3719434 -0.70993161 0.083533093 0.9938311
1.3307031 -0.70994139 0.081558987 0.99397641
1.325791 -0.7288574 0.081812479 0.99395776
1.3262012 -0.75094724 0.082413137 0.99391347
1.3266015 -0.77334958 0.08303646 0.9938677
1.3270508 -0.79612303 0.083682895 0.99381995
1.3274804 -0.81924802 0.084353752 0.99377066
1.3279394 -0.84276366 0.085049815 0.99371946
1.3284277 -0.86666989 0.085771367 0.99366629
1.3294531 -0.91577148 0.087295681 0.99355406
1.3299901 -0.94098634 0.088100545 0.99349487
10.709072 -8.4151363 0.73648697 0.94690287
3.991787 -8.2135496 0.49382007 0.96407896
3.7463379 -8.228281 0.48889011 0.96443117
3.4980567 -8.2249804 0.48331615 0.96482939
3.1459961 -8.2472363 0.4773083 0.96525866
3.1662695 -8.6243114 0.496793 0.96386665
3.1556249 -8.9410839 0.51271617 0.96273041
3.418457 -22.497299 1.2304962 0.91287607
-12.024541 -21.87248 1.3496988 0.90485066
-11.989346 -19.985165 1.260235 0.9108668
-11.979677 -18.876888 1.2090149 0.91433346
-13.760322 -20.523848 1.3361719 0.90575755
-13.660361 -18.801821 1.2567155 0.91110492
-13.612763 -18.249603 1.2311434 0.91283262
-14.889522 -18.948402 1.3031226 0.90797812
-15.666963 -18.938066 1.3290784 0.90623397
-1.0916406 -0.95026368 0.078260422 0.99421912
-1.0888867 -0.83369136 0.074156642 0.9945215
-1.0883887 -0.81183594 0.073423006 0.99457556
-1.08792 -0.79040039 0.072715074 0.99462771
-1.0870312 -0.74874997 0.071374469 0.99472642
-1.15042 -0.70995116 0.073100053 0.99459934
-1.1834277 -0.70993161 0.074625358 0.99448705
-1.3307617 -0.70995116 0.081559293 0.99397624
-1.3719921 -0.70994139 0.083533473 0.99383092
-1.415293 -0.70995116 0.085619427 0.99367732
-1.5087402 -0.70994139 0.090164714 0.99334282
-1.6127441 -0.70995116 0.095283315 0.99296618
-1.7114941 -0.70262694 0.10004406 0.99261618
-1.7123339 -0.65318358 0.099102549 0.99268544
-1.6127441 0.70996094 0.090388566 0.99296719
-1.5593066 0.70995116 0.087887228 0.9931612
-1.4608105 0.70995116 0.083314821 0.99351579
-1.415293 0.70996094 0.081221119 0.99367821
-1.3307617 0.70995116 0.077369653 0.99397707
-1.2914063 0.70996094 0.075594746 0.99411488
-1.2538476 0.70994139 0.073911324 0.99424553
-1.2178808 0.70995116 0.072312281 0.99436969
-1.1834472 0.70996094 0.070791893 0.9944877
-1.1504394 0.70995116 0.069344901 0.99460006
-1.1187304 0.70996094 0.067966193 0.99470711
-1.0882422 0.70995116 0.066651724 0.99480927
-1.0844531 0.74699217 0.067548558 0.99473965
-1.0853027 0.78851563 0.068814047 0.9946413
-1.086211 0.83166015 0.070175096 0.99453568
-1.0871972 0.87662107 0.071639173 0.9944219
-1.0877148 0.8998242 0.072412759 0.99436188
-1.0882422 0.92353511 0.073215447 0.99429959
-1.0888085 0.9478125 0.074048385 0.99423486
-13.108954 11.704307 0.90147245 0.93203276
-12.110214 12.26335 0.88410246 0.93329787
-11.914853 12.372715 0.88111889 0.93351507
-11.336171 12.696621 0.87311947 0.93409854
-11.145536 12.803359 0.87075776 0.93427068
-10.955859 12.909531 0.86854565 0.93443203
-10.767129 13.015195 0.8664816 0.93458259
-10.205859 13.329385 0.86115766 0.93497103
-10.020195 13.4333 0.85967022 0.93507981
-9.6506348 13.640165 0.85711318 0.93526661
-8.9169722 14.050849 0.85365081 0.9355194
-8.3695698 14.357265 0.85248321 0.93560475
-8.1873436 14.459268 0.85236281 0.93561351
-7.6405759 14.765342 0.85281003 0.93558073
-7.4580855 14.86749 0.85322905 0.93555015
-7.2754102 14.969755 0.85378402 0.93550962
-6.7254977 15.277577 0.85626525 0.93532854
-6.1715918 15.587626 0.85998458 0.93505692
-5.9857812 15.69163 0.86150283 0.934946
-5.6120701 15.90084 0.86497116 0.93469286
-5.2350779 16.111876 0.86901718 0.93439758
-4.9524999 16.655273 0.89132839 0.93277115
-4.9549022 17.463652 0.93117768 0.92987293
-4.8918262 19.052353 1.0090178 0.9242388
-4.905293 20.152861 1.0639533 0.92028296
-4.8083396 22.164364 1.1634024 0.91316473
-3.0797753 16.144531 0.8430934 0.93629086
-1.4009472 8.4991798 0.44186121 0.96608758
-1.3076659 8.605752 0.44651285 0.96573681
-2.2376854 16.084795 0.83304137 0.93702602
-2.0293067 20.117636 1.0372063 0.9222073
2.7414258 12.636933 0.66330975 0.94952685
1.3263086 0.91361326 0.082616195 0.99357021
1.3249121 0.84083009 0.080495298 0.99373466
1.3240429 0.79431641 0.079204828 0.99383485
1.3236231 0.77163082 0.078594133 0.99388224
1.3232422 0.74927735 0.078005448 0.9939279
1.3228809 0.7272656 0.077438354 0.99397182
1.3307323 0.70996094 0.077369496 0.99397719
1.3719434 0.70995116 0.079242058 0.99383199
1.4607714 0.70995116 0.083314434 0.99351597
1.7293164 0.70996094 0.095893018 0.9925406
1.7931347 0.70995116 0.098928869 0.99230534
1.8611034 0.70995116 0.10218006 0.99205357
1.9256738 0.70699215 0.10522899 0.99181747
1.9260937 0.67979491 0.10477604 0.99185246
1.9264843 0.65284181 0.10434238 0.99188602
1.9264941 -0.65283203 0.10434219 0.99188602
1.7292968 -0.70995116 0.095892176 0.99254072
1.5592577 -0.70993161 0.087886125 0.99316138
1.3719434 -0.70993161 0.079241633 0.99383199
1.3307031 -0.70994139 0.077368923 0.99397731
1.3236231 -0.77161133 0.078594171 0.9938823
1.3244629 -0.81737304 0.079838179 0.99378568
1.325371 -0.86467773 0.08117687 0.99368179
1.3258398 -0.88892579 0.081883579 0.99362695
1.326328 -0.91362303 0.082616232 0.99357009
1.3268554 -0.93875974 0.083375968 0.99351114
10.666122 -8.3813715 0.6958487 0.94711763
10.9021 -8.7905903 0.71839172 0.94545192
10.669912 -9.055151 0.71786404 0.94549078
3.991787 -8.2135496 0.46845081 0.96408409
3.6214941 -8.2266254 0.46107844 0.96463919
3.3759863 -8.2233543 0.45599446 0.96502215
3.2480371 -8.2036572 0.45260355 0.96527773
3.1460059 -8.247241 0.45278957 0.96526361
3.1556444 -8.9410744 0.48637521 0.96273577
3.4182909 -22.496206 1.1672249 0.91289228
3.126709 -22.475449 1.1640186 0.91312093
-12.024541 -21.872484 1.2803571 0.90486389
-12.009951 -21.210196 1.2503238 0.90698826
-11.989346 -19.985142 1.1954762 0.91087925
-11.979677 -18.876865 1.1468294 0.9143455
-13.760293 -20.523794 1.2675259 0.90577084
-13.75288 -19.965679 1.2436343 0.90746218
-14.141436 -18.95833 1.2132486 0.90961778
-15.666953 -18.938057 1.2607957 0.90624702
-1.0888085 -0.94778317 0.074048422 0.99423492
-1.0882519 -0.92354488 0.073215522 0.99429953
-1.086211 -0.83166015 0.070175096 0.99453568
-1.0857714 -0.80987304 0.069482118 0.99458939
-1.0848731 -0.76755857 0.068169743 0.99469137
-1.0840625 -0.72679687 0.066949308 0.99478614
-1.0882324 -0.70994139 0.066651493 0.99480933
-1.1187304 -0.70995116 0.06796585 0.99470717
-1.1834277 -0.70993161 0.070791587 0.99448782
-1.3719921 -0.70994139 0.079241939 0.99383181
-1.5087402 -0.70994139 0.08553268 0.99334377
-1.5593066 -0.70994139 0.087886579 0.9931612
-1.6127441 -0.70995116 0.090388216 0.99296719
-1.6693066 -0.70994139 0.093051873 0.99276078
-1.7167187 -0.65484375 0.094250679 0.99266785
-1.7211132 0.65654296 0.089375876 0.99265015
-1.7207323 0.6812793 0.089793816 0.99261594
-1.7203516 0.7062695 0.090229258 0.99258018
-1.6693164 0.70995116 0.08801426 0.99276173
-1.6127441 0.70996094 0.085495219 0.99296814
-1.5087402 0.70996094 0.080902174 0.99334466
-1.4608105 0.70995116 0.07880386 0.99351668
-1.415293 0.70996094 0.07682354 0.99367911
-1.3307617 0.70995116 0.073180653 0.9939779
-1.2914063 0.70996094 0.071502112 0.99411565
-1.2538476 0.70994139 0.069909625 0.9942463
-1.1834472 0.70996094 0.066958956 0.99448848
-1.1504394 0.70995116 0.065590248 0.99460083
-1.081543 0.72512692 0.063177414 0.9947989
-1.0823144 0.76574218 0.064326398 0.9947046
-1.0840331 0.85179687 0.066890486 0.99449414
-1.0844922 0.87444335 0.067592353 0.9944365
-1.0849903 0.89756835 0.068320386 0.99437672
-1.085996 0.94537109 0.069859385 0.99425048
-12.704756 11.930556 0.84561491 0.9325844
-12.505078 12.042324 0.84233183 0.93283719
-12.306952 12.153233 0.83920503 0.93307787
-12.110214 12.263359 0.83623505 0.93330675
-11.52792 12.589307 0.82822478 0.93392402
-11.336201 12.69663 0.82584685 0.93410724
-10.767129 13.015176 0.81956816 0.93459141
-10.579258 13.120341 0.81775391 0.93473136
-10.20583 13.329365 0.8145346 0.93497986
-10.020185 13.43329 0.81312543 0.93508852
-9.8351173 13.536875 0.81184995 0.93518704
-9.4666405 13.743164 0.80969483 0.9353534
-9.2830858 13.845918 0.80881101 0.93542153
-9.0998535 13.948466 0.80805695 0.93547982
-8.9169626 14.050849 0.80743408 0.93552798
-8.5518751 14.255205 0.80656797 0.9355948
-8.3695602 14.357256 0.80632794 0.93561339
-7.2753906 14.969746 0.80755812 0.93551832
-7.0924315 15.072177 0.80821198 0.93546784
-6.7254782 15.277568 0.80990493 0.93533725
-6.3567677 15.483974 0.81211805 0.9351663
-6.1715817 15.587626 0.81342483 0.93506563
-5.9857712 15.69164 0.81486082 0.93495464
-5.4240232 16.006094 0.81998426 0.93455935
-4.9548826 17.463614 0.88076717 0.92988241
-4.9081736 18.165274 0.91297728 0.92741394
-4.8918357 19.052303 0.95438945 0.92424905
-4.905293 20.152802 1.0063525 0.92029375
-3.3032324 16.206797 0.80254239 0.93590826
-3.0797656 16.144541 0.7974484 0.93629938
-1.4009472 8.4991798 0.4179391 0.96609217
-2.2903709 20.164608 0.98466563 0.92194235
2.7414258 12.636924 0.62739837 0.94953364
11.625224 10.916826 0.7738716 0.93813157
1.3232226 0.91148436 0.077959858 0.993586
1.3223046 0.8626855 0.076604918 0.99369717
1.3218848 0.83890623 0.075963289 0.9937498
1.3210742 0.79253906 0.074748114 0.99384946
1.3203027 0.74761719 0.073618621 0.9939422
1.3199512 0.72567379 0.073084675 0.99398595
1.3719434 0.70995116 0.07495182 0.99383283
1.4607714 0.70995116 0.07880386 0.99351686
1.6692773 0.70995116 0.088014178 0.99276185
1.7931347 0.70996094 0.093572274 0.99230641
1.8611034 0.70995116 0.096647985 0.9920547
1.9305273 0.7087695 0.099781685 0.99179804
1.9308887 0.68151367 0.099350736 0.99183339
1.9312695 0.65446287 0.098938674 0.99186707
15.619823 -4.2204003 0.78503978 0.93725872
1.9309082 -0.68149412 0.099350929 0.99183333
1.9305176 -0.7087695 0.099781759 0.9917981
1.8611034 -0.70994139 0.096647032 0.9920547
1.7931055 -0.70994139 0.093572043 0.99230653
1.7292968 -0.70995116 0.090700455 0.99254173
1.612705 -0.70994139 0.085494265 0.99296832
1.5087109 -0.70994139 0.080901489 0.99334478
1.4152441 -0.70994139 0.076822735 0.99367929
1.3214746 -0.8155371 0.07534454 0.99380052
1.3232129 -0.91146481 0.077959821 0.99358606
1.3236914 -0.9365527 0.078675456 0.99352735
11.421728 -8.2983932 0.68499756 0.94502997
10.812871 -8.279048 0.66075623 0.94692284
10.648212 -8.3673 0.65706813 0.94721115
10.901923 -8.7904587 0.67948592 0.94546008
2.7329297 -3.8627148 0.22958218 0.98122913
2.6811621 -3.8923924 0.22932491 0.98124999
2.6563671 -3.9620409 0.23144336 0.98107839
3.2480371 -8.2036572 0.42809963 0.96528244
3.1662793 -8.624341 0.44575709 0.96387661
3.1265526 -22.47439 1.1009425 0.91313636
-12.024541 -21.872484 1.2110356 0.90487641
-12.009941 -21.210199 1.1826308 0.90700048
-11.971708 -20.536396 1.1533604 0.90919447
-11.956221 -19.373852 1.1046002 0.91286093
-11.979668 -18.876875 1.0848057 0.91435683
-13.760283 -20.523779 1.1989011 0.9057833
-13.752842 -19.965664 1.1763017 0.90747446
-13.660341 -18.801821 1.1276078 0.91112906
-16.067509 -18.932739 1.2048182 0.90534097
-1.0844922 -0.8744238 0.067592196 0.99443656
-1.0827246 -0.78663087 0.064932823 0.99465477
-1.0815625 -0.72511715 0.06317734 0.9947989
-1.0882324 -0.70994139 0.063042946 0.99481004
-1.15042 -0.70995116 0.06559021 0.99460089
-1.2538378 -0.70994139 0.069909327 0.9942463
-1.2914063 -0.70994139 0.071502075 0.99411571
-1.3719921 -0.70994139 0.074951552 0.99383265
-1.4608105 -0.70995116 0.078803673 0.99351668
-1.5593066 -0.70994139 0.083128124 0.99316216
-1.7203516 -0.70625001 0.090229072 0.99258018
-1.7255273 0.6582129 0.084476888 0.99263233
-1.7251562 0.68304688 0.084873043 0.99259794
-1.6693164 0.70995116 0.082977481 0.99276268
-1.6127441 0.70996094 0.080602646 0.9929691
-1.5087597 0.70995116 0.076272659 0.99334544
-1.4608301 0.70995116 0.074294508 0.99351746
-1.3719921 0.70995116 0.070663027 0.99383342
-1.3307617 0.70996094 0.068992883 0.99397868
-1.2538476 0.70994139 0.065908924 0.99424702
-1.1834472 0.70996094 0.063127555 0.99448919
-1.1187207 0.70995116 0.060607716 0.9947086
-1.0790429 0.72341794 0.059423905 0.99481165
-1.0793847 0.74349606 0.059953231 0.99476558
-1.0797558 0.76392579 0.060502127 0.99471778
-1.0805469 0.80596679 0.061661147 0.99461681
-1.0813476 0.84971678 0.062907904 0.99450833
-1.0822558 0.89530271 0.064249039 0.99439162
-1.0827343 0.91886717 0.064957544 0.99432987
-1.0832324 0.94294918 0.065692939 0.99426585
-13.108945 11.704287 0.80387145 0.93205047
-12.906015 11.81789 0.80046844 0.93232793
-12.704756 11.930537 0.79722351 0.93259299
-12.505068 12.042315 0.79412597 0.93284571
-12.306943 12.153233 0.79117996 0.93308634
-12.110234 12.26335 0.78838009 0.93331516
-11.720781 12.481347 0.78320295 0.93373799
-10.579247 13.120351 0.77095687 0.93473959
-10.020176 13.43329 0.76659513 0.93509674
-9.8351173 13.536875 0.76539063 0.93519521
-9.6506348 13.640156 0.76431453 0.93528342
-9.4666204 13.743144 0.76336074 0.93536168
-9.2830563 13.845908 0.7625258 0.93542981
-8.9169626 14.05083 0.76122725 0.93553621
-8.1873436 14.459257 0.76007676 0.93563032
-8.0051365 14.561259 0.76009107 0.93562919
-7.6405563 14.765322 0.76047742 0.9355976
-7.4580564 14.86748 0.76085156 0.93556702
-6.9091697 15.174746 0.76269865 0.93541574
-6.7254686 15.277558 0.76355696 0.93534547
-6.5413671 15.380625 0.76453823 0.935265
-6.1716113 15.587617 0.76687348 0.93507379
-5.9857812 15.69163 0.76823103 0.93496287
-5.0451856 16.218143 0.77692872 0.93425107
-4.9524999 16.655293 0.79482633 0.93278855
-4.9548731 17.463573 0.83036238 0.92989141
-4.8918262 19.052256 0.89977765 0.92425871
-4.8634763 22.418623 1.0493482 0.91223621
-1.5111231 8.5004396 0.3949303 0.96601981
-1.4009472 8.4991693 0.39402333 0.96609658
-1.3076953 8.6059475 0.39817828 0.96574509
2.7414551 12.636972 0.59149534 0.94953984
1.3201171 0.90935546 0.073326722 0.9936018
1.3184766 0.81370115 0.070872307 0.9938153
1.3181055 0.79076171 0.070312425 0.99386406
1.3177539 0.76820308 0.069772601 0.99391097
1.3173828 0.74596679 0.069252543 0.99395633
1.3719434 0.70995116 0.070662729 0.9938336
1.4152539 0.70995116 0.072427176 0.99368006
1.4607714 0.70995116 0.074294277 0.9935177
1.5086914 0.70996094 0.076272354 0.99334568
1.5592871 0.70995116 0.078371465 0.99316311
1.6692773 0.70995116 0.082977481 0.9927628
1.7292968 0.70996094 0.085510783 0.99254268
1.7931347 0.70996094 0.088218041 0.99230742
1.9353808 0.71055663 0.094308354 0.99177855
1.9357519 -0.6832031 0.093900181 0.99181396
1.935371 -0.71055663 0.094308279 0.99177861
1.7931055 -0.70994139 0.088217355 0.99230754
1.5592577 -0.70993161 0.078370892 0.99316323
1.3170702 -0.72407228 0.068751141 0.99399984
1.3177344 -0.76818359 0.069772646 0.99391103
1.3184766 -0.8136816 0.070872419 0.99381536
1.3192577 -0.86068356 0.072055012 0.99371248
1.3196777 -0.88478512 0.0726794 0.99365819
1.3201171 -0.90933591 0.073326759 0.99360186
11.405458 -8.2865524 0.64487869 0.94511312
11.347334 -8.4642286 0.6475563 0.94489163
10.831944 -8.2936621 0.62404239 0.94683844
10.664853 -8.3803759 0.62043047 0.94713759
10.901729 -8.7903509 0.64059174 0.94546783
2.6811621 -3.8923924 0.21620212 0.98125237
2.6563671 -3.9620605 0.2181998 0.98108077
3.9917967 -8.2135448 0.41773257 0.96409357
3.7463477 -8.2282858 0.41356021 0.96444559
3.6214843 -8.2266254 0.41115734 0.96464854
3.3759766 -8.2233734 0.4066247 0.96503133
3.1460059 -8.2472849 0.40377071 0.96527261
3.4179688 -22.494053 1.0407515 0.91292262
3.1264062 -22.473286 1.0378925 0.91315126
-11.971689 -20.536362 1.0873564 0.90920591
-13.760283 -20.523754 1.1302916 0.90579504
-13.745693 -19.428061 1.0886352 0.90910411
-13.66038 -18.801821 1.0630797 0.91114002
-14.889522 -18.948402 1.1023344 0.90801448
-15.274384 -18.943285 1.1131169 0.90715796
-1.0818067 -0.87225586 0.063566051 0.99445105
-1.0813671 -0.84971678 0.062907979 0.99450827
-1.0809277 -0.82761717 0.062273063 0.99456364
-1.0797656 -0.76393551 0.060502164 0.99471772
-1.0793847 -0.74349606 0.059953194 0.99476558
-1.0790234 -0.72343749 0.059423864 0.99481171
-1.0882226 -0.70995116 0.059435155 0.99481076
-1.2178711 -0.70994139 0.064482994 0.99437124
-1.2914063 -0.70994139 0.067410201 0.99411649
-1.5087402 -0.70995116 0.076272011 0.99334556
-1.5593066 -0.70994139 0.078371197 0.99316305
-1.6693066 -0.70994139 0.082977176 0.99276274
-1.7255077 -0.65820312 0.084476776 0.99263239
-1.7299511 0.65990233 0.079554133 0.99261439
-1.7296094 0.6847949 0.079928242 0.99257982
-1.5087597 0.70995116 0.071644209 0.99334627
-1.2538378 0.70994139 0.061909523 0.99424779
-1.2178711 0.70995116 0.06057018 0.99437189
-1.1504296 0.70995116 0.058084372 0.9946022
-1.0765234 0.72174805 0.055688895 0.99482435
-1.0768652 0.74175781 0.056183662 0.99477839
-1.077207 0.76212889 0.056696698 0.99473083
-1.0779296 0.80404294 0.057780378 0.9946304
-1.0783105 0.82561523 0.058352545 0.99457741
-1.0791211 0.87009764 0.059561118 0.99446541
-1.0799805 0.91653317 0.060861319 0.99434495
-13.108954 11.704277 0.75508863 0.93205857
-12.704746 11.930527 0.74884659 0.93260103
-12.505088 12.042295 0.74593717 0.9328537
-12.306933 12.153222 0.7431674 0.93309432
-12.110225 12.26333 0.74053997 0.93332314
-11.720771 12.481338 0.73567897 0.93374592
-11.5279 12.589307 0.73344618 0.93394029
-11.145508 12.803359 0.72936171 0.93429559
-10.767109 13.015176 0.72578186 0.93460745
-10.579238 13.120341 0.72417343 0.9347474
-9.4666204 13.743144 0.71703458 0.93536937
-9.0998535 13.948466 0.71558791 0.93549562
-8.7343159 14.153076 0.7145955 0.93558216
-8.5518751 14.255195 0.71426755 0.93561065
-8.3695803 14.357245 0.71405315 0.93562919
-7.458076 14.86748 0.71468139 0.93557459
-7.2753611 14.969746 0.71514404 0.93553418
-7.0924215 15.072177 0.71572125 0.93548369
-6.9091306 15.174766 0.7164166 0.93542337
-6.5413961 15.380625 0.71814454 0.93527263
-6.3567872 15.483954 0.71918243 0.93518221
-6.1716013 15.587617 0.72033799 0.93508154
-5.9858007 15.69163 0.72161132 0.93497056
-5.7993064 15.796025 0.72300351 0.93484932
-5.6120801 15.90082 0.72451442 0.93471766
-5.2350879 16.111855 0.72790557 0.93442249
-5.0452147 16.218134 0.72978836 0.93425888
-4.952529 16.655273 0.74659467 0.93279654
-4.9548631 17.463526 0.77997208 0.92989987
-4.8918066 19.052237 0.84516919 0.92426777
-4.8854098 21.228563 0.93596798 0.91648072
-3.3032129 16.206806 0.71067244 0.93592393
-3.0797558 16.144531 0.70619243 0.936315
-1.4009668 8.4991894 0.37011248 0.96610057
-2.2376757 16.084814 0.6977725 0.93704987
-2.0322852 16.087109 0.69671142 0.93714267
-2.2903612 20.164608 0.87198544 0.92196137
2.741416 12.636972 0.55560154 0.94954592
1.3174511 0.93213862 0.069343947 0.99355942
1.317041 0.90721679 0.068716466 0.99361748
1.3166504 0.88276362 0.068111114 0.99367344
1.3155078 0.81186521 0.066421472 0.99382997
1.315166 0.78899413 0.065897822 0.99387842
1.3148144 0.7664746 0.065393373 0.99392527
1.3307129 0.70995116 0.064805865 0.99397963
1.3719434 0.70995116 0.066374779 0.99383438
1.4152539 0.70995116 0.068032265 0.99368083
1.4607714 0.70995116 0.069785766 0.99351847
1.6127245 0.70995116 0.075711057 0.99297005
1.6692773 0.70995116 0.077942163 0.9927637
1.7292968 0.70996094 0.080321804 0.99254358
1.7931347 0.70996094 0.082864419 0.99230832
1.8611034 0.70996094 0.085587725 0.99205667
1.9405859 0.68491209 0.088423304 0.99179465
15.619296 -4.2202635 0.69518143 0.93727618
1.9406054 -0.68491209 0.088423386 0.99179453
1.9402636 -0.71234375 0.088808708 0.99175894
1.861084 -0.70995116 0.085587308 0.99205679
1.7931055 -0.70994139 0.082864031 0.9923085
1.5592577 -0.70993161 0.073615186 0.99316406
1.4607421 -0.70994139 0.069785424 0.99351859
1.3307031 -0.70994139 0.064805754 0.99397969
1.3148242 -0.7664746 0.065393411 0.99392521
1.3158789 -0.8350879 0.066964455 0.99377972
1.3162402 -0.85872066 0.067527346 0.99372762
1.3170313 -0.90721679 0.068716355 0.99361753
1.3174511 -0.93213862 0.069343798 0.99355942
11.427138 -8.3023043 0.60689592 0.94501829
11.157538 -8.3226557 0.59808636 0.9457944
10.664873 -8.3803711 0.58278322 0.94714385
10.687002 -8.6171722 0.58986622 0.94651914
10.687979 -8.8418846 0.59600693 0.94597775
10.656064 -9.0433931 0.60051328 0.9455803
2.6811621 -3.8923924 0.20308208 0.9812547
3.9917967 -8.2135544 0.39238268 0.96409786
3.7463477 -8.2282953 0.3884646 0.96444988
3.6214843 -8.2266254 0.38620868 0.96465278
3.2480469 -8.2036715 0.37910977 0.96529102
3.1460059 -8.2472992 0.37926662 0.96527672
3.1662989 -8.6243801 0.39474696 0.96388543
3.1556346 -8.9410791 0.40739635 0.96275008
3.1262403 -22.472221 0.97486126 0.91316539
-11.988554 -21.807064 1.0692459 0.90516984
-12.04874 -21.278667 1.0506773 0.90673721
-11.932109 -19.88974 0.99658978 0.91131842
-12.392998 -18.996235 0.97455186 0.91319203
-13.079756 -18.988457 0.99070466 0.91181833
-13.431835 -18.984467 0.99922621 0.91109478
-14.141436 -18.958324 1.0162404 0.90965152
-13.704658 -17.898989 0.9686119 0.9136976
-14.889541 -18.948393 1.035444 0.90802521
-15.666943 -18.938061 1.0560651 0.90628201
-1.0799903 -0.9165234 0.060861509 0.99434495
-1.0791309 -0.87011719 0.059561003 0.99446535
-1.0771972 -0.76212889 0.056696739 0.99473089
-1.076875 -0.74176759 0.0561837 0.99477834
-1.0765332 -0.72175777 0.055688664 0.99482429
-1.0882422 -0.70995116 0.055828437 0.9948113
-1.1187207 -0.70995116 0.056929626 0.99470925
-1.15042 -0.70994139 0.058084257 0.99460226
-1.2914063 -0.70994139 0.063319549 0.9941172
-1.3307617 -0.70994139 0.06480591 0.99397945
-1.4608105 -0.70994139 0.069785729 0.99351835
-22.614305 -7.9814792 1.0304153 0.90845096
-1.7344042 0.66160154 0.074607469 0.99259633
-1.734082 0.6865527 0.074959144 0.99256158
-1.7337402 0.71175778 0.075325392 0.9925254
-1.6693164 0.70995116 0.072908059 0.99276441
-1.6127441 0.70996094 0.0708213 0.99297076
-1.5087597 0.70995116 0.067016751 0.99334705
-1.415293 0.70996094 0.063638344 0.99368143
-1.3719823 0.70994139 0.062087972 0.99383497
-1.3307519 0.70996094 0.060620461 0.99398017
-1.2538378 0.70994139 0.057910878 0.99424845
-1.2178711 0.70995116 0.056658208 0.99437255
-1.1504296 0.70995116 0.054332998 0.9946028
-1.1187207 0.70995116 0.053252906 0.99470985
-1.0743555 0.74003905 0.052432593 0.99479115
-1.0746777 0.76034176 0.052910268 0.99474376
-1.0750293 0.78101563 0.053405683 0.99469471
-1.0764453 0.86795896 0.055576704 0.99447972
-1.0768554 0.89083004 0.056170654 0.99442083
-13.108926 11.704277 0.7063176 0.9320662
-12.905986 11.817881 0.70333159 0.9323436
-12.306933 12.153222 0.6951707 0.93310177
-12.110214 12.26333 0.69270873 0.9333306
-11.52791 12.589296 0.68607312 0.93394762
-11.336171 12.696621 0.68410289 0.93413079
-11.145497 12.803349 0.68225217 0.93430299
-10.95585 12.909521 0.68052107 0.93446422
-10.767109 13.015176 0.67890364 0.93461478
-10.579228 13.120332 0.67739928 0.93475473
-10.392158 13.225059 0.67601317 0.93488407
-9.8351269 13.536865 0.67250884 0.93521017
-9.6506252 13.640156 0.6715619 0.93529838
-9.4666204 13.743144 0.67072338 0.93537658
-8.9169531 14.05083 0.66885102 0.93555105
-8.3695698 14.357256 0.66793424 0.93563634
-7.8228807 14.663261 0.66796917 0.93563318
-6.7254782 15.277568 0.67089736 0.93536025
-6.1715918 15.587617 0.67381328 0.93508875
-5.9857907 15.691621 0.67500275 0.93497789
-5.7993064 15.796016 0.6763069 0.93485659
-5.6120505 15.900829 0.67772019 0.93472493
-5.4240036 16.006094 0.67924714 0.93458271
-5.0451856 16.218143 0.68264478 0.93426615
-4.9525099 16.655283 0.69837278 0.93280399
-4.9548631 17.463495 0.7295953 0.9299078
-4.908164 18.165117 0.75627166 0.92744029
-4.8854098 21.228516 0.87550843 0.91649008
-3.0797558 16.144531 0.66057968 0.93632215
-1.400957 8.4991798 0.34620714 0.96610445
-1.307705 8.6061525 0.34986797 0.9657523
-2.237705 16.084805 0.652704 0.9370569
-2.2903516 20.164629 0.81566417 0.92196989
-2.0292969 20.117636 0.812666 0.92224514
1.3135937 0.88072264 0.063564874 0.99368882
1.3118945 0.76478511 0.061034124 0.9939394
1.3116113 0.74268556 0.060580861 0.99398416
1.5086914 0.70996094 0.067016371 0.99334729
1.559248 0.70994139 0.068860888 0.9931649
1.6127245 0.70995116 0.070821151 0.99297082
1.6692773 0.70995116 0.072907679 0.99276453
1.7931347 0.70996094 0.077512547 0.99230921
1.8611034 0.70996094 0.080059849 0.99205756
1.945791 0.6593945 0.082573622 0.99180919
15.619042 -4.2202048 0.65019345 0.93728411
1.9454784 -0.68664062 0.082920529 0.99177498
1.9451562 -0.71414059 0.083282582 0.99173921
1.861084 -0.70995116 0.080059506 0.99205768
1.7931055 -0.70994139 0.077511936 0.99230933
1.7292968 -0.70994139 0.075133592 0.99254447
1.6692871 -0.70994139 0.072907716 0.99276453
1.612705 -0.70994139 0.070820652 0.99297094
1.5592577 -0.70994139 0.068860434 0.99316484
1.5087109 -0.70994139 0.067016296 0.99334723
1.4607421 -0.70994139 0.065277979 0.99351937
1.3719531 -0.70995116 0.062087324 0.99383503
1.3307129 -0.70995116 0.06062004 0.99398029
1.3113183 -0.72090816 0.060144424 0.99402738
1.3119043 -0.76478511 0.061034124 0.99393934
1.3128809 -0.83319336 0.062497176 0.9937945
1.3136035 -0.88071287 0.06356483 0.99368882
